ply
format ascii 1.0
element vertex 706
property float x
property float y
property float z
property uchar red
property uchar green
property uchar blue
property float nx
property float ny
property float nz
end_header
0.840235 0.707495 0.917183 128 128 255 0.896444 0.204611 0.393095
0.859966 0.723688 0.859665 128 128 255 0.902456 0.252210 0.349232
0.876775 0.737483 0.801697 128 128 255 0.905878 0.296085 0.302852
0.890733 0.748938 0.743543 128 128 255 0.906687 0.336350 0.254532
0.901923 0.758121 0.685448 128 128 255 0.904891 0.373141 0.204787
0.910439 0.765110 0.627634 128 128 255 0.900514 0.406613 0.154077
0.916384 0.769989 0.570304 128 128 255 0.893600 0.436932 0.102810
0.919868 0.772848 0.513641 128 128 255 0.884205 0.464269 0.051344
0.921003 0.773780 0.457806 128 128 255 0.872394 0.488803 0.000001
0.919907 0.772880 0.402942 128 128 255 0.858243 0.510709 -0.050940
0.916697 0.770246 0.349173 128 128 255 0.841829 0.530166 -0.101230
0.911492 0.765974 0.296608 128 128 255 0.823234 0.547348 -0.150653
0.904407 0.760160 0.245338 128 128 255 0.802538 0.562428 -0.199016
0.895558 0.752898 0.195439 128 128 255 0.779823 0.575574 -0.246151
0.885057 0.744279 0.146976 128 128 255 0.755168 0.586951 -0.291908
0.873010 0.734393 0.100000 128 128 255 0.728647 0.596717 -0.336157
0.859524 0.723325 0.054552 128 128 255 0.700333 0.605029 -0.378779
0.844698 0.711158 0.010663 128 128 255 0.670291 0.612037 -0.419666
0.828626 0.697968 -0.031646 128 128 255 0.638582 0.617889 -0.458722
0.811401 0.683832 -0.072358 128 128 255 0.605261 0.622726 -0.495854
0.793108 0.668819 -0.111466 128 128 255 0.570376 0.626689 -0.530973
0.773829 0.652997 -0.148968 128 128 255 0.533967 0.629914 -0.563992
0.753639 0.636428 -0.184866 128 128 255 0.496070 0.632537 -0.594821
0.732611 0.619170 -0.219166 128 128 255 0.456712 0.634687 -0.623367
0.710812 0.601281 -0.251878 128 128 255 0.415914 0.636498 -0.649527
0.688306 0.582810 -0.283015 128 128 255 0.373693 0.638099 -0.673188
0.665151 0.563808 -0.312591 128 128 255 0.330058 0.639620 -0.694224
0.641403 0.544318 -0.340624 128 128 255 0.285014 0.641192 -0.712489
0.617111 0.524382 -0.367131 128 128 255 0.238565 0.642943 -0.727812
0.592325 0.504041 -0.392131 128 128 255 0.190715 0.645006 -0.739997
0.567088 0.483329 -0.415643 128 128 255 0.141470 0.647508 -0.748812
0.541442 0.462282 -0.437686 128 128 255 0.090848 0.650580 -0.753985
0.515424 0.440930 -0.458281 128 128 255 0.038880 0.654344 -0.755197
0.489071 0.419302 -0.477445 128 128 255 -0.014378 0.658918 -0.752077
0.462415 0.397426 -0.495199 128 128 255 -0.068828 0.664407 -0.744195
0.435487 0.375327 -0.511559 128 128 255 -0.124319 0.670894 -0.731058
0.408316 0.353028 -0.526543 128 128 255 -0.180621 0.678434 -0.712111
0.380928 0.330552 -0.540167 128 128 255 -0.237400 0.687041 -0.686744
0.353349 0.307918 -0.552447 128 128 255 -0.294179 0.696663 -0.654308
0.325601 0.285146 -0.563395 128 128 255 -0.350312 0.707174 -0.614156
0.297707 0.262254 -0.573024 128 128 255 -0.404936 0.718346 -0.565691
0.269688 0.239260 -0.581347 128 128 255 -0.456960 0.729835 -0.508456
0.241564 0.216179 -0.588372 128 128 255 -0.505053 0.741178 -0.442240
0.213353 0.193026 -0.594108 128 128 255 -0.547686 0.751796 -0.367209
0.185074 0.169818 -0.598562 128 128 255 -0.583220 0.761039 -0.284033
0.156744 0.146569 -0.601740 128 128 255 -0.610059 0.768247 -0.193971
0.128380 0.123291 -0.603645 128 128 255 -0.626840 0.772848 -0.098884
0.100000 0.100000 -0.604279 128 128 255 -0.607050 0.793967 -0.033261
0.100000 0.100000 1.596606 128 128 255 0.731992 -0.680472 0.033848
0.156163 0.156163 1.593688 128 128 255 0.712193 -0.694857 0.099778
0.211940 0.211940 1.584967 128 128 255 0.717095 -0.669652 0.193239
0.266953 0.266953 1.570540 128 128 255 0.724964 -0.629597 0.279349
0.320836 0.320836 1.550570 128 128 255 0.735425 -0.576929 0.355393
0.373246 0.373246 1.525275 128 128 255 0.748003 -0.514288 0.419523
0.423862 0.423862 1.494927 128 128 255 0.762162 -0.444403 0.470761
0.472397 0.472397 1.459843 128 128 255 0.777339 -0.369847 0.508878
0.518593 0.518593 1.420377 128 128 255 0.792977 -0.292890 0.534231
0.562233 0.562233 1.376916 128 128 255 0.808545 -0.215421 0.547584
0.603134 0.603134 1.329864 128 128 255 0.823561 -0.138946 0.549947
0.641153 0.641153 1.279642 128 128 255 0.837594 -0.064618 0.542457
0.676183 0.676183 1.226674 128 128 255 0.850278 0.006720 0.526290
0.708154 0.708154 1.171382 128 128 255 0.861307 0.074473 0.502597
0.737028 0.737028 1.114182 128 128 255 0.870433 0.138255 0.472474
0.762801 0.762801 1.055474 128 128 255 0.877465 0.197835 0.436940
0.785493 0.785493 0.995640 128 128 255 0.882261 0.253107 0.396929
0.805152 0.805152 0.935040 128 128 255 0.884727 0.304057 0.353282
0.821844 0.821844 0.874011 128 128 255 0.884804 0.350744 0.306758
0.835657 0.835657 0.812861 128 128 255 0.882470 0.393276 0.258032
0.846690 0.846690 0.751873 128 128 255 0.877729 0.431800 0.207703
0.855054 0.855054 0.691301 128 128 255 0.870607 0.466490 0.156301
0.860870 0.860870 0.631371 128 128 255 0.861152 0.497535 0.104287
0.864265 0.864265 0.572284 128 128 255 0.849422 0.525139 0.052070
0.865367 0.865367 0.514214 128 128 255 0.835487 0.549510 0.000001
0.864308 0.864308 0.457311 128 128 255 0.819425 0.570859 -0.051612
0.861221 0.861221 0.401703 128 128 255 0.801316 0.589394 -0.102501
0.856234 0.856234 0.347498 128 128 255 0.781246 0.605324 -0.152441
0.849474 0.849474 0.294782 128 128 255 0.759296 0.618849 -0.201232
0.841065 0.841065 0.243626 128 128 255 0.735550 0.630167 -0.248707
0.831126 0.831126 0.194085 128 128 255 0.710086 0.639467 -0.294720
0.819770 0.819770 0.146200 128 128 255 0.682979 0.646932 -0.339146
0.807107 0.807107 0.100000 128 128 255 0.654297 0.652737 -0.381876
0.793238 0.793238 0.055503 128 128 255 0.624104 0.657053 -0.422818
0.778261 0.778261 0.012718 128 128 255 0.592458 0.660040 -0.461888
0.762266 0.762266 -0.028354 128 128 255 0.559408 0.661856 -0.499009
0.745340 0.745340 -0.067718 128 128 255 0.524997 0.662649 -0.534112
0.727562 0.727562 -0.105387 128 128 255 0.489259 0.662563 -0.567129
0.709006 0.709006 -0.141374 128 128 255 0.452224 0.661739 -0.597993
0.689741 0.689741 -0.175702 128 128 255 0.413910 0.660311 -0.626632
0.669832 0.669832 -0.208391 128 128 255 0.374331 0.658413 -0.652970
0.649336 0.649336 -0.239466 128 128 255 0.333491 0.656172 -0.676921
0.628308 0.628308 -0.268956 128 128 255 0.291390 0.653716 -0.698389
0.606799 0.606799 -0.296886 128 128 255 0.248020 0.651172 -0.717259
0.584854 0.584854 -0.323286 128 128 255 0.203369 0.648664 -0.733400
0.562516 0.562516 -0.348184 128 128 255 0.157423 0.646317 -0.746654
0.539824 0.539824 -0.371609 128 128 255 0.110167 0.644255 -0.756835
0.516813 0.516813 -0.393590 128 128 255 0.061589 0.642601 -0.763722
0.493515 0.493515 -0.414153 128 128 255 0.011685 0.641477 -0.767053
0.469961 0.469961 -0.433325 128 128 255 -0.039532 0.641004 -0.766519
0.446178 0.446178 -0.451133 128 128 255 -0.092026 0.641293 -0.761758
0.422190 0.422190 -0.467601 128 128 255 -0.145721 0.642450 -0.752346
0.398020 0.398020 -0.482752 128 128 255 -0.200484 0.644563 -0.737798
0.373690 0.373690 -0.496608 128 128 255 -0.256105 0.647696 -0.717566
0.349218 0.349218 -0.509190 128 128 255 -0.312265 0.651880 -0.691045
0.324621 0.324621 -0.520515 128 128 255 -0.368505 0.657095 -0.657595
0.299917 0.299917 -0.530602 128 128 255 -0.424186 0.663256 -0.616569
0.275119 0.275119 -0.539465 128 128 255 -0.478456 0.670200 -0.567372
0.250243 0.250243 -0.547119 128 128 255 -0.530221 0.677662 -0.509549
0.225300 0.225300 -0.553575 128 128 255 -0.578144 0.685277 -0.442882
0.200303 0.200303 -0.558844 128 128 255 -0.620681 0.692588 -0.367529
0.175264 0.175264 -0.562932 128 128 255 -0.656174 0.699069 -0.284145
0.150193 0.150193 -0.565849 128 128 255 -0.683003 0.704189 -0.193970
0.125102 0.125102 -0.567596 128 128 255 -0.699787 0.707481 -0.098836
0.100000 0.100000 -0.568179 128 128 255 -0.682015 0.730582 -0.033234
0.100000 0.100000 1.679173 128 128 255 0.795292 -0.605278 0.033906
0.154329 0.166200 1.675853 128 128 255 0.777293 -0.621164 0.099855
0.208235 0.231885 1.665937 128 128 255 0.780425 -0.594691 0.193078
0.261305 0.296551 1.649554 128 128 255 0.785455 -0.552659 0.278619
0.313144 0.359716 1.626916 128 128 255 0.792130 -0.497455 0.353651
0.363379 0.420929 1.598309 128 128 255 0.800120 -0.431897 0.416261
0.411675 0.479777 1.564088 128 128 255 0.809038 -0.358902 0.465454
0.457729 0.535894 1.524660 128 128 255 0.818464 -0.281225 0.501028
0.501282 0.588963 1.480480 128 128 255 0.827968 -0.201298 0.523400
0.542120 0.638724 1.432035 128 128 255 0.837132 -0.121146 0.533417
0.580071 0.684969 1.379835 128 128 255 0.845568 -0.042382 0.532184
0.615012 0.727543 1.324395 128 128 255 0.852925 0.033764 0.520940
0.646857 0.766348 1.266235 128 128 255 0.858905 0.106394 0.500961
0.675566 0.801329 1.205861 128 128 255 0.863260 0.174891 0.473493
0.701132 0.832481 1.143761 128 128 255 0.865792 0.238859 0.439716
0.723581 0.859836 1.080400 128 128 255 0.866356 0.298076 0.400722
0.742971 0.883463 1.016213 128 128 255 0.864848 0.352460 0.357505
0.759382 0.903459 0.951601 128 128 255 0.861208 0.402028 0.310958
0.772912 0.919946 0.886930 128 128 255 0.855408 0.446878 0.261872
0.783678 0.933065 0.822530 128 128 255 0.847452 0.487160 0.210949
0.791809 0.942972 0.758694 128 128 255 0.837366 0.523068 0.158802
0.797440 0.949833 0.695678 128 128 255 0.825196 0.554819 0.105965
0.800712 0.953820 0.633705 128 128 255 0.811001 0.582649 0.052899
0.801771 0.955110 0.572965 128 128 255 0.794852 0.606803 0.000001
0.800760 0.953879 0.513617 128 128 255 0.776827 0.627531 -0.052390
0.797823 0.950300 0.455793 128 128 255 0.757008 0.645079 -0.103986
0.793099 0.944543 0.399598 128 128 255 0.735476 0.659690 -0.154542
0.786723 0.936775 0.345116 128 128 255 0.712315 0.671603 -0.203856
0.778826 0.927152 0.292409 128 128 255 0.687603 0.681044 -0.251755
0.769530 0.915825 0.241521 128 128 255 0.661417 0.688234 -0.298096
0.758954 0.902937 0.192482 128 128 255 0.633827 0.693382 -0.342761
0.747207 0.888624 0.145307 128 128 255 0.604897 0.696687 -0.385651
0.734393 0.873010 0.100000 128 128 255 0.574687 0.698337 -0.426685
0.720609 0.856215 0.056555 128 128 255 0.543246 0.698513 -0.465793
0.705945 0.838346 0.014957 128 128 255 0.510619 0.697384 -0.502916
0.690483 0.819505 -0.024813 128 128 255 0.476841 0.695110 -0.538000
0.674300 0.799787 -0.062782 128 128 255 0.441940 0.691846 -0.570997
0.657467 0.779276 -0.098980 128 128 255 0.405936 0.687736 -0.601860
0.640050 0.758052 -0.133441 128 128 255 0.368841 0.682919 -0.630538
0.622106 0.736188 -0.166201 128 128 255 0.330659 0.677529 -0.656978
0.603690 0.713748 -0.197298 128 128 255 0.291385 0.671693 -0.681119
0.584852 0.690794 -0.226770 128 128 255 0.251009 0.665537 -0.702891
0.565637 0.667380 -0.254657 128 128 255 0.209513 0.659180 -0.722209
0.546085 0.643556 -0.280997 128 128 255 0.166872 0.652743 -0.738972
0.526233 0.619366 -0.305830 128 128 255 0.123059 0.646342 -0.753060
0.506114 0.594852 -0.329193 128 128 255 0.078039 0.640092 -0.764324
0.485760 0.570050 -0.351123 128 128 255 0.031781 0.634110 -0.772589
0.465196 0.544993 -0.371656 128 128 255 -0.015744 0.628510 -0.777642
0.444448 0.519711 -0.390827 128 128 255 -0.064560 0.623405 -0.779229
0.423537 0.494231 -0.408667 128 128 255 -0.114671 0.618908 -0.777048
0.402483 0.468576 -0.425209 128 128 255 -0.166060 0.615126 -0.770743
0.381304 0.442769 -0.440481 128 128 255 -0.218669 0.612159 -0.759898
0.360015 0.416829 -0.454511 128 128 255 -0.272385 0.610100 -0.744033
0.338631 0.390773 -0.467325 128 128 255 -0.327014 0.609019 -0.722605
0.317165 0.364616 -0.478945 128 128 255 -0.382255 0.608963 -0.695014
0.295627 0.338372 -0.489393 128 128 255 -0.437664 0.609940 -0.660623
0.274029 0.312055 -0.498689 128 128 255 -0.492614 0.611909 -0.618788
0.252379 0.285674 -0.506851 128 128 255 -0.546261 0.614761 -0.568918
0.230685 0.259241 -0.513893 128 128 255 -0.597514 0.618316 -0.510550
0.208956 0.232764 -0.519829 128 128 255 -0.645034 0.622307 -0.443469
0.187198 0.206251 -0.524670 128 128 255 -0.687270 0.626393 -0.367820
0.165418 0.179712 -0.528426 128 128 255 -0.722551 0.630178 -0.284245
0.143621 0.153152 -0.531104 128 128 255 -0.749243 0.633256 -0.193966
0.121813 0.126579 -0.532709 128 128 255 -0.765948 0.635267 -0.098790
0.100000 0.100000 -0.533243 128 128 255 -0.750399 0.660151 -0.033207
0.100000 0.100000 1.768399 128 128 255 0.850908 -0.524215 0.033969
0.151516 0.177098 1.764601 128 128 255 0.834832 -0.541358 0.099934
0.202577 0.253517 1.753266 128 128 255 0.836034 -0.513654 0.192887
0.252742 0.328594 1.734564 128 128 255 0.837974 -0.469721 0.277781
0.301589 0.401699 1.708775 128 128 255 0.840535 -0.412108 0.351665
0.348729 0.472249 1.676273 128 128 255 0.843549 -0.343830 0.412560
0.393811 0.539720 1.637518 128 128 255 0.846799 -0.268006 0.459460
0.436533 0.603657 1.593040 128 128 255 0.850028 -0.187586 0.492203
0.476639 0.663680 1.543417 128 128 255 0.852955 -0.105169 0.511281
0.513927 0.719485 1.489266 128 128 255 0.855290 -0.022917 0.517642
0.548245 0.770846 1.431219 128 128 255 0.856757 0.057454 0.512510
0.579494 0.817614 1.369914 128 128 255 0.857101 0.134644 0.497241
0.607622 0.859709 1.305975 128 128 255 0.856102 0.207720 0.473225
0.632617 0.897118 1.240005 128 128 255 0.853579 0.276053 0.441812
0.654511 0.929884 1.172575 128 128 255 0.849392 0.339257 0.404275
0.673364 0.958100 1.104215 128 128 255 0.843443 0.397138 0.361781
0.689266 0.981899 1.035411 128 128 255 0.835670 0.449654 0.315383
0.702331 1.001451 0.966603 128 128 255 0.826046 0.496872 0.266020
0.712686 1.016949 0.898182 128 128 255 0.814571 0.538941 0.214514
0.720474 1.028605 0.830489 128 128 255 0.801271 0.576069 0.161585
0.725845 1.036643 0.763820 128 128 255 0.786188 0.608504 0.107849
0.728953 1.041295 0.698424 128 128 255 0.769381 0.636518 0.053838
0.729954 1.042794 0.634511 128 128 255 0.750916 0.660398 0.000002
0.729004 1.041371 0.572251 128 128 255 0.730868 0.680436 -0.053282
0.726253 1.037254 0.511780 128 128 255 0.709314 0.696924 -0.105695
0.721849 1.030663 0.453202 128 128 255 0.686331 0.710147 -0.156975
0.715931 1.021806 0.396594 128 128 255 0.661997 0.720382 -0.206908
0.708633 1.010884 0.342009 128 128 255 0.636384 0.727893 -0.255318
0.700082 0.998086 0.289480 128 128 255 0.609563 0.732933 -0.302064
0.690394 0.983586 0.239021 128 128 255 0.581594 0.735742 -0.347033
0.679679 0.967551 0.190631 128 128 255 0.552537 0.736544 -0.390136
0.668040 0.950132 0.144298 128 128 255 0.522439 0.735552 -0.431301
0.655570 0.931470 0.100000 128 128 255 0.491345 0.732962 -0.470475
0.642356 0.911693 0.057704 128 128 255 0.459289 0.728960 -0.507614
0.628477 0.890921 0.017374 128 128 255 0.426297 0.723719 -0.542680
0.614004 0.869262 -0.021033 128 128 255 0.392389 0.717402 -0.575643
0.599004 0.846813 -0.057564 128 128 255 0.357576 0.710160 -0.606475
0.583536 0.823663 -0.092267 128 128 255 0.321860 0.702136 -0.635146
0.567654 0.799894 -0.125193 128 128 255 0.285238 0.693464 -0.661624
0.551407 0.775578 -0.156393 128 128 255 0.247696 0.684273 -0.685870
0.534837 0.750780 -0.185918 128 128 255 0.209213 0.674682 -0.707838
0.517985 0.725559 -0.213820 128 128 255 0.169763 0.664808 -0.727469
0.500886 0.699969 -0.240149 128 128 255 0.129310 0.654763 -0.744691
0.483571 0.674055 -0.264953 128 128 255 0.087816 0.644656 -0.759413
0.466069 0.647860 -0.288281 128 128 255 0.045234 0.634593 -0.771521
0.448403 0.621422 -0.310178 128 128 255 0.001516 0.624680 -0.780880
0.430596 0.594773 -0.330687 128 128 255 -0.043385 0.615020 -0.787317
0.412669 0.567942 -0.349852 128 128 255 -0.089518 0.605717 -0.790629
0.394637 0.540955 -0.367711 128 128 255 -0.136919 0.596873 -0.790567
0.376516 0.513836 -0.384302 128 128 255 -0.185611 0.588592 -0.786834
0.358320 0.486603 -0.399661 128 128 255 -0.235592 0.580973 -0.779080
0.340059 0.459274 -0.413819 128 128 255 -0.286823 0.574113 -0.766895
0.321745 0.431865 -0.426807 128 128 255 -0.339206 0.568101 -0.749801
0.303385 0.404388 -0.438655 128 128 255 -0.392566 0.563015 -0.727260
0.284988 0.376854 -0.449386 128 128 255 -0.446616 0.558916 -0.698676
0.266560 0.349274 -0.459026 128 128 255 -0.500927 0.555837 -0.663413
0.248106 0.321656 -0.467594 128 128 255 -0.554886 0.553778 -0.620831
0.229631 0.294006 -0.475110 128 128 255 -0.607659 0.552690 -0.570337
0.211139 0.266331 -0.481591 128 128 255 -0.658162 0.552468 -0.511470
0.192634 0.238636 -0.487051 128 128 255 -0.705060 0.552946 -0.444006
0.174119 0.210926 -0.491501 128 128 255 -0.746800 0.553898 -0.368085
0.155595 0.183204 -0.494953 128 128 255 -0.781706 0.555058 -0.284335
0.137067 0.155474 -0.497412 128 128 255 -0.808136 0.556144 -0.193959
0.118534 0.127738 -0.498886 128 128 255 -0.824685 0.556906 -0.098744
0.100000 0.100000 -0.499377 128 128 255 -0.811541 0.583353 -0.033181
0.100000 0.100000 1.865247 128 128 255 0.898301 -0.438061 0.034037
0.147543 0.188946 1.860876 128 128 255 0.884238 -0.456203 0.100015
0.194610 0.277003 1.847842 128 128 255 0.883339 -0.427311 0.192659
0.240740 0.363306 1.826371 128 128 255 0.881922 -0.381561 0.276812
0.285497 0.447041 1.796831 128 128 255 0.880025 -0.321689 0.349390
0.328484 0.527464 1.759718 128 128 255 0.877664 -0.250921 0.408343
0.369350 0.603919 1.715629 128 128 255 0.874817 -0.172601 0.452664
0.407799 0.675851 1.665248 128 128 255 0.871414 -0.089881 0.482244
0.443591 0.742813 1.609316 128 128 255 0.867345 -0.005533 0.497677
0.476545 0.804466 1.548609 128 128 255 0.862473 0.078143 0.500035
0.506539 0.860581 1.483912 128 128 255 0.856648 0.159339 0.490678
0.533505 0.911031 1.416005 128 128 255 0.849725 0.236703 0.471103
0.557425 0.955783 1.345636 128 128 255 0.841574 0.309283 0.442828
0.578327 0.994886 1.273515 128 128 255 0.832089 0.376458 0.407317
0.596273 1.028462 1.200300 128 128 255 0.821190 0.437876 0.365940
0.611361 1.056689 1.126588 128 128 255 0.808826 0.493394 0.319942
0.623710 1.079792 1.052915 128 128 255 0.794977 0.543028 0.270430
0.633459 1.098031 0.979749 128 128 255 0.779643 0.586912 0.218383
0.640760 1.111690 0.907497 128 128 255 0.762848 0.625264 0.164646
0.645773 1.121069 0.836503 128 128 255 0.744630 0.658361 0.109943
0.648661 1.126472 0.767052 128 128 255 0.725041 0.686515 0.054890
0.649587 1.128206 0.699377 128 128 255 0.704142 0.710059 0.000002
0.648714 1.126571 0.633661 128 128 255 0.681999 0.729335 -0.054292
0.646195 1.121860 0.570046 128 128 255 0.658680 0.744684 -0.107640
0.642182 1.114351 0.508632 128 128 255 0.634253 0.756439 -0.159757
0.636815 1.104310 0.449490 128 128 255 0.608785 0.764923 -0.210413
0.630228 1.091986 0.392661 128 128 255 0.582337 0.770443 -0.259427
0.622544 1.077611 0.338161 128 128 255 0.554966 0.773288 -0.306657
0.613879 1.061400 0.285989 128 128 255 0.526726 0.773730 -0.351997
0.604339 1.043552 0.236123 128 128 255 0.497660 0.772023 -0.395366
0.594021 1.024248 0.188533 128 128 255 0.467808 0.768403 -0.436705
0.583013 1.003654 0.143176 128 128 255 0.437200 0.763089 -0.475974
0.571397 0.981921 0.100000 128 128 255 0.405860 0.756282 -0.513142
0.559244 0.959185 0.058949 128 128 255 0.373803 0.748168 -0.548193
0.546621 0.935569 0.019961 128 128 255 0.341039 0.738919 -0.581112
0.533587 0.911184 -0.017027 128 128 255 0.307567 0.728694 -0.611889
0.520195 0.886129 -0.052081 128 128 255 0.273382 0.717639 -0.640513
0.506492 0.860493 -0.085268 128 128 255 0.238468 0.705889 -0.666973
0.492520 0.834354 -0.116653 128 128 255 0.202805 0.693572 -0.691251
0.478318 0.807783 -0.146302 128 128 255 0.166363 0.680804 -0.713322
0.463917 0.780841 -0.174278 128 128 255 0.129106 0.667699 -0.733151
0.449348 0.753585 -0.200643 128 128 255 0.090991 0.654358 -0.750690
0.434637 0.726061 -0.225457 128 128 255 0.051968 0.640885 -0.765876
0.419805 0.698314 -0.248778 128 128 255 0.011984 0.627374 -0.778626
0.404874 0.670379 -0.270660 128 128 255 -0.029022 0.613919 -0.788835
0.389860 0.642289 -0.291156 128 128 255 -0.071112 0.600613 -0.796371
0.374778 0.614073 -0.310316 128 128 255 -0.114350 0.587545 -0.801071
0.359641 0.585754 -0.328185 128 128 255 -0.158794 0.574808 -0.802733
0.344460 0.557353 -0.344807 128 128 255 -0.204499 0.562490 -0.801115
0.329245 0.528888 -0.360224 128 128 255 -0.251501 0.550684 -0.795924
0.314004 0.500374 -0.374474 128 128 255 -0.299812 0.539480 -0.786812
0.298743 0.471823 -0.387592 128 128 255 -0.349409 0.528968 -0.773373
0.283468 0.443245 -0.399611 128 128 255 -0.400208 0.519235 -0.755134
0.268184 0.414650 -0.410561 128 128 255 -0.452050 0.510365 -0.731559
0.252893 0.386043 -0.420469 128 128 255 -0.504664 0.502430 -0.702053
0.237600 0.357431 -0.429361 128 128 255 -0.557634 0.495489 -0.665984
0.222305 0.328816 -0.437257 128 128 255 -0.610364 0.489579 -0.622711
0.207010 0.300202 -0.444179 128 128 255 -0.662030 0.484708 -0.571642
0.191717 0.271591 -0.450143 128 128 255 -0.711562 0.480848 -0.512313
0.176427 0.242984 -0.455165 128 128 255 -0.757630 0.477932 -0.444497
0.161138 0.214381 -0.459257 128 128 255 -0.798688 0.475850 -0.368325
0.145851 0.185782 -0.462429 128 128 255 -0.833064 0.474461 -0.284415
0.130566 0.157186 -0.464688 128 128 255 -0.859113 0.473611 -0.193951
0.115283 0.128592 -0.466042 128 128 255 -0.875431 0.473158 -0.098700
0.100000 0.100000 -0.466493 128 128 255 -0.864853 0.500929 -0.033156
0.100000 0.100000 1.970868 128 128 255 0.937006 -0.347645 0.034111
0.142187 0.201848 1.965805 128 128 255 0.925012 -0.366513 0.100099
0.183894 0.302539 1.950719 128 128 255 0.921829 -0.336480 0.192385
0.224658 0.400951 1.925914 128 128 255 0.916770 -0.289013 0.275687
0.264045 0.496040 1.891880 128 128 255 0.910054 -0.227054 0.346769
0.301667 0.586867 1.849268 128 128 255 0.901909 -0.154069 0.403514
0.337187 0.672620 1.798863 128 128 255 0.892536 -0.073640 0.444923
0.370330 0.752635 1.741550 128 128 255 0.882085 0.010864 0.470965
0.400885 0.826400 1.678274 128 128 255 0.870643 0.096493 0.482359
0.428702 0.893557 1.610013 128 128 255 0.858246 0.180820 0.480331
0.453696 0.953897 1.537738 128 128 255 0.844892 0.261960 0.466406
0.475834 1.007344 1.462396 128 128 255 0.830556 0.338527 0.442240
0.495137 1.053945 1.384878 128 128 255 0.815207 0.409576 0.409494
0.511665 1.093847 1.306011 128 128 255 0.798815 0.474524 0.369758
0.525514 1.127280 1.226541 128 128 255 0.781363 0.533078 0.324499
0.536806 1.154542 1.147130 128 128 255 0.762845 0.585169 0.275035
0.545684 1.175976 1.068353 128 128 255 0.743271 0.630896 0.222528
0.552303 1.191957 0.990699 128 128 255 0.722664 0.670477 0.167981
0.556827 1.202878 0.914576 128 128 255 0.701058 0.704214 0.112252
0.559421 1.209140 0.840315 128 128 255 0.678497 0.732461 0.056059
0.560249 1.211141 0.768179 128 128 255 0.655030 0.755603 0.000003
0.559473 1.209267 0.698366 128 128 255 0.630709 0.774037 -0.055429
0.557247 1.203892 0.631024 128 128 255 0.605589 0.788161 -0.109839
0.553716 1.195367 0.566251 128 128 255 0.579721 0.798363 -0.162911
0.549018 1.184025 0.504106 128 128 255 0.553155 0.805017 -0.214400
0.543280 1.170173 0.444614 128 128 255 0.525937 0.808476 -0.264114
0.536621 1.154095 0.387773 128 128 255 0.498109 0.809072 -0.311913
0.529146 1.136051 0.333559 128 128 255 0.469706 0.807113 -0.357694
0.520956 1.116278 0.281930 128 128 255 0.440755 0.802886 -0.401385
0.512139 1.094991 0.232830 128 128 255 0.411281 0.796651 -0.442939
0.502774 1.072382 0.186192 128 128 255 0.381300 0.788650 -0.482330
0.492934 1.048627 0.141942 128 128 255 0.350820 0.779101 -0.519545
0.482683 1.023880 0.100000 128 128 255 0.319845 0.768203 -0.554583
0.472079 0.998279 0.060284 128 128 255 0.288370 0.756140 -0.587448
0.461173 0.971949 0.022711 128 128 255 0.256384 0.743075 -0.618148
0.450009 0.944997 -0.012806 128 128 255 0.223869 0.729159 -0.646691
0.438628 0.917519 -0.046349 128 128 255 0.190802 0.714530 -0.673084
0.427064 0.889602 -0.078002 128 128 255 0.157151 0.699311 -0.697329
0.415348 0.861317 -0.107843 128 128 255 0.122878 0.683618 -0.719422
0.403507 0.832731 -0.135952 128 128 255 0.087940 0.667556 -0.739348
0.391565 0.803899 -0.162401 128 128 255 0.052286 0.651223 -0.757083
0.379541 0.774871 -0.187263 128 128 255 0.015859 0.634711 -0.772587
0.367452 0.745687 -0.210606 128 128 255 -0.021404 0.618105 -0.785804
0.355315 0.716386 -0.232494 128 128 255 -0.059569 0.601488 -0.796658
0.343142 0.686996 -0.252987 128 128 255 -0.098709 0.584939 -0.805049
0.330943 0.657546 -0.272144 128 128 255 -0.138898 0.568534 -0.810849
0.318728 0.628055 -0.290017 128 128 255 -0.180212 0.552350 -0.813900
0.306504 0.598544 -0.306658 128 128 255 -0.222722 0.536464 -0.814003
0.294277 0.569026 -0.322112 128 128 255 -0.266493 0.520952 -0.810920
0.282053 0.539514 -0.336424 128 128 255 -0.311575 0.505893 -0.804359
0.269834 0.510017 -0.349634 128 128 255 -0.357993 0.491366 -0.793978
0.257626 0.480542 -0.361779 128 128 255 -0.405734 0.477455 -0.779369
0.245428 0.451095 -0.372893 128 128 255 -0.454731 0.464244 -0.760064
0.233244 0.421680 -0.383008 128 128 255 -0.504836 0.451818 -0.735527
0.221073 0.392297 -0.392152 128 128 255 -0.555795 0.440262 -0.705167
0.208917 0.362949 -0.400349 128 128 255 -0.607207 0.429658 -0.668351
0.196774 0.333634 -0.407624 128 128 255 -0.658489 0.420080 -0.624440
0.184645 0.304351 -0.413997 128 128 255 -0.708834 0.411591 -0.572841
0.172528 0.275098 -0.419484 128 128 255 -0.757186 0.404241 -0.513087
0.160422 0.245871 -0.424102 128 128 255 -0.802230 0.398057 -0.444946
0.148326 0.216668 -0.427863 128 128 255 -0.842431 0.393046 -0.368544
0.136237 0.187484 -0.430778 128 128 255 -0.876127 0.389192 -0.284485
0.124155 0.158314 -0.432854 128 128 255 -0.901683 0.386466 -0.193940
0.112076 0.129155 -0.434097 128 128 255 -0.917698 0.384834 -0.098656
0.100000 0.100000 -0.434511 128 128 255 -0.909822 0.413675 -0.033131
0.100000 0.100000 2.086659 128 128 255 0.966643 -0.253836 0.034190
0.135168 0.215933 2.080750 128 128 255 0.956741 -0.273149 0.100185
0.169880 0.330363 2.063164 128 128 255 0.951072 -0.242027 0.192054
0.203698 0.441845 2.034309 128 128 255 0.942066 -0.192956 0.274372
0.236217 0.549047 1.994841 128 128 255 0.930149 -0.129112 0.343734
0.267080 0.650790 1.945625 128 128 255 0.915801 -0.054225 0.397955
0.295988 0.746085 1.887695 128 128 255 0.899484 0.027860 0.436065
0.322703 0.834153 1.822195 128 128 255 0.881598 0.113547 0.458139
0.347055 0.914431 1.750337 128 128 255 0.862461 0.199711 0.465055
0.368937 0.986565 1.673348 128 128 255 0.842306 0.283812 0.458227
0.388301 1.050401 1.592427 128 128 255 0.821293 0.363907 0.439374
0.405154 1.105958 1.508714 128 128 255 0.799530 0.438610 0.410333
0.419547 1.153405 1.423262 128 128 255 0.777086 0.507014 0.372926
0.431568 1.193032 1.337019 128 128 255 0.754010 0.568605 0.328872
0.441332 1.225220 1.250819 128 128 255 0.730338 0.623181 0.279736
0.448976 1.250418 1.165379 128 128 255 0.706099 0.670775 0.226905
0.454648 1.269119 1.081299 128 128 255 0.681324 0.711588 0.171579
0.458506 1.281836 0.999073 128 128 255 0.656046 0.745943 0.114776
0.460707 1.289092 0.919090 128 128 255 0.630296 0.774234 0.057351
0.461407 1.291399 0.841651 128 128 255 0.604107 0.796903 0.000003
0.460756 1.289254 0.766976 128 128 255 0.577514 0.814409 -0.056699
0.458898 1.283129 0.695217 128 128 255 0.550549 0.827214 -0.112305
0.455968 1.273469 0.626467 128 128 255 0.523241 0.835769 -0.166463
0.452089 1.260683 0.560771 128 128 255 0.495617 0.840504 -0.218901
0.447378 1.245151 0.498135 128 128 255 0.467699 0.841825 -0.269420
0.441938 1.227217 0.438530 128 128 255 0.439507 0.840112 -0.317876
0.435863 1.207193 0.381907 128 128 255 0.411053 0.835714 -0.364168
0.429240 1.185361 0.328193 128 128 255 0.382345 0.828948 -0.408237
0.422145 1.161970 0.277303 128 128 255 0.353386 0.820106 -0.450049
0.414645 1.137246 0.229143 128 128 255 0.324174 0.809451 -0.489592
0.406801 1.111386 0.183610 128 128 255 0.294700 0.797221 -0.526869
0.398665 1.084566 0.140598 128 128 255 0.264951 0.783628 -0.561897
0.390285 1.056940 0.100000 128 128 255 0.234907 0.768864 -0.594699
0.381701 1.028644 0.061708 128 128 255 0.204545 0.753101 -0.625300
0.372950 0.999795 0.025615 128 128 255 0.173834 0.736492 -0.653728
0.364062 0.970495 -0.008382 128 128 255 0.142739 0.719176 -0.680009
0.355065 0.940835 -0.040383 128 128 255 0.111220 0.701274 -0.704163
0.345981 0.910891 -0.070487 128 128 255 0.079230 0.682899 -0.726204
0.336832 0.880729 -0.098785 128 128 255 0.046717 0.664149 -0.746139
0.327633 0.850406 -0.125365 128 128 255 0.013624 0.645116 -0.763963
0.318401 0.819970 -0.150312 128 128 255 -0.020111 0.625882 -0.779658
0.309146 0.789462 -0.173705 128 128 255 -0.054557 0.606523 -0.793192
0.299880 0.758915 -0.195617 128 128 255 -0.089788 0.587109 -0.804513
0.290611 0.728360 -0.216119 128 128 255 -0.125882 0.567706 -0.813550
0.281346 0.697817 -0.235277 128 128 255 -0.162920 0.548378 -0.820206
0.272091 0.667308 -0.253152 128 128 255 -0.200986 0.529186 -0.824358
0.262851 0.636846 -0.269799 128 128 255 -0.240166 0.510190 -0.825849
0.253628 0.606444 -0.285274 128 128 255 -0.280541 0.491451 -0.824483
0.244427 0.576110 -0.299623 128 128 255 -0.322185 0.473033 -0.820022
0.235247 0.545851 -0.312893 128 128 255 -0.365158 0.454999 -0.812180
0.226092 0.515669 -0.325125 128 128 255 -0.409495 0.437419 -0.800611
0.216960 0.485567 -0.336358 128 128 255 -0.455195 0.420366 -0.784914
0.207853 0.455544 -0.346626 128 128 255 -0.502202 0.403923 -0.764617
0.198770 0.425601 -0.355961 128 128 255 -0.550382 0.388175 -0.739188
0.189709 0.395733 -0.364393 128 128 255 -0.599493 0.373218 -0.708037
0.180671 0.365936 -0.371946 128 128 255 -0.649150 0.359155 -0.670531
0.171653 0.336207 -0.378643 128 128 255 -0.698786 0.346098 -0.626030
0.162653 0.306540 -0.384507 128 128 255 -0.747613 0.334165 -0.573941
0.153670 0.276928 -0.389553 128 128 255 -0.794592 0.323477 -0.513796
0.144702 0.247364 -0.393797 128 128 255 -0.838428 0.314158 -0.445357
0.135747 0.217841 -0.397253 128 128 255 -0.877606 0.306329 -0.368742
0.126801 0.188351 -0.399930 128 128 255 -0.910480 0.300098 -0.284546
0.117863 0.158887 -0.401836 128 128 255 -0.935434 0.295561 -0.193927
0.108930 0.129439 -0.402978 128 128 255 -0.951078 0.292790 -0.098613
0.100000 0.100000 -0.403358 128 128 255 -0.946013 0.322432 -0.033107
0.100000 0.100000 2.214322 128 128 255 0.986918 -0.157536 0.034277
0.126128 0.231356 2.207371 128 128 255 0.979089 -0.177004 0.100272
0.151869 0.360764 2.186706 128 128 255 0.970714 -0.144852 0.191654
0.176853 0.486366 2.152884 128 128 255 0.957430 -0.094309 0.272824
0.200743 0.606468 2.106788 128 128 255 0.939914 -0.028813 0.340194
0.223247 0.719604 2.049578 128 128 255 0.918938 0.047606 0.391519
0.244129 0.824586 1.982618 128 128 255 0.895273 0.130820 0.425879
0.263212 0.920522 1.907400 128 128 255 0.869613 0.216996 0.443493
0.280378 1.006820 1.825474 128 128 255 0.842536 0.302844 0.445442
0.295566 1.083176 1.738378 128 128 255 0.814496 0.385730 0.433368
0.308767 1.149542 1.647585 128 128 255 0.785833 0.463689 0.409218
0.320015 1.206088 1.554458 128 128 255 0.756788 0.535371 0.375033
0.329379 1.253165 1.460224 128 128 255 0.727532 0.599946 0.332808
0.336956 1.291258 1.365954 128 128 255 0.698180 0.657012 0.284394
0.342861 1.320947 1.272560 128 128 255 0.668809 0.706489 0.231448
0.347223 1.342873 1.180796 128 128 255 0.639470 0.748537 0.175414
0.350173 1.357707 1.091267 128 128 255 0.610197 0.783486 0.117515
0.351848 1.366124 1.004445 128 128 255 0.581012 0.811770 0.058768
0.352377 1.368787 0.920679 128 128 255 0.551929 0.833891 0.000003
0.351889 1.366330 0.840214 128 128 255 0.522956 0.850376 -0.058113
0.350501 1.359352 0.763210 128 128 255 0.494095 0.861760 -0.115061
0.348324 1.348407 0.689750 128 128 255 0.465347 0.868564 -0.170440
0.345459 1.334006 0.619859 128 128 255 0.436705 0.871283 -0.223955
0.341999 1.316610 0.553515 128 128 255 0.408162 0.870382 -0.275388
0.338026 1.296637 0.490659 128 128 255 0.379705 0.866294 -0.324591
0.333614 1.274459 0.431205 128 128 255 0.351321 0.859408 -0.371472
0.328830 1.250406 0.375044 128 128 255 0.322989 0.850083 -0.415978
0.323731 1.224770 0.322055 128 128 255 0.294687 0.838639 -0.458088
0.318368 1.197809 0.272108 128 128 255 0.266389 0.825362 -0.497809
0.312786 1.169747 0.225066 128 128 255 0.238068 0.810509 -0.535162
0.307024 1.140780 0.180792 128 128 255 0.209689 0.794307 -0.570182
0.301116 1.111077 0.139148 128 128 255 0.181216 0.776956 -0.602910
0.295090 1.080785 0.100000 128 128 255 0.152611 0.758634 -0.633391
0.288973 1.050031 0.063215 128 128 255 0.123829 0.739497 -0.661673
0.282785 1.018923 0.028667 128 128 255 0.094823 0.719683 -0.687797
0.276545 0.987552 -0.003765 128 128 255 0.065543 0.699313 -0.711805
0.270269 0.955998 -0.034198 128 128 255 0.035934 0.678492 -0.733729
0.263969 0.924327 -0.062741 128 128 255 0.005935 0.657315 -0.753592
0.257657 0.892593 -0.089496 128 128 255 -0.024515 0.635866 -0.771410
0.251341 0.860844 -0.114563 128 128 255 -0.055486 0.614216 -0.787185
0.245031 0.829118 -0.138031 128 128 255 -0.087051 0.592432 -0.800903
0.238731 0.797446 -0.159986 128 128 255 -0.119286 0.570573 -0.812538
0.232446 0.765852 -0.180508 128 128 255 -0.152273 0.548691 -0.822041
0.226181 0.734356 -0.199671 128 128 255 -0.186098 0.526837 -0.829343
0.219939 0.702975 -0.217543 128 128 255 -0.220852 0.505057 -0.834351
0.213722 0.671718 -0.234189 128 128 255 -0.256625 0.483396 -0.836942
0.207531 0.640593 -0.249667 128 128 255 -0.293509 0.461898 -0.836961
0.201367 0.609605 -0.264032 128 128 255 -0.331593 0.440607 -0.834213
0.195231 0.578757 -0.277335 128 128 255 -0.370958 0.419572 -0.828462
0.189122 0.548048 -0.289620 128 128 255 -0.411671 0.398845 -0.819420
0.183041 0.517476 -0.300931 128 128 255 -0.453777 0.378482 -0.806745
0.176987 0.487038 -0.311307 128 128 255 -0.497283 0.358548 -0.790034
0.170958 0.456728 -0.320781 128 128 255 -0.542143 0.339119 -0.768817
0.164953 0.426541 -0.329387 128 128 255 -0.588234 0.320285 -0.742562
0.158971 0.396469 -0.337154 128 128 255 -0.635328 0.302149 -0.710679
0.153011 0.366504 -0.344105 128 128 255 -0.683056 0.284836 -0.672535
0.147070 0.336637 -0.350266 128 128 255 -0.730867 0.268493 -0.627490
0.141147 0.306858 -0.355656 128 128 255 -0.777995 0.253291 -0.574950
0.135239 0.277158 -0.360292 128 128 255 -0.823422 0.239424 -0.514444
0.129345 0.247526 -0.364190 128 128 255 -0.865878 0.227109 -0.445731
0.123462 0.217952 -0.367363 128 128 255 -0.903876 0.216578 -0.368921
0.117588 0.188423 -0.369819 128 128 255 -0.935795 0.208065 -0.284600
0.111722 0.158929 -0.371569 128 128 255 -0.960042 0.201785 -0.193913
0.105860 0.129459 -0.372616 128 128 255 -0.975250 0.197918 -0.098570
0.100000 0.100000 -0.372965 128 128 255 -0.973080 0.228081 -0.033083
0.100000 0.100000 2.355964 128 128 255 0.997626 -0.059670 0.034371
0.114607 0.248311 2.347711 128 128 255 0.991810 -0.079001 0.100359
0.128966 0.394099 2.323212 128 128 255 0.980485 -0.045886 0.191165
0.142841 0.534971 2.283230 128 128 255 0.962564 0.005982 0.270988
0.156020 0.668782 2.228973 128 128 255 0.939026 0.072856 0.336040
0.168326 0.793727 2.162003 128 128 255 0.910997 0.150374 0.384022
0.179620 0.908396 2.084133 128 128 255 0.879610 0.234101 0.414104
0.189805 1.011803 1.997315 128 128 255 0.845901 0.319968 0.426698
0.198824 1.103373 1.903533 128 128 255 0.810745 0.404532 0.423139
0.206658 1.182914 1.804712 128 128 255 0.774836 0.485102 0.405347
0.213320 1.250560 1.702649 128 128 255 0.738699 0.559733 0.375531
0.218851 1.306712 1.598957 128 128 255 0.702710 0.627160 0.335960
0.223309 1.351972 1.495044 128 128 255 0.667127 0.686680 0.288810
0.226767 1.387087 1.392095 128 128 255 0.632115 0.738042 0.236061
0.229308 1.412887 1.291078 128 128 255 0.597770 0.781325 0.179451
0.231018 1.430245 1.192755 128 128 255 0.564143 0.816843 0.120459
0.231982 1.440037 1.097706 128 128 255 0.531246 0.845068 0.060313
0.232286 1.443118 1.006347 128 128 255 0.499072 0.866560 0.000005
0.232008 1.440299 0.918957 128 128 255 0.467597 0.881925 -0.059677
0.231224 1.432338 0.835698 128 128 255 0.436785 0.891777 -0.118124
0.230002 1.419929 0.756643 128 128 255 0.406595 0.896716 -0.174877
0.228403 1.403702 0.681787 128 128 255 0.376980 0.897312 -0.229603
0.226485 1.384221 0.611073 128 128 255 0.347892 0.894097 -0.282067
0.224295 1.361989 0.544396 128 128 255 0.319280 0.887558 -0.332117
0.221878 1.337448 0.481625 128 128 255 0.291092 0.878135 -0.379662
0.219272 1.310985 0.422606 128 128 255 0.263277 0.866226 -0.424663
0.216509 1.282938 0.367170 128 128 255 0.235780 0.852181 -0.467114
0.213620 1.253600 0.315142 128 128 255 0.208549 0.836313 -0.507038
0.210628 1.223221 0.266346 128 128 255 0.181528 0.818896 -0.544478
0.207554 1.192019 0.220604 128 128 255 0.154664 0.800171 -0.579487
0.204418 1.160178 0.177743 128 128 255 0.127900 0.780346 -0.612128
0.201235 1.127856 0.137596 128 128 255 0.101180 0.759605 -0.642467
0.198017 1.095185 0.100000 128 128 255 0.074446 0.738104 -0.670567
0.194776 1.062277 0.064803 128 128 255 0.047636 0.715980 -0.696494
0.191521 1.029227 0.031859 128 128 255 0.020691 0.693351 -0.720303
0.188259 0.996112 0.001032 128 128 255 -0.006454 0.670319 -0.742045
0.184998 0.962997 -0.027808 128 128 255 -0.033866 0.646970 -0.761763
0.181741 0.929935 -0.054780 128 128 255 -0.061614 0.623378 -0.779489
0.178495 0.896969 -0.079997 128 128 255 -0.089770 0.599609 -0.795242
0.175260 0.864132 -0.103564 128 128 255 -0.118411 0.575717 -0.809030
0.172042 0.831452 -0.125578 128 128 255 -0.147617 0.551749 -0.820842
0.168840 0.798948 -0.146127 128 128 255 -0.177471 0.527747 -0.830655
0.165658 0.766637 -0.165297 128 128 255 -0.208061 0.503747 -0.838421
0.162496 0.734528 -0.183163 128 128 255 -0.239478 0.479780 -0.844074
0.159354 0.702627 -0.199797 128 128 255 -0.271817 0.455877 -0.847521
0.156232 0.670938 -0.215264 128 128 255 -0.305174 0.432065 -0.848639
0.153132 0.639461 -0.229624 128 128 255 -0.339645 0.408373 -0.847274
0.150053 0.608193 -0.242933 128 128 255 -0.375324 0.384829 -0.843231
0.146993 0.577130 -0.255241 128 128 255 -0.412298 0.361467 -0.836273
0.143953 0.546266 -0.266594 128 128 255 -0.450637 0.338324 -0.826113
0.140932 0.515594 -0.277036 128 128 255 -0.490394 0.315445 -0.812409
0.137930 0.485105 -0.286603 128 128 255 -0.531583 0.292886 -0.794756
0.134944 0.454788 -0.295332 128 128 255 -0.574167 0.270718 -0.772686
0.131974 0.424633 -0.303254 128 128 255 -0.618032 0.249032 -0.745667
0.129018 0.394629 -0.310398 128 128 255 -0.662964 0.227940 -0.713108
0.126077 0.364763 -0.316788 128 128 255 -0.708608 0.207587 -0.674376
0.123148 0.335023 -0.322447 128 128 255 -0.754434 0.188153 -0.628830
0.120230 0.305396 -0.327395 128 128 255 -0.799697 0.169861 -0.575875
0.117321 0.275867 -0.331650 128 128 255 -0.843406 0.152978 -0.515037
0.114422 0.246424 -0.335225 128 128 255 -0.884324 0.137811 -0.446072
0.111529 0.217053 -0.338134 128 128 255 -0.920993 0.124701 -0.369083
0.108642 0.187739 -0.340387 128 128 255 -0.951830 0.114003 -0.284647
0.105759 0.158469 -0.341990 128 128 255 -0.975273 0.106053 -0.193896
0.102879 0.129227 -0.342950 128 128 255 -0.989982 0.101134 -0.098529
0.100000 0.100000 -0.343270 128 128 255 -0.990760 0.131532 -0.033060
0.100000 0.100000 2.514214 128 128 255 0.998651 0.038819 0.034476
0.100000 0.267042 2.504314 128 128 255 0.994743 0.019922 0.100445
0.100000 0.430806 2.474979 128 128 255 0.980193 0.053923 0.190564
0.100000 0.588212 2.427271 128 128 255 0.957243 0.106941 0.268792
0.100000 0.736551 2.362855 128 128 255 0.927241 0.174873 0.331124
0.100000 0.873614 2.283858 128 128 255 0.891741 0.252983 0.375230
0.100000 0.997766 2.192710 128 128 255 0.852308 0.336509 0.400416
0.100000 1.107965 2.091971 128 128 255 0.810369 0.421148 0.407353
0.100000 1.203729 1.984184 128 128 255 0.767131 0.503338 0.397696
0.100000 1.285075 1.871749 128 128 255 0.723545 0.580375 0.373695
0.100000 1.352424 1.756836 128 128 255 0.680319 0.650397 0.337861
0.100000 1.406506 1.641333 128 128 255 0.637948 0.712280 0.292711
0.100000 1.448268 1.526818 128 128 255 0.596752 0.765505 0.240601
0.100000 1.478785 1.414566 128 128 255 0.556919 0.810013 0.183631
0.100000 1.499194 1.305562 128 128 255 0.518534 0.846077 0.123595
0.100000 1.510635 1.200538 128 128 255 0.481616 0.874188 0.061987
0.100000 1.514214 1.100000 128 128 255 0.446131 0.894968 0.000006
0.100000 1.510970 1.004268 128 128 255 0.412018 0.909105 -0.061402
0.100000 1.501864 0.913512 128 128 255 0.379192 0.917304 -0.121518
0.100000 1.487767 0.827781 128 128 255 0.347560 0.920256 -0.179808
0.100000 1.469458 0.747033 128 128 255 0.317023 0.918614 -0.235892
0.100000 1.447625 0.671155 128 128 255 0.287480 0.912982 -0.289514
0.100000 1.422871 0.599988 128 128 255 0.258832 0.903912 -0.340513
0.100000 1.395721 0.533336 128 128 255 0.230980 0.891897 -0.388804
0.100000 1.366626 0.470986 128 128 255 0.203832 0.877375 -0.434357
0.100000 1.335974 0.412710 128 128 255 0.177297 0.860731 -0.477187
0.100000 1.304096 0.358277 128 128 255 0.151288 0.842303 -0.517337
0.100000 1.271271 0.307457 128 128 255 0.125721 0.822382 -0.554871
0.100000 1.237736 0.260025 128 128 255 0.100517 0.801222 -0.589864
0.100000 1.203689 0.215765 128 128 255 0.075598 0.779039 -0.622401
0.100000 1.169296 0.174470 128 128 255 0.050887 0.756018 -0.652570
0.100000 1.134695 0.135943 128 128 255 0.026310 0.732318 -0.680454
0.100000 1.100000 0.100000 128 128 255 0.001794 0.708073 -0.706137
0.100000 1.065303 0.066467 128 128 255 -0.022733 0.683395 -0.729695
0.100000 1.030681 0.035184 128 128 255 -0.047345 0.658380 -0.751195
0.100000 0.996193 0.005999 128 128 255 -0.072115 0.633107 -0.770698
0.100000 0.961888 -0.021227 128 128 255 -0.097118 0.607642 -0.788251
0.100000 0.927804 -0.046621 128 128 255 -0.122430 0.582039 -0.803891
0.100000 0.893969 -0.070305 128 128 255 -0.148130 0.556343 -0.817643
0.100000 0.860403 -0.092387 128 128 255 -0.174300 0.530589 -0.829515
0.100000 0.827122 -0.112969 128 128 255 -0.201022 0.504808 -0.839499
0.100000 0.794134 -0.132144 128 128 255 -0.228386 0.479021 -0.847572
0.100000 0.761444 -0.149997 128 128 255 -0.256481 0.453248 -0.853688
0.100000 0.729052 -0.166607 128 128 255 -0.285402 0.427504 -0.857780
0.100000 0.696957 -0.182046 128 128 255 -0.315245 0.401801 -0.859754
0.100000 0.665152 -0.196381 128 128 255 -0.346109 0.376152 -0.859487
0.100000 0.633632 -0.209671 128 128 255 -0.378094 0.350568 -0.856824
0.100000 0.602386 -0.221971 128 128 255 -0.411294 0.325062 -0.851570
0.100000 0.571405 -0.233333 128 128 255 -0.445799 0.299654 -0.843487
0.100000 0.540675 -0.243803 128 128 255 -0.481685 0.274366 -0.832288
0.100000 0.510185 -0.253421 128 128 255 -0.519007 0.249233 -0.817628
0.100000 0.479922 -0.262226 128 128 255 -0.557785 0.224301 -0.799103
0.100000 0.449869 -0.270252 128 128 255 -0.597988 0.199635 -0.776245
0.100000 0.420013 -0.277531 128 128 255 -0.639514 0.175328 -0.748520
0.100000 0.390338 -0.284090 128 128 255 -0.682159 0.151500 -0.715337
0.100000 0.360829 -0.289953 128 128 255 -0.725585 0.128316 -0.676064
0.100000 0.331469 -0.295142 128 128 255 -0.769282 0.105989 -0.630057
0.100000 0.302242 -0.299678 128 128 255 -0.812529 0.084790 -0.576721
0.100000 0.273133 -0.303576 128 128 255 -0.854369 0.065057 -0.515579
0.100000 0.244124 -0.306851 128 128 255 -0.893598 0.047185 -0.446381
0.100000 0.215198 -0.309514 128 128 255 -0.928801 0.031623 -0.369228
0.100000 0.186340 -0.311576 128 128 255 -0.958435 0.018844 -0.284687
0.100000 0.157532 -0.313043 128 128 255 -0.980981 0.009300 -0.193878
0.100000 0.128758 -0.313921 128 128 255 -0.995133 0.003376 -0.098487
0.100000 0.100000 -0.314214 128 128 255 -0.998885 0.033716 -0.033037
0.100000 0.100000 2.692403 128 128 255 0.989969 0.136986 0.034591
0.081498 0.287855 2.680390 128 128 255 0.987815 0.118814 0.100526
0.063417 0.471435 2.644869 128 128 255 0.969727 0.153616 0.189818
0.046148 0.646766 2.587340 128 128 255 0.941318 0.207579 0.266143
0.030029 0.810431 2.510131 128 128 255 0.904392 0.276191 0.325261
0.015321 0.959756 2.416172 128 128 255 0.861024 0.354294 0.364847
0.002208 1.092895 2.308741 128 128 255 0.813292 0.436785 0.384415
-0.009210 1.208829 2.191211 128 128 255 0.763074 0.519146 0.384974
-0.018908 1.307292 2.066837 128 128 255 0.711935 0.597742 0.368581
-0.026921 1.388648 1.938595 128 128 255 0.661088 0.669926 0.337879
-0.033332 1.453747 1.809076 128 128 255 0.611405 0.733987 0.295716
-0.038260 1.503776 1.680441 128 128 255 0.563468 0.789014 0.244867
-0.041840 1.540125 1.554414 128 128 255 0.517624 0.834729 0.187862
-0.044219 1.564277 1.432307 128 128 255 0.474040 0.871312 0.126894
-0.045543 1.577724 1.315068 128 128 255 0.432752 0.899253 0.063787
-0.045955 1.581902 1.203330 128 128 255 0.393711 0.919234 0.000008
-0.045585 1.578153 1.097470 128 128 255 0.356809 0.932030 -0.063298
-0.044556 1.567699 0.997660 128 128 255 0.321904 0.938449 -0.125268
-0.042974 1.551636 0.903917 128 128 255 0.288835 0.939281 -0.185273
-0.040934 1.530929 0.816140 128 128 255 0.257436 0.935274 -0.242877
-0.038520 1.506419 0.734144 128 128 255 0.227540 0.927117 -0.297791
-0.035803 1.478829 0.657687 128 128 255 0.198987 0.915430 -0.349846
-0.032843 1.448779 0.586494 128 128 255 0.171624 0.900762 -0.398964
-0.029693 1.416793 0.520268 128 128 255 0.145306 0.883598 -0.445130
-0.026395 1.383314 0.458705 128 128 255 0.119898 0.864358 -0.488375
-0.022987 1.348713 0.401502 128 128 255 0.095274 0.843402 -0.528768
-0.019499 1.313296 0.348363 128 128 255 0.071318 0.821041 -0.566397
-0.015956 1.277321 0.299003 128 128 255 0.047920 0.797538 -0.601363
-0.012378 1.240996 0.253153 128 128 255 0.024978 0.773115 -0.633774
-0.008783 1.204494 0.210558 128 128 255 0.002394 0.747959 -0.663741
-0.005184 1.167954 0.170979 128 128 255 -0.019921 0.722227 -0.691370
-0.001593 1.131487 0.134195 128 128 255 -0.042057 0.696048 -0.716762
0.001983 1.095185 0.100000 128 128 255 -0.064096 0.669530 -0.740014
0.005535 1.059116 0.068204 128 128 255 -0.086120 0.642760 -0.761212
0.009059 1.023335 0.038633 128 128 255 -0.108210 0.615807 -0.780431
0.012551 0.987883 0.011124 128 128 255 -0.130445 0.588729 -0.797735
0.016008 0.952790 -0.014468 128 128 255 -0.152905 0.561570 -0.813178
0.019426 0.918077 -0.038280 128 128 255 -0.175670 0.534363 -0.826799
0.022807 0.883757 -0.060436 128 128 255 -0.198821 0.507132 -0.838622
0.026148 0.849837 -0.081048 128 128 255 -0.222442 0.479896 -0.848658
0.029449 0.816319 -0.100222 128 128 255 -0.246618 0.452664 -0.856898
0.032711 0.783200 -0.118051 128 128 255 -0.271437 0.425443 -0.863319
0.035934 0.750475 -0.134622 128 128 255 -0.296993 0.398234 -0.867874
0.039119 0.718135 -0.150014 128 128 255 -0.323378 0.371037 -0.870493
0.042267 0.686169 -0.164299 128 128 255 -0.350690 0.343847 -0.871083
0.045380 0.654564 -0.177544 128 128 255 -0.379028 0.316661 -0.869519
0.048459 0.623306 -0.189807 128 128 255 -0.408490 0.289474 -0.865645
0.051505 0.592379 -0.201144 128 128 255 -0.439173 0.262287 -0.859263
0.054520 0.561767 -0.211604 128 128 255 -0.471168 0.235102 -0.850134
0.057506 0.531454 -0.221233 128 128 255 -0.504551 0.207930 -0.837970
0.060464 0.501420 -0.230070 128 128 255 -0.539379 0.180794 -0.822426
0.063396 0.471649 -0.238153 128 128 255 -0.575677 0.153731 -0.803096
0.066304 0.442121 -0.245516 128 128 255 -0.613420 0.126804 -0.779510
0.069190 0.412819 -0.252188 128 128 255 -0.652514 0.100102 -0.751136
0.072056 0.383724 -0.258195 128 128 255 -0.692768 0.073755 -0.717379
0.074903 0.354817 -0.263563 128 128 255 -0.733859 0.047947 -0.677608
0.077733 0.326079 -0.268312 128 128 255 -0.775298 0.022923 -0.631179
0.080549 0.297491 -0.272460 128 128 255 -0.816395 -0.000998 -0.577493
0.083352 0.269034 -0.276024 128 128 255 -0.856225 -0.023413 -0.516071
0.086143 0.240690 -0.279017 128 128 255 -0.893628 -0.043837 -0.446662
0.088926 0.212440 -0.281450 128 128 255 -0.927235 -0.061720 -0.369358
0.091701 0.184264 -0.283333 128 128 255 -0.955555 -0.076474 -0.284720
0.094470 0.156145 -0.284673 128 128 255 -0.977117 -0.087531 -0.193859
0.097236 0.128063 -0.285476 128 128 255 -0.990654 -0.094410 -0.098446
0.100000 0.100000 -0.285743 128 128 255 -0.997376 -0.064424 -0.033015
0.100000 0.100000 2.894813 128 128 255 0.971644 0.233886 0.034719
0.058000 0.311147 2.880042 128 128 255 0.971035 0.216726 0.100598
0.017117 0.516683 2.836481 128 128 255 0.949054 0.252228 0.188883
-0.021627 0.711461 2.766286 128 128 255 0.914709 0.306895 0.262911
-0.057376 0.891182 2.672761 128 128 255 0.870385 0.375734 0.318203
-0.089494 1.052652 2.559993 128 128 255 0.818797 0.453122 0.352493
-0.117584 1.193869 2.432442 128 128 255 0.762628 0.533609 0.365595
-0.141475 1.313979 2.294565 128 128 255 0.704262 0.612497 0.358973
