ply
format ascii 1.0
element vertex 675
property float x
property float y
property float z
property uchar red
property uchar green
property uchar blue
property float nx
property float ny
property float nz
end_header
0.000000 -0.156250 -0.500000 128 128 255 -0.706930 -0.000000 0.707283
-0.761905 -0.761905 -0.761905 128 128 255 -0.842030 0.298559 0.449274
0.000000 0.761905 -0.761905 128 128 255 -0.707262 -0.000821 -0.706951
-1000.000000 -312.500000 1000.000000 128 128 255 -0.973506 -0.227578 -0.022230
0.000000 -0.156250 0.500000 128 128 255 0.706930 0.000000 0.707283
-0.761905 -0.761905 0.761905 128 128 255 0.842030 -0.298559 0.449274
0.000000 0.761905 0.761905 128 128 255 0.919056 -0.330940 0.214042
-0.500000 -0.156250 0.500000 128 128 255 -0.142826 0.332395 -0.932263
-0.500000 -0.125000 0.500000 128 128 255 0.894427 0.000000 0.447214
0.000000 -0.125000 -0.500000 128 128 255 0.933689 0.253204 0.253204
-0.500000 -0.500000 -0.125000 128 128 255 0.937574 -0.245921 -0.245921
0.000000 0.500000 -0.125000 128 128 255 -0.707228 0.000706 -0.706985
-1000.000000 -250.000000 1000.000000 128 128 255 0.970137 0.000121 0.242559
0.000000 -250.000000 -1000.000000 128 128 255 0.933689 0.253204 0.253204
-1000.000000 -1000.000000 -250.000000 128 128 255 0.937574 -0.245921 -0.245921
0.000000 1000.000000 -250.000000 128 128 255 0.000000 0.000000 0.000000
-1000.000000 -1000.000000 -250.000000 128 128 255 -0.970107 0.242678 0.000000
-0.500000 0.000000 -0.125000 128 128 255 0.707283 -0.706930 -0.000000
-0.800000 -0.800000 -0.800000 128 128 255 0.447298 -0.838884 0.310160
-0.800000 0.000000 0.800000 128 128 255 -0.706921 -0.707292 -0.000905
1000.000000 -1000.000000 -250.000000 128 128 255 -0.042209 -0.971090 -0.234952
0.500000 0.000000 -0.125000 128 128 255 0.707283 0.706930 0.000000
0.800000 -0.800000 -0.800000 128 128 255 0.447298 0.838884 -0.310160
0.800000 0.000000 0.800000 128 128 255 -0.706921 0.707292 0.000905
-1000.000000 -1000.000000 -250.000000 128 128 255 -0.561194 0.768150 0.308233
0.000000 -0.500000 -0.125000 128 128 255 0.706930 -0.707283 0.000000
-0.800000 -0.800000 -0.800000 128 128 255 0.838884 -0.447298 -0.310160
0.000000 -0.800000 0.800000 128 128 255 0.707292 0.706921 0.000905
-1000.000000 1000.000000 -250.000000 128 128 255 0.971090 0.042209 0.234952
0.000000 0.500000 -0.125000 128 128 255 -0.706930 -0.707283 -0.000000
-0.800000 0.800000 -0.800000 128 128 255 -0.838884 -0.447298 0.310160
0.000000 0.800000 0.800000 128 128 255 0.707290 0.000905 -0.706923
-1000.000000 -250.000000 -1000.000000 128 128 255 0.971090 0.234952 -0.042209
0.000000 -0.125000 -0.500000 128 128 255 -0.706930 -0.000000 0.707283
-0.800000 -0.800000 -0.800000 128 128 255 -0.838884 0.310160 0.447298
0.000000 0.800000 -0.800000 128 128 255 -0.707292 -0.000905 -0.706921
-1000.000000 -250.000000 1000.000000 128 128 255 -0.971090 -0.234952 -0.042209
0.000000 -0.125000 0.500000 128 128 255 0.706930 0.000000 0.707283
-0.800000 -0.800000 0.800000 128 128 255 0.838884 -0.310160 0.447298
0.000000 0.800000 0.800000 128 128 255 0.914580 -0.330420 0.233164
-0.500000 -0.125000 0.500000 128 128 255 -0.115430 0.351786 -0.928936
-0.500000 -0.093750 0.500000 128 128 255 0.894427 0.000000 0.447214
0.000000 -0.093750 -0.500000 128 128 255 0.927173 0.264906 0.264906
-0.500000 -0.500000 -0.093750 128 128 255 0.931614 -0.256997 -0.256997
0.000000 0.500000 -0.093750 128 128 255 -0.707195 0.000706 -0.707019
-1000.000000 -187.500000 1000.000000 128 128 255 0.970138 0.000121 0.242553
0.000000 -187.500000 -1000.000000 128 128 255 0.927173 0.264906 0.264906
-1000.000000 -1000.000000 -187.500000 128 128 255 0.931614 -0.256997 -0.256997
0.000000 1000.000000 -187.500000 128 128 255 0.000000 0.000000 0.000000
-1000.000000 -1000.000000 -187.500000 128 128 255 -0.970107 0.242678 0.000000
-0.500000 0.000000 -0.093750 128 128 255 0.707284 -0.706930 -0.000000
-0.842105 -0.842105 -0.842105 128 128 255 0.445069 -0.835926 0.321157
-0.842105 0.000000 0.842105 128 128 255 -0.706885 -0.707328 -0.001003
1000.000000 -1000.000000 -187.500000 128 128 255 -0.062516 -0.968139 -0.242483
0.500000 0.000000 -0.093750 128 128 255 0.707284 0.706930 0.000000
0.842105 -0.842105 -0.842105 128 128 255 0.445069 0.835926 -0.321157
0.842105 0.000000 0.842105 128 128 255 -0.706885 0.707328 0.001003
-1000.000000 -1000.000000 -187.500000 128 128 255 -0.542283 0.780439 0.311198
0.000000 -0.500000 -0.093750 128 128 255 0.706930 -0.707284 0.000000
-0.842105 -0.842105 -0.842105 128 128 255 0.835926 -0.445069 -0.321157
0.000000 -0.842105 0.842105 128 128 255 0.707328 0.706885 0.001003
-1000.000000 1000.000000 -187.500000 128 128 255 0.968139 0.062516 0.242483
0.000000 0.500000 -0.093750 128 128 255 -0.706930 -0.707284 -0.000000
-0.842105 0.842105 -0.842105 128 128 255 -0.835926 -0.445069 0.321157
0.000000 0.842105 0.842105 128 128 255 0.707325 0.001003 -0.706887
-1000.000000 -187.500000 -1000.000000 128 128 255 0.968139 0.242483 -0.062516
0.000000 -0.093750 -0.500000 128 128 255 -0.706930 -0.000000 0.707284
-0.842105 -0.842105 -0.842105 128 128 255 -0.835926 0.321157 0.445069
0.000000 0.842105 -0.842105 128 128 255 -0.707328 -0.001003 -0.706885
-1000.000000 -187.500000 1000.000000 128 128 255 -0.968139 -0.242483 -0.062516
0.000000 -0.093750 0.500000 128 128 255 0.706930 0.000000 0.707284
-0.842105 -0.842105 0.842105 128 128 255 0.835926 -0.321157 0.445069
0.000000 0.842105 0.842105 128 128 255 0.910072 -0.330572 0.249984
-0.500000 -0.093750 0.500000 128 128 255 -0.087183 0.371980 -0.924138
-0.500000 -0.062500 0.500000 128 128 255 0.894427 0.000000 0.447214
0.000000 -0.062500 -0.500000 128 128 255 0.919690 0.277642 0.277642
-0.500000 -0.500000 -0.062500 128 128 255 0.924794 -0.269031 -0.269031
0.000000 0.500000 -0.062500 128 128 255 -0.707161 0.000707 -0.707052
-1000.000000 -125.000000 1000.000000 128 128 255 0.970139 0.000121 0.242548
0.000000 -125.000000 -1000.000000 128 128 255 0.919690 0.277642 0.277642
-1000.000000 -1000.000000 -125.000000 128 128 255 0.924794 -0.269031 -0.269031
0.000000 1000.000000 -125.000000 128 128 255 0.000000 0.000000 0.000000
-1000.000000 -1000.000000 -125.000000 128 128 255 -0.970107 0.242678 0.000000
-0.500000 0.000000 -0.062500 128 128 255 0.707284 -0.706930 -0.000000
-0.888889 -0.888889 -0.888889 128 128 255 0.442633 -0.833175 0.331506
-0.888889 0.000000 0.888889 128 128 255 -0.706842 -0.707371 -0.001117
1000.000000 -1000.000000 -125.000000 128 128 255 -0.083074 -0.964631 -0.250173
0.500000 0.000000 -0.062500 128 128 255 0.707284 0.706930 0.000000
0.888889 -0.888889 -0.888889 128 128 255 0.442633 0.833175 -0.331506
0.888889 0.000000 0.888889 128 128 255 -0.706842 0.707371 0.001117
-1000.000000 -1000.000000 -125.000000 128 128 255 -0.524136 0.791568 0.314167
0.000000 -0.500000 -0.062500 128 128 255 0.706930 -0.707284 0.000000
-0.888889 -0.888889 -0.888889 128 128 255 0.833175 -0.442633 -0.331506
0.000000 -0.888889 0.888889 128 128 255 0.707371 0.706842 0.001117
-1000.000000 1000.000000 -125.000000 128 128 255 0.964631 0.083074 0.250173
0.000000 0.500000 -0.062500 128 128 255 -0.706930 -0.707284 -0.000000
-0.888889 0.888889 -0.888889 128 128 255 -0.833175 -0.442633 0.331506
0.000000 0.888889 0.888889 128 128 255 0.707368 0.001117 -0.706845
-1000.000000 -125.000000 -1000.000000 128 128 255 0.964631 0.250173 -0.083074
0.000000 -0.062500 -0.500000 128 128 255 -0.706930 -0.000000 0.707284
-0.888889 -0.888889 -0.888889 128 128 255 -0.833175 0.331506 0.442633
0.000000 0.888889 -0.888889 128 128 255 -0.707371 -0.001117 -0.706842
-1000.000000 -125.000000 1000.000000 128 128 255 -0.964631 -0.250173 -0.083074
0.000000 -0.062500 0.500000 128 128 255 0.706930 0.000000 0.707284
-0.888889 -0.888889 0.888889 128 128 255 0.833175 -0.331506 0.442633
0.000000 0.888889 0.888889 128 128 255 0.905569 -0.331328 0.264892
-0.500000 -0.062500 0.500000 128 128 255 -0.058318 0.392878 -0.917739
-0.500000 -0.031250 0.500000 128 128 255 0.894427 0.000000 0.447214
0.000000 -0.031250 -0.500000 128 128 255 0.911051 0.291536 0.291536
-0.500000 -0.500000 -0.031250 128 128 255 0.916949 -0.282138 -0.282138
0.000000 0.500000 -0.031250 128 128 255 -0.707128 0.000707 -0.707085
-1000.000000 -62.500000 1000.000000 128 128 255 0.970141 0.000121 0.242543
0.000000 -62.500000 -1000.000000 128 128 255 0.911051 0.291536 0.291536
-1000.000000 -1000.000000 -62.500000 128 128 255 0.916949 -0.282138 -0.282138
0.000000 1000.000000 -62.500000 128 128 255 0.000000 0.000000 0.000000
-1000.000000 -1000.000000 -62.500000 128 128 255 -0.970107 0.242678 0.000000
-0.500000 0.000000 -0.031250 128 128 255 0.707284 -0.706930 -0.000000
-0.941176 -0.941176 -0.941176 128 128 255 0.440037 -0.830643 0.341174
-0.941176 0.000000 0.941176 128 128 255 -0.706790 -0.707422 -0.001253
1000.000000 -1000.000000 -62.500000 128 128 255 -0.103815 -0.960549 -0.258007
0.500000 0.000000 -0.031250 128 128 255 0.707284 0.706930 0.000000
0.941176 -0.941176 -0.941176 128 128 255 0.440037 0.830643 -0.341174
0.941176 0.000000 0.941176 128 128 255 -0.706790 0.707422 0.001253
-1000.000000 -1000.000000 -62.500000 128 128 255 -0.506824 0.801583 0.317165
0.000000 -0.500000 -0.031250 128 128 255 0.706930 -0.707284 0.000000
-0.941176 -0.941176 -0.941176 128 128 255 0.830643 -0.440037 -0.341174
0.000000 -0.941176 0.941176 128 128 255 0.707422 0.706790 0.001253
-1000.000000 1000.000000 -62.500000 128 128 255 0.960549 0.103815 0.258007
0.000000 0.500000 -0.031250 128 128 255 -0.706930 -0.707284 -0.000000
-0.941176 0.941176 -0.941176 128 128 255 -0.830643 -0.440037 0.341174
0.000000 0.941176 0.941176 128 128 255 0.707419 0.001253 -0.706793
-1000.000000 -62.500000 -1000.000000 128 128 255 0.960549 0.258007 -0.103815
0.000000 -0.031250 -0.500000 128 128 255 -0.706930 -0.000000 0.707284
-0.941176 -0.941176 -0.941176 128 128 255 -0.830643 0.341174 0.440037
0.000000 0.941176 -0.941176 128 128 255 -0.707422 -0.001253 -0.706790
-1000.000000 -62.500000 1000.000000 128 128 255 -0.960549 -0.258007 -0.103815
0.000000 -0.031250 0.500000 128 128 255 0.706930 0.000000 0.707284
-0.941176 -0.941176 0.941176 128 128 255 0.830643 -0.341174 0.440037
0.000000 0.941176 0.941176 128 128 255 0.901089 -0.332627 0.278204
-0.500000 -0.031250 0.500000 128 128 255 -0.029135 0.414359 -0.909647
-0.500000 0.000000 0.500000 128 128 255 0.894427 0.000000 0.447214
0.000000 0.000000 -0.500000 128 128 255 0.901018 0.306730 0.306730
-0.500000 -0.500000 0.000000 128 128 255 0.907875 -0.296449 -0.296449
0.000000 0.500000 0.000000 128 128 255 -0.707095 0.000707 -0.707118
-1000.000000 0.000000 1000.000000 128 128 255 0.970142 0.000121 0.242537
0.000000 0.000000 -1000.000000 128 128 255 0.901018 0.306730 0.306730
-1000.000000 -1000.000000 0.000000 128 128 255 0.907875 -0.296449 -0.296449
0.000000 1000.000000 0.000000 128 128 255 0.000000 0.000000 0.000000
-1000.000000 -1000.000000 0.000000 128 128 255 -0.970107 0.242678 0.000000
-0.500000 0.000000 0.000000 128 128 255 0.707284 -0.706930 -0.000000
-1.000000 -1.000000 -1.000000 128 128 255 0.437330 -0.828339 0.350138
-1.000000 0.000000 1.000000 128 128 255 -0.706727 -0.707485 -0.001414
1000.000000 -1000.000000 0.000000 128 128 255 -0.124674 -0.955887 -0.265964
0.500000 0.000000 0.000000 128 128 255 0.707284 0.706930 0.000000
1.000000 -1.000000 -1.000000 128 128 255 0.437330 0.828339 -0.350138
1.000000 0.000000 1.000000 128 128 255 -0.706727 0.707485 0.001414
-1000.000000 -1000.000000 0.000000 128 128 255 -0.490408 0.810535 0.320208
0.000000 -0.500000 0.000000 128 128 255 0.706930 -0.707284 0.000000
-1.000000 -1.000000 -1.000000 128 128 255 0.828339 -0.437330 -0.350138
0.000000 -1.000000 1.000000 128 128 255 0.707485 0.706727 0.001414
-1000.000000 1000.000000 0.000000 128 128 255 0.955887 0.124674 0.265964
0.000000 0.500000 0.000000 128 128 255 -0.706930 -0.707284 -0.000000
-1.000000 1.000000 -1.000000 128 128 255 -0.828339 -0.437330 0.350138
0.000000 1.000000 1.000000 128 128 255 0.707481 0.001414 -0.706731
-1000.000000 0.000000 -1000.000000 128 128 255 0.955887 0.265964 -0.124674
0.000000 0.000000 -0.500000 128 128 255 -0.706930 -0.000000 0.707284
-1.000000 -1.000000 -1.000000 128 128 255 -0.828339 0.350138 0.437330
0.000000 1.000000 -1.000000 128 128 255 -0.707485 -0.001414 -0.706727
-1000.000000 0.000000 1000.000000 128 128 255 -0.955887 -0.265964 -0.124674
0.000000 0.000000 0.500000 128 128 255 0.706930 0.000000 0.707284
-1.000000 -1.000000 1.000000 128 128 255 0.828339 -0.350138 0.437330
0.000000 1.000000 1.000000 128 128 255 0.896639 -0.334419 0.290178
-0.500000 0.000000 0.500000 128 128 255 0.000000 0.436273 -0.899814
-0.500000 0.031250 0.500000 128 128 255 0.894427 0.000000 0.447214
0.000000 0.031250 -0.500000 128 128 255 0.889297 0.323381 0.323381
-0.500000 -0.500000 0.031250 128 128 255 0.897315 -0.312110 -0.312110
0.000000 0.500000 0.031250 128 128 255 -0.707062 0.000707 -0.707151
-1000.000000 62.500000 1000.000000 128 128 255 0.970143 0.000121 0.242532
0.000000 62.500000 -1000.000000 128 128 255 0.889297 0.323381 0.323381
-1000.000000 -1000.000000 62.500000 128 128 255 0.897315 -0.312110 -0.312110
0.000000 1000.000000 62.500000 128 128 255 0.000000 0.000000 0.000000
-1000.000000 -1000.000000 62.500000 128 128 255 -0.970107 0.242678 0.000000
-0.500000 0.000000 0.031250 128 128 255 0.707284 -0.706930 -0.000000
-1.066667 -1.066667 -1.066667 128 128 255 0.434559 -0.826269 0.358384
-1.066667 0.000000 1.066667 128 128 255 -0.706649 -0.707563 -0.001609
1000.000000 -1000.000000 62.500000 128 128 255 -0.145588 -0.950635 -0.274039
0.500000 0.000000 0.031250 128 128 255 0.707284 0.706930 0.000000
1.066667 -1.066667 -1.066667 128 128 255 0.434559 0.826269 -0.358384
1.066667 0.000000 1.066667 128 128 255 -0.706649 0.707563 0.001609
-1000.000000 -1000.000000 62.500000 128 128 255 -0.474981 0.818442 0.323335
0.000000 -0.500000 0.031250 128 128 255 0.706930 -0.707284 0.000000
-1.066667 -1.066667 -1.066667 128 128 255 0.826269 -0.434559 -0.358384
0.000000 -1.066667 1.066667 128 128 255 0.707563 0.706649 0.001609
-1000.000000 1000.000000 62.500000 128 128 255 0.950635 0.145588 0.274039
0.000000 0.500000 0.031250 128 128 255 -0.706930 -0.707284 -0.000000
-1.066667 1.066667 -1.066667 128 128 255 -0.826269 -0.434559 0.358384
0.000000 1.066667 1.066667 128 128 255 0.707558 0.001609 -0.706654
-1000.000000 62.500000 -1000.000000 128 128 255 0.950635 0.274039 -0.145588
0.000000 0.031250 -0.500000 128 128 255 -0.706930 -0.000000 0.707284
-1.066667 -1.066667 -1.066667 128 128 255 -0.826269 0.358384 0.434559
0.000000 1.066667 -1.066667 128 128 255 -0.707563 -0.001609 -0.706649
-1000.000000 62.500000 1000.000000 128 128 255 -0.950635 -0.274039 -0.145588
0.000000 0.031250 0.500000 128 128 255 0.706930 0.000000 0.707284
-1.066667 -1.066667 1.066667 128 128 255 0.826269 -0.358384 0.434559
0.000000 1.066667 1.066667 128 128 255 0.892214 -0.336659 0.301025
-0.500000 0.031250 0.500000 128 128 255 0.028653 0.458455 -0.888256
-0.500000 0.062500 0.500000 128 128 255 0.894427 0.000000 0.447214
0.000000 0.062500 -0.500000 128 128 255 0.875517 0.341665 0.341665
-0.500000 -0.500000 0.062500 128 128 255 0.884953 -0.329285 -0.329285
0.000000 0.500000 0.062500 128 128 255 -0.707029 0.000707 -0.707184
-1000.000000 125.000000 1000.000000 128 128 255 0.970145 0.000121 0.242527
0.000000 125.000000 -1000.000000 128 128 255 0.875517 0.341665 0.341665
-1000.000000 -1000.000000 125.000000 128 128 255 0.884953 -0.329285 -0.329285
0.000000 1000.000000 125.000000 128 128 255 0.000000 0.000000 0.000000
-1000.000000 -1000.000000 125.000000 128 128 255 -0.970107 0.242678 0.000000
-0.500000 0.000000 0.062500 128 128 255 0.707284 -0.706930 -0.000000
-1.142857 -1.142857 -1.142857 128 128 255 0.431767 -0.824431 0.365909
-1.142857 0.000000 1.142857 128 128 255 -0.706551 -0.707659 -0.001847
1000.000000 -1000.000000 125.000000 128 128 255 -0.166462 -0.944801 -0.282207
0.500000 0.000000 0.062500 128 128 255 0.707284 0.706930 0.000000
1.142857 -1.142857 -1.142857 128 128 255 0.431767 0.824431 -0.365909
1.142857 0.000000 1.142857 128 128 255 -0.706551 0.707659 0.001847
-1000.000000 -1000.000000 125.000000 128 128 255 -0.460581 0.825360 0.326567
0.000000 -0.500000 0.062500 128 128 255 0.706930 -0.707284 0.000000
-1.142857 -1.142857 -1.142857 128 128 255 0.824431 -0.431767 -0.365909
0.000000 -1.142857 1.142857 128 128 255 0.707659 0.706551 0.001847
-1000.000000 1000.000000 125.000000 128 128 255 0.944801 0.166462 0.282207
0.000000 0.500000 0.062500 128 128 255 -0.706930 -0.707284 -0.000000
-1.142857 1.142857 -1.142857 128 128 255 -0.824431 -0.431767 0.365909
0.000000 1.142857 1.142857 128 128 255 0.707653 0.001847 -0.706558
-1000.000000 125.000000 -1000.000000 128 128 255 0.944801 0.282207 -0.166462
0.000000 0.062500 -0.500000 128 128 255 -0.706930 -0.000000 0.707284
-1.142857 -1.142857 -1.142857 128 128 255 -0.824431 0.365909 0.431767
0.000000 1.142857 -1.142857 128 128 255 -0.707659 -0.001847 -0.706551
-1000.000000 125.000000 1000.000000 128 128 255 -0.944801 -0.282207 -0.166462
0.000000 0.062500 0.500000 128 128 255 0.706930 0.000000 0.707284
-1.142857 -1.142857 1.142857 128 128 255 0.824431 -0.365909 0.431767
0.000000 1.142857 1.142857 128 128 255 0.887806 -0.339308 0.310921
-0.500000 0.062500 0.500000 128 128 255 0.056335 0.480721 -0.875062
-0.500000 0.093750 0.500000 128 128 255 0.894427 0.000000 0.447214
0.000000 0.093750 -0.500000 128 128 255 0.859210 0.361773 0.361773
-0.500000 -0.500000 0.093750 128 128 255 0.870388 -0.348155 -0.348155
0.000000 0.500000 0.093750 128 128 255 -0.706996 0.000707 -0.707217
-1000.000000 187.500000 1000.000000 128 128 255 0.970146 0.000121 0.242521
0.000000 187.500000 -1000.000000 128 128 255 0.859210 0.361773 0.361773
-1000.000000 -1000.000000 187.500000 128 128 255 0.870388 -0.348155 -0.348155
0.000000 1000.000000 187.500000 128 128 255 0.000000 0.000000 0.000000
-1000.000000 -1000.000000 187.500000 128 128 255 -0.970107 0.242678 0.000000
-0.500000 0.000000 0.093750 128 128 255 0.707284 -0.706930 -0.000001
-1.230769 -1.230769 -1.230769 128 128 255 0.428999 -0.822824 0.372720
-1.230769 0.000000 1.230769 128 128 255 -0.706428 -0.707781 -0.002143
1000.000000 -1000.000000 187.500000 128 128 255 -0.187209 -0.938393 -0.290467
0.500000 0.000000 0.093750 128 128 255 0.707284 0.706930 0.000001
1.230769 -1.230769 -1.230769 128 128 255 0.428999 0.822824 -0.372720
1.230769 0.000000 1.230769 128 128 255 -0.706428 0.707781 0.002143
-1000.000000 -1000.000000 187.500000 128 128 255 -0.447284 0.831307 0.329947
0.000000 -0.500000 0.093750 128 128 255 0.706930 -0.707284 0.000001
-1.230769 -1.230769 -1.230769 128 128 255 0.822824 -0.428999 -0.372720
0.000000 -1.230769 1.230769 128 128 255 0.707781 0.706428 0.002143
-1000.000000 1000.000000 187.500000 128 128 255 0.938393 0.187209 0.290467
0.000000 0.500000 0.093750 128 128 255 -0.706930 -0.707284 -0.000001
-1.230769 1.230769 -1.230769 128 128 255 -0.822824 -0.428999 0.372720
0.000000 1.230769 1.230769 128 128 255 0.707774 0.002143 -0.706436
-1000.000000 187.500000 -1000.000000 128 128 255 0.938393 0.290467 -0.187209
0.000000 0.093750 -0.500000 128 128 255 -0.706930 -0.000001 0.707284
-1.230769 -1.230769 -1.230769 128 128 255 -0.822824 0.372720 0.428999
0.000000 1.230769 -1.230769 128 128 255 -0.707781 -0.002143 -0.706428
-1000.000000 187.500000 1000.000000 128 128 255 -0.938393 -0.290467 -0.187209
0.000000 0.093750 0.500000 128 128 255 0.706930 0.000001 0.707284
-1.230769 -1.230769 1.230769 128 128 255 0.822824 -0.372720 0.428999
0.000000 1.230769 1.230769 128 128 255 0.883403 -0.342332 0.320013
-0.500000 0.093750 0.500000 128 128 255 0.082505 0.502886 -0.860406
-0.500000 0.125000 0.500000 128 128 255 0.894427 0.000000 0.447214
0.000000 0.125000 -0.500000 128 128 255 0.839785 0.383902 0.383902
-0.500000 -0.500000 0.125000 128 128 255 0.853114 -0.368914 -0.368914
0.000000 0.500000 0.125000 128 128 255 -0.706963 0.000707 -0.707251
-1000.000000 250.000000 1000.000000 128 128 255 0.970147 0.000121 0.242516
0.000000 250.000000 -1000.000000 128 128 255 0.839785 0.383902 0.383902
-1000.000000 -1000.000000 250.000000 128 128 255 0.853114 -0.368914 -0.368914
0.000000 1000.000000 250.000000 128 128 255 0.000000 0.000000 0.000000
-1000.000000 -1000.000000 250.000000 128 128 255 -0.970107 0.242678 0.000000
-0.500000 0.000000 0.125000 128 128 255 0.707284 -0.706930 -0.000001
-1.333333 -1.333333 -1.333333 128 128 255 0.426294 -0.821439 0.378829
-1.333333 0.000000 1.333333 128 128 255 -0.706270 -0.707938 -0.002515
1000.000000 -1000.000000 250.000000 128 128 255 -0.207748 -0.931431 -0.298791
0.500000 0.000000 0.125000 128 128 255 0.707284 0.706930 0.000001
1.333333 -1.333333 -1.333333 128 128 255 0.426294 0.821439 -0.378829
1.333333 0.000000 1.333333 128 128 255 -0.706270 0.707938 0.002515
-1000.000000 -1000.000000 250.000000 128 128 255 -0.435143 0.836323 0.333488
0.000000 -0.500000 0.125000 128 128 255 0.706930 -0.707284 0.000001
-1.333333 -1.333333 -1.333333 128 128 255 0.821439 -0.426294 -0.378829
0.000000 -1.333333 1.333333 128 128 255 0.707938 0.706270 0.002515
-1000.000000 1000.000000 250.000000 128 128 255 0.931431 0.207748 0.298791
0.000000 0.500000 0.125000 128 128 255 -0.706930 -0.707284 -0.000001
-1.333333 1.333333 -1.333333 128 128 255 -0.821439 -0.426294 0.378829
0.000000 1.333333 1.333333 128 128 255 0.707928 0.002515 -0.706280
-1000.000000 250.000000 -1000.000000 128 128 255 0.931431 0.298791 -0.207748
0.000000 0.125000 -0.500000 128 128 255 -0.706930 -0.000001 0.707284
-1.333333 -1.333333 -1.333333 128 128 255 -0.821439 0.378829 0.426294
0.000000 1.333333 -1.333333 128 128 255 -0.707938 -0.002515 -0.706270
-1000.000000 250.000000 1000.000000 128 128 255 -0.931431 -0.298791 -0.207748
0.000000 0.125000 0.500000 128 128 255 0.706930 0.000001 0.707284
-1.333333 -1.333333 1.333333 128 128 255 0.821439 -0.378829 0.426294
0.000000 1.333333 1.333333 128 128 255 0.878992 -0.345701 0.328428
-0.500000 0.125000 0.500000 128 128 255 0.106593 0.524766 -0.844546
-0.500000 0.156250 0.500000 128 128 255 0.894427 0.000000 0.447214
0.000000 0.156250 -0.500000 128 128 255 0.816497 0.408248 0.408248
-0.500000 -0.500000 0.156250 128 128 255 0.832494 -0.391762 -0.391762
0.000000 0.500000 0.156250 128 128 255 -0.706929 0.000707 -0.707284
-1000.000000 312.500000 1000.000000 128 128 255 0.970149 0.000121 0.242511
0.000000 312.500000 -1000.000000 128 128 255 0.816497 0.408248 0.408248
-1000.000000 -1000.000000 312.500000 128 128 255 0.832494 -0.391762 -0.391762
0.000000 1000.000000 312.500000 128 128 255 0.000000 0.000000 0.000000
-1000.000000 -1000.000000 312.500000 128 128 255 -0.970107 0.242678 0.000000
-0.500000 0.000000 0.156250 128 128 255 0.707284 -0.706930 -0.000001
-1.454545 -1.454545 -1.454545 128 128 255 0.423687 -0.820266 0.384257
-1.454545 0.000000 1.454545 128 128 255 -0.706062 -0.708143 -0.002994
1000.000000 -1000.000000 312.500000 128 128 255 -0.227974 -0.923945 -0.307170
0.500000 0.000000 0.156250 128 128 255 0.707284 0.706930 0.000001
1.454545 -1.454545 -1.454545 128 128 255 0.423687 0.820266 -0.384257
1.454545 0.000000 1.454545 128 128 255 -0.706062 0.708143 0.002994
-1000.000000 -1000.000000 312.500000 128 128 255 -0.424209 0.840431 0.337228
0.000000 -0.500000 0.156250 128 128 255 0.706930 -0.707284 0.000001
-1.454545 -1.454545 -1.454545 128 128 255 0.820266 -0.423687 -0.384257
0.000000 -1.454545 1.454545 128 128 255 0.708143 0.706062 0.002994
-1000.000000 1000.000000 312.500000 128 128 255 0.923945 0.227974 0.307170
0.000000 0.500000 0.156250 128 128 255 -0.706930 -0.707284 -0.000001
-1.454545 1.454545 -1.454545 128 128 255 -0.820266 -0.423687 0.384257
0.000000 1.454545 1.454545 128 128 255 0.708131 0.002994 -0.706075
-1000.000000 312.500000 -1000.000000 128 128 255 0.923945 0.307170 -0.227974
0.000000 0.156250 -0.500000 128 128 255 -0.706930 -0.000001 0.707284
-1.454545 -1.454545 -1.454545 128 128 255 -0.820266 0.384257 0.423687
0.000000 1.454545 -1.454545 128 128 255 -0.708143 -0.002994 -0.706062
-1000.000000 312.500000 1000.000000 128 128 255 -0.923945 -0.307170 -0.227974
0.000000 0.156250 0.500000 128 128 255 0.706930 0.000001 0.707284
-1.454545 -1.454545 1.454545 128 128 255 0.820266 -0.384257 0.423687
0.000000 1.454545 1.454545 128 128 255 0.874557 -0.349388 0.336270
-0.500000 0.156250 0.500000 128 128 255 0.128014 0.546191 -0.827821
-0.500000 0.187500 0.500000 128 128 255 0.894427 0.000000 0.447214
0.000000 0.187500 -0.500000 128 128 255 0.788405 0.434982 0.434982
-0.500000 -0.500000 0.187500 128 128 255 0.807719 -0.416887 -0.416887
0.000000 0.500000 0.187500 128 128 255 -0.706896 0.000707 -0.707317
-1000.000000 375.000000 1000.000000 128 128 255 0.970150 0.000121 0.242505
0.000000 375.000000 -1000.000000 128 128 255 0.788405 0.434982 0.434982
-1000.000000 -1000.000000 375.000000 128 128 255 0.807719 -0.416887 -0.416887
0.000000 1000.000000 375.000000 128 128 255 0.000000 0.000000 0.000000
-1000.000000 -1000.000000 375.000000 128 128 255 -0.970107 0.242678 0.000000
-0.500000 0.000000 0.187500 128 128 255 0.707284 -0.706930 -0.000001
-1.600000 -1.600000 -1.600000 128 128 255 0.421210 -0.819291 0.389030
-1.600000 0.000000 1.600000 128 128 255 -0.705784 -0.708418 -0.003623
1000.000000 -1000.000000 375.000000 128 128 255 -0.247781 -0.915975 -0.315586
0.500000 0.000000 0.187500 128 128 255 0.707284 0.706930 0.000001
1.600000 -1.600000 -1.600000 128 128 255 0.421210 0.819291 -0.389030
1.600000 0.000000 1.600000 128 128 255 -0.705784 0.708418 0.003623
-1000.000000 -1000.000000 375.000000 128 128 255 -0.414529 0.843655 0.341193
0.000000 -0.500000 0.187500 128 128 255 0.706930 -0.707284 0.000001
-1.600000 -1.600000 -1.600000 128 128 255 0.819291 -0.421210 -0.389030
0.000000 -1.600000 1.600000 128 128 255 0.708418 0.705784 0.003623
-1000.000000 1000.000000 375.000000 128 128 255 0.915975 0.247781 0.315586
0.000000 0.500000 0.187500 128 128 255 -0.706930 -0.707284 -0.000001
-1.600000 1.600000 -1.600000 128 128 255 -0.819291 -0.421210 0.389030
0.000000 1.600000 1.600000 128 128 255 0.708402 0.003623 -0.705800
-1000.000000 375.000000 -1000.000000 128 128 255 0.915975 0.315586 -0.247781
0.000000 0.187500 -0.500000 128 128 255 -0.706930 -0.000001 0.707284
-1.600000 -1.600000 -1.600000 128 128 255 -0.819291 0.389030 0.421210
0.000000 1.600000 -1.600000 128 128 255 -0.708418 -0.003623 -0.705784
-1000.000000 375.000000 1000.000000 128 128 255 -0.915975 -0.315586 -0.247781
0.000000 0.187500 0.500000 128 128 255 0.706930 0.000001 0.707284
-1.600000 -1.600000 1.600000 128 128 255 0.819291 -0.389030 0.421210
0.000000 1.600000 1.600000 128 128 255 0.870084 -0.353370 0.343634
-0.500000 0.187500 0.500000 128 128 255 0.146181 0.567005 -0.810640
-0.500000 0.218750 0.500000 128 128 255 0.894427 0.000000 0.447214
0.000000 0.218750 -0.500000 128 128 255 0.754337 0.464207 0.464207
-0.500000 -0.500000 0.218750 128 128 255 0.777778 -0.444444 -0.444444
0.000000 0.500000 0.218750 128 128 255 -0.706863 0.000707 -0.707350
-1000.000000 437.500000 1000.000000 128 128 255 0.970151 0.000121 0.242500
0.000000 437.500000 -1000.000000 128 128 255 0.754337 0.464207 0.464207
-1000.000000 -1000.000000 437.500000 128 128 255 0.777778 -0.444444 -0.444444
0.000000 1000.000000 437.500000 128 128 255 0.000000 0.000000 0.000000
-1000.000000 -1000.000000 437.500000 128 128 255 -0.970107 0.242678 0.000000
-0.500000 0.000000 0.218750 128 128 255 0.707284 -0.706929 -0.000001
-1.777778 -1.777778 -1.777778 128 128 255 0.418893 -0.818499 0.393177
-1.777778 0.000000 1.777778 128 128 255 -0.705399 -0.708797 -0.004475
1000.000000 -1000.000000 437.500000 128 128 255 -0.267072 -0.907566 -0.324032
0.500000 0.000000 0.218750 128 128 255 0.707284 0.706929 0.000001
1.777778 -1.777778 -1.777778 128 128 255 0.418893 0.818499 -0.393177
1.777778 0.000000 1.777778 128 128 255 -0.705399 0.708797 0.004475
-1000.000000 -1000.000000 437.500000 128 128 255 -0.406166 0.846000 0.345418
0.000000 -0.500000 0.218750 128 128 255 0.706929 -0.707284 0.000001
-1.777778 -1.777778 -1.777778 128 128 255 0.818499 -0.418893 -0.393177
0.000000 -1.777778 1.777778 128 128 255 0.708797 0.705399 0.004475
-1000.000000 1000.000000 437.500000 128 128 255 0.907566 0.267072 0.324032
0.000000 0.500000 0.218750 128 128 255 -0.706929 -0.707284 -0.000001
-1.777778 1.777778 -1.777778 128 128 255 -0.818499 -0.418893 0.393177
0.000000 1.777778 1.777778 128 128 255 0.708774 0.004475 -0.705421
-1000.000000 437.500000 -1000.000000 128 128 255 0.907566 0.324032 -0.267072
0.000000 0.218750 -0.500000 128 128 255 -0.706929 -0.000001 0.707284
-1.777778 -1.777778 -1.777778 128 128 255 -0.818499 0.393177 0.418893
0.000000 1.777778 -1.777778 128 128 255 -0.708797 -0.004475 -0.705399
-1000.000000 437.500000 1000.000000 128 128 255 -0.907566 -0.324032 -0.267072
0.000000 0.218750 0.500000 128 128 255 0.706929 0.000001 0.707284
-1.777778 -1.777778 1.777778 128 128 255 0.818499 -0.393177 0.418893
0.000000 1.777778 1.777778 128 128 255 0.865556 -0.357623 0.350599
-0.500000 0.218750 0.500000 128 128 255 0.160527 0.587070 -0.793461
-0.500000 0.250000 0.500000 128 128 255 0.894427 0.000000 0.447214
0.000000 0.250000 -0.500000 128 128 255 0.712857 0.495901 0.495901
-0.500000 -0.500000 0.250000 128 128 255 0.741412 -0.474504 -0.474504
0.000000 0.500000 0.250000 128 128 255 -0.706830 0.000707 -0.707383
-1000.000000 500.000000 1000.000000 128 128 255 0.970153 0.000121 0.242495
0.000000 500.000000 -1000.000000 128 128 255 0.712857 0.495901 0.495901
-1000.000000 -1000.000000 500.000000 128 128 255 0.741412 -0.474504 -0.474504
0.000000 1000.000000 500.000000 128 128 255 0.000000 0.000000 0.000000
-1000.000000 -1000.000000 500.000000 128 128 255 -0.970107 0.242678 0.000000
-0.500000 0.000000 0.250000 128 128 255 0.707284 -0.706929 -0.000002
-2.000000 -2.000000 -2.000000 128 128 255 0.416759 -0.817872 0.396732
-2.000000 0.000000 2.000000 128 128 255 -0.704849 -0.709335 -0.005666
1000.000000 -1000.000000 500.000000 128 128 255 -0.285734 -0.898781 -0.332490
0.500000 0.000000 0.250000 128 128 255 0.707284 0.706929 0.000002
2.000000 -2.000000 -2.000000 128 128 255 0.416759 0.817872 -0.396732
2.000000 0.000000 2.000000 128 128 255 -0.704849 0.709335 0.005666
-1000.000000 -1000.000000 500.000000 128 128 255 -0.399162 0.847478 0.349928
0.000000 -0.500000 0.250000 128 128 255 0.706929 -0.707284 0.000002
-2.000000 -2.000000 -2.000000 128 128 255 0.817872 -0.416759 -0.396732
0.000000 -2.000000 2.000000 128 128 255 0.709335 0.704849 0.005666
-1000.000000 1000.000000 500.000000 128 128 255 0.898781 0.285734 0.332490
0.000000 0.500000 0.250000 128 128 255 -0.706929 -0.707284 -0.000002
-2.000000 2.000000 -2.000000 128 128 255 -0.817872 -0.416759 0.396732
0.000000 2.000000 2.000000 128 128 255 0.709304 0.005667 -0.704880
-1000.000000 500.000000 -1000.000000 128 128 255 0.898781 0.332490 -0.285734
0.000000 0.250000 -0.500000 128 128 255 -0.706929 -0.000002 0.707284
-2.000000 -2.000000 -2.000000 128 128 255 -0.817872 0.396732 0.416759
0.000000 2.000000 -2.000000 128 128 255 -0.709335 -0.005666 -0.704849
-1000.000000 500.000000 1000.000000 128 128 255 -0.898781 -0.332490 -0.285734
0.000000 0.250000 0.500000 128 128 255 0.706929 0.000002 0.707284
-2.000000 -2.000000 2.000000 128 128 255 0.817872 -0.396732 0.416759
0.000000 2.000000 2.000000 128 128 255 0.860957 -0.362127 0.357236
-0.500000 0.250000 0.500000 128 128 255 0.170511 0.606261 -0.776772
-0.500000 0.281250 0.500000 128 128 255 0.894427 0.000000 0.447214
0.000000 0.281250 -0.500000 128 128 255 0.662266 0.529813 0.529813
-0.500000 -0.500000 0.281250 128 128 255 0.697097 -0.506979 -0.506979
0.000000 0.500000 0.281250 128 128 255 -0.706797 0.000707 -0.707416
-1000.000000 562.500000 1000.000000 128 128 255 0.970154 0.000121 0.242489
0.000000 562.500000 -1000.000000 128 128 255 0.662266 0.529813 0.529813
-1000.000000 -1000.000000 562.500000 128 128 255 0.697097 -0.506979 -0.506979
0.000000 1000.000000 562.500000 128 128 255 0.000000 0.000000 0.000000
-1000.000000 -1000.000000 562.500000 128 128 255 -0.970107 0.242678 0.000000
-0.500000 0.000000 0.281250 128 128 255 0.707285 -0.706929 -0.000002
-2.285714 -2.285714 -2.285714 128 128 255 0.414830 -0.817393 0.399732
-2.285714 0.000000 2.285714 128 128 255 -0.704027 -0.710135 -0.007407
1000.000000 -1000.000000 562.500000 128 128 255 -0.303660 -0.889687 -0.340951
0.500000 0.000000 0.281250 128 128 255 0.707285 0.706929 0.000002
2.285714 -2.285714 -2.285714 128 128 255 0.414830 0.817393 -0.399732
2.285714 0.000000 2.285714 128 128 255 -0.704027 0.710135 0.007407
-1000.000000 -1000.000000 562.500000 128 128 255 -0.393576 0.848084 0.354755
0.000000 -0.500000 0.281250 128 128 255 0.706929 -0.707285 0.000002
-2.285714 -2.285714 -2.285714 128 128 255 0.817393 -0.414830 -0.399732
0.000000 -2.285714 2.285714 128 128 255 0.710135 0.704027 0.007407
-1000.000000 1000.000000 562.500000 128 128 255 0.889687 0.303660 0.340951
0.000000 0.500000 0.281250 128 128 255 -0.706929 -0.707285 -0.000002
-2.285714 2.285714 -2.285714 128 128 255 -0.817393 -0.414830 0.399732
0.000000 2.285714 2.285714 128 128 255 0.710088 0.007408 -0.704074
-1000.000000 562.500000 -1000.000000 128 128 255 0.889687 0.340951 -0.303660
0.000000 0.281250 -0.500000 128 128 255 -0.706929 -0.000002 0.707285
-2.285714 -2.285714 -2.285714 128 128 255 -0.817393 0.399732 0.414830
0.000000 2.285714 -2.285714 128 128 255 -0.710135 -0.007407 -0.704027
-1000.000000 562.500000 1000.000000 128 128 255 -0.889687 -0.340951 -0.303660
0.000000 0.281250 0.500000 128 128 255 0.706929 0.000002 0.707285
-2.285714 -2.285714 2.285714 128 128 255 0.817393 -0.399732 0.414830
0.000000 2.285714 2.285714 128 128 255 0.856271 -0.366863 0.363609
-0.500000 0.281250 0.500000 128 128 255 0.175628 0.624457 -0.761057
-0.500000 0.312500 0.500000 128 128 255 0.894427 0.000000 0.447214
0.000000 0.312500 -0.500000 128 128 255 0.600665 0.565332 0.565332
-0.500000 -0.500000 0.312500 128 128 255 0.643053 -0.541518 -0.541518
0.000000 0.500000 0.312500 128 128 255 -0.706764 0.000707 -0.707450
-1000.000000 625.000000 1000.000000 128 128 255 0.970155 0.000121 0.242484
0.000000 625.000000 -1000.000000 128 128 255 0.600665 0.565332 0.565332
-1000.000000 -1000.000000 625.000000 128 128 255 0.643053 -0.541518 -0.541518
0.000000 1000.000000 625.000000 128 128 255 0.000000 0.000000 0.000000
-1000.000000 -1000.000000 625.000000 128 128 255 -0.970107 0.242678 0.000000
-0.500000 0.000000 0.312500 128 128 255 0.707285 -0.706929 -0.000003
-2.666667 -2.666667 -2.666667 128 128 255 0.413121 -0.817040 0.402214
-2.666667 0.000000 2.666667 128 128 255 -0.702728 -0.711387 -0.010096
1000.000000 -1000.000000 625.000000 128 128 255 -0.320747 -0.880360 -0.349409
0.500000 0.000000 0.312500 128 128 255 0.707285 0.706929 0.000003
2.666667 -2.666667 -2.666667 128 128 255 0.413121 0.817040 -0.402214
2.666667 0.000000 2.666667 128 128 255 -0.702728 0.711387 0.010096
-1000.000000 -1000.000000 625.000000 128 128 255 -0.389470 0.847800 0.359929
0.000000 -0.500000 0.312500 128 128 255 0.706929 -0.707285 0.000003
-2.666667 -2.666667 -2.666667 128 128 255 0.817040 -0.413121 -0.402214
0.000000 -2.666667 2.666667 128 128 255 0.711387 0.702728 0.010096
-1000.000000 1000.000000 625.000000 128 128 255 0.880360 0.320747 0.349409
0.000000 0.500000 0.312500 128 128 255 -0.706929 -0.707285 -0.000003
-2.666667 2.666667 -2.666667 128 128 255 -0.817040 -0.413121 0.402214
0.000000 2.666667 2.666667 128 128 255 0.711315 0.010097 -0.702801
-1000.000000 625.000000 -1000.000000 128 128 255 0.880360 0.349409 -0.320747
0.000000 0.312500 -0.500000 128 128 255 -0.706929 -0.000003 0.707285
-2.666667 -2.666667 -2.666667 128 128 255 -0.817040 0.402214 0.413121
0.000000 2.666667 -2.666667 128 128 255 -0.711387 -0.010096 -0.702728
-1000.000000 625.000000 1000.000000 128 128 255 -0.880360 -0.349409 -0.320747
0.000000 0.312500 0.500000 128 128 255 0.706929 0.000003 0.707285
-2.666667 -2.666667 2.666667 128 128 255 0.817040 -0.402214 0.413121
0.000000 2.666667 2.666667 128 128 255 0.851482 -0.371813 0.369775
-0.500000 0.312500 0.500000 128 128 255 0.175417 0.641525 -0.746776
-0.500000 0.343750 0.500000 128 128 255 0.894427 0.000000 0.447214
0.000000 0.343750 -0.500000 128 128 255 0.526152 0.601317 0.601317
-0.500000 -0.500000 0.343750 128 128 255 0.577350 -0.577350 -0.577350
0.000000 0.500000 0.343750 128 128 255 -0.706730 0.000707 -0.707483
-1000.000000 687.500000 1000.000000 128 128 255 0.970157 0.000121 0.242479
0.000000 687.500000 -1000.000000 128 128 255 0.526152 0.601317 0.601317
-1000.000000 -1000.000000 687.500000 128 128 255 0.577350 -0.577350 -0.577350
0.000000 1000.000000 687.500000 128 128 255 0.000000 0.000000 0.000000
-1000.000000 -1000.000000 687.500000 128 128 255 -0.970107 0.242678 0.000000
-0.500000 0.000000 0.343750 128 128 255 0.707286 -0.706928 -0.000005
-3.200000 -3.200000 -3.200000 128 128 255 0.411648 -0.816795 0.404218
-3.200000 0.000000 3.200000 128 128 255 -0.700506 -0.713498 -0.014571
1000.000000 -1000.000000 687.500000 128 128 255 -0.336887 -0.870888 -0.357856
0.500000 0.000000 0.343750 128 128 255 0.707286 0.706928 0.000005
3.200000 -3.200000 -3.200000 128 128 255 0.411648 0.816795 -0.404218
3.200000 0.000000 3.200000 128 128 255 -0.700506 0.713498 0.014571
-1000.000000 -1000.000000 687.500000 128 128 255 -0.386904 0.846599 0.365479
0.000000 -0.500000 0.343750 128 128 255 0.706928 -0.707286 0.000005
-3.200000 -3.200000 -3.200000 128 128 255 0.816795 -0.411648 -0.404218
0.000000 -3.200000 3.200000 128 128 255 0.713498 0.700506 0.014571
-1000.000000 1000.000000 687.500000 128 128 255 0.870888 0.336887 0.357856
0.000000 0.500000 0.343750 128 128 255 -0.706928 -0.707286 -0.000005
-3.200000 3.200000 -3.200000 128 128 255 -0.816795 -0.411648 0.404218
0.000000 3.200000 3.200000 128 128 255 0.713375 0.014573 -0.700631
-1000.000000 687.500000 -1000.000000 128 128 255 0.870888 0.357856 -0.336887
0.000000 0.343750 -0.500000 128 128 255 -0.706928 -0.000005 0.707286
-3.200000 -3.200000 -3.200000 128 128 255 -0.816795 0.404218 0.411648
0.000000 3.200000 -3.200000 128 128 255 -0.713498 -0.014571 -0.700506
-1000.000000 687.500000 1000.000000 128 128 255 -0.870888 -0.357856 -0.336887
0.000000 0.343750 0.500000 128 128 255 0.706928 0.000005 0.707286
-3.200000 -3.200000 3.200000 128 128 255 0.816795 -0.404218 0.411648
0.000000 3.200000 3.200000 128 128 255 0.846572 -0.376961 0.375788
-0.500000 0.343750 0.500000 128 128 255 0.169460 0.657301 -0.734329
-0.500000 0.375000 0.500000 128 128 255 0.894427 0.000000 0.447214
0.000000 0.375000 -0.500000 128 128 255 0.437211 0.635943 0.635943
-0.500000 -0.500000 0.375000 128 128 255 0.498161 -0.613121 -0.613121
0.000000 0.500000 0.375000 128 128 255 -0.706697 0.000707 -0.707516
-1000.000000 750.000000 1000.000000 128 128 255 0.970158 0.000121 0.242473
0.000000 750.000000 -1000.000000 128 128 255 0.437211 0.635943 0.635943
-1000.000000 -1000.000000 750.000000 128 128 255 0.498161 -0.613121 -0.613121
0.000000 1000.000000 750.000000 128 128 255 0.000000 0.000000 0.000000
-1000.000000 -1000.000000 750.000000 128 128 255 -0.970107 0.242678 0.000000
-0.500000 0.000000 0.375000 128 128 255 0.707287 -0.706926 -0.000008
-4.000000 -4.000000 -4.000000 128 128 255 0.410421 -0.816637 0.405781
-4.000000 0.000000 4.000000 128 128 255 -0.696248 -0.717437 -0.022865
1000.000000 -1000.000000 750.000000 128 128 255 -0.351981 -0.861360 -0.366290
0.500000 0.000000 0.375000 128 128 255 0.707287 0.706926 0.000008
4.000000 -4.000000 -4.000000 128 128 255 0.410421 0.816637 -0.405781
4.000000 0.000000 4.000000 128 128 255 -0.696248 0.717437 0.022865
-1000.000000 -1000.000000 750.000000 128 128 255 -0.385953 0.844438 0.371437
0.000000 -0.500000 0.375000 128 128 255 0.706926 -0.707287 0.000008
-4.000000 -4.000000 -4.000000 128 128 255 0.816637 -0.410421 -0.405781
0.000000 -4.000000 4.000000 128 128 255 0.717437 0.696248 0.022865
-1000.000000 1000.000000 750.000000 128 128 255 0.861360 0.351981 0.366290
0.000000 0.500000 0.375000 128 128 255 -0.706926 -0.707287 -0.000008
-4.000000 4.000000 -4.000000 128 128 255 -0.816637 -0.410421 0.405781
0.000000 4.000000 4.000000 128 128 255 0.717205 0.022873 -0.696487
-1000.000000 750.000000 -1000.000000 128 128 255 0.861360 0.366290 -0.351981
0.000000 0.375000 -0.500000 128 128 255 -0.706926 -0.000008 0.707287
-4.000000 -4.000000 -4.000000 128 128 255 -0.816637 0.405781 0.410421
0.000000 4.000000 -4.000000 128 128 255 -0.717437 -0.022865 -0.696248
-1000.000000 750.000000 1000.000000 128 128 255 -0.861360 -0.366290 -0.351981
0.000000 0.375000 0.500000 128 128 255 0.706926 0.000008 0.707287
-4.000000 -4.000000 4.000000 128 128 255 0.816637 -0.405781 0.410421
0.000000 4.000000 4.000000 128 128 255 0.841520 -0.382295 0.381699
-0.500000 0.375000 0.500000 128 128 255 0.157398 0.671567 -0.724033
-0.500000 0.406250 0.500000 128 128 255 0.894427 0.000000 0.447214
0.000000 0.406250 -0.500000 128 128 255 0.333333 0.666667 0.666667
-0.500000 -0.500000 0.406250 128 128 255 0.404226 -0.646762 -0.646762
0.000000 0.500000 0.406250 128 128 255 -0.706664 0.000707 -0.707549
-1000.000000 812.500000 1000.000000 128 128 255 0.970159 0.000121 0.242468
0.000000 812.500000 -1000.000000 128 128 255 0.333333 0.666667 0.666667
-1000.000000 -1000.000000 812.500000 128 128 255 0.404226 -0.646762 -0.646762
0.000000 1000.000000 812.500000 128 128 255 0.000000 0.000000 0.000000
-1000.000000 -1000.000000 812.500000 128 128 255 -0.970107 0.242678 0.000000
-0.500000 0.000000 0.406250 128 128 255 0.707291 -0.706923 -0.000015
-5.333333 -5.333333 -5.333333 128 128 255 0.409446 -0.816547 0.406945
-5.333333 0.000000 5.333333 128 128 255 -0.686459 -0.726010 -0.041032
1000.000000 -1000.000000 812.500000 128 128 255 -0.365924 -0.851877 -0.374707
0.500000 0.000000 0.406250 128 128 255 0.707291 0.706923 0.000015
5.333333 -5.333333 -5.333333 128 128 255 0.409446 0.816547 -0.406945
5.333333 0.000000 5.333333 128 128 255 -0.686459 0.726010 0.041032
-1000.000000 -1000.000000 812.500000 128 128 255 -0.386688 0.841259 0.377829
0.000000 -0.500000 0.406250 128 128 255 0.706923 -0.707291 0.000015
-5.333333 -5.333333 -5.333333 128 128 255 0.816547 -0.409446 -0.406945
0.000000 -5.333333 5.333333 128 128 255 0.726010 0.686459 0.041032
-1000.000000 1000.000000 812.500000 128 128 255 0.851877 0.365924 0.374707
0.000000 0.500000 0.406250 128 128 255 -0.706923 -0.707291 -0.000015
-5.333333 5.333333 -5.333333 128 128 255 -0.816547 -0.409446 0.406945
0.000000 5.333333 5.333333 128 128 255 0.725489 0.041065 -0.687008
-1000.000000 812.500000 -1000.000000 128 128 255 0.851877 0.374707 -0.365924
0.000000 0.406250 -0.500000 128 128 255 -0.706923 -0.000015 0.707291
-5.333333 -5.333333 -5.333333 128 128 255 -0.816547 0.406945 0.409446
0.000000 5.333333 -5.333333 128 128 255 -0.726010 -0.041032 -0.686459
-1000.000000 812.500000 1000.000000 128 128 255 -0.851877 -0.374707 -0.365924
0.000000 0.406250 0.500000 128 128 255 0.706923 0.000015 0.707291
-5.333333 -5.333333 5.333333 128 128 255 0.816547 -0.406945 0.409446
0.000000 5.333333 5.333333 128 128 255 0.836299 -0.387811 0.387565
-0.500000 0.406250 0.500000 128 128 255 0.138944 0.684032 -0.716096
-0.500000 0.437500 0.500000 128 128 255 0.894427 0.000000 0.447214
0.000000 0.437500 -0.500000 128 128 255 0.215766 0.690451 0.690451
-0.500000 -0.500000 0.437500 128 128 255 0.295540 -0.675521 -0.675521
0.000000 0.500000 0.437500 128 128 255 -0.706631 0.000707 -0.707582
-1000.000000 875.000000 1000.000000 128 128 255 0.970161 0.000121 0.242463
0.000000 875.000000 -1000.000000 128 128 255 0.215766 0.690451 0.690451
-1000.000000 -1000.000000 875.000000 128 128 255 0.295540 -0.675521 -0.675521
0.000000 1000.000000 875.000000 128 128 255 0.000000 0.000000 0.000000
-1000.000000 -1000.000000 875.000000 128 128 255 -0.970107 0.242678 0.000000
-0.500000 0.000000 0.437500 128 128 255 0.707306 -0.706907 -0.000045
-8.000000 -8.000000 -8.000000 128 128 255 0.408728 -0.816507 0.407748
-8.000000 0.000000 8.000000 128 128 255 -0.654685 -0.749948 -0.094682
1000.000000 -1000.000000 875.000000 128 128 255 -0.378619 -0.842541 -0.383109
0.500000 0.000000 0.437500 128 128 255 0.707306 0.706907 0.000045
8.000000 -8.000000 -8.000000 128 128 255 0.408728 0.816507 -0.407748
8.000000 0.000000 8.000000 128 128 255 -0.654685 0.749948 0.094682
-1000.000000 -1000.000000 875.000000 128 128 255 -0.389194 0.836987 0.384684
0.000000 -0.500000 0.437500 128 128 255 0.706907 -0.707306 0.000045
-8.000000 -8.000000 -8.000000 128 128 255 0.816507 -0.408728 -0.407748
0.000000 -8.000000 8.000000 128 128 255 0.749948 0.654685 0.094682
-1000.000000 1000.000000 875.000000 128 128 255 0.842541 0.378619 0.383109
0.000000 0.500000 0.437500 128 128 255 -0.706907 -0.707306 -0.000045
-8.000000 8.000000 -8.000000 128 128 255 -0.816507 -0.408728 0.407748
0.000000 8.000000 8.000000 128 128 255 0.748381 0.094936 -0.656440
-1000.000000 875.000000 -1000.000000 128 128 255 0.842541 0.383109 -0.378619
0.000000 0.437500 -0.500000 128 128 255 -0.706907 -0.000045 0.707306
-8.000000 -8.000000 -8.000000 128 128 255 -0.816507 0.407748 0.408728
0.000000 8.000000 -8.000000 128 128 255 -0.749948 -0.094682 -0.654685
-1000.000000 875.000000 1000.000000 128 128 255 -0.842541 -0.383109 -0.378619
0.000000 0.437500 0.500000 128 128 255 0.706907 0.000045 0.707306
-8.000000 -8.000000 8.000000 128 128 255 0.816507 -0.407748 0.408728
0.000000 8.000000 8.000000 128 128 255 0.830853 -0.393532 0.393467
-0.500000 0.437500 0.500000 128 128 255 0.113912 0.694320 -0.710594
-0.500000 0.468750 0.500000 128 128 255 0.894427 0.000000 0.447214
0.000000 0.468750 -0.500000 128 128 255 0.088045 0.704361 0.704361
-0.500000 -0.500000 0.468750 128 128 255 0.174078 -0.696311 -0.696311
0.000000 0.500000 0.468750 128 128 255 -0.706597 0.000707 -0.707615
-1000.000000 937.500000 1000.000000 128 128 255 0.970162 0.000121 0.242457
0.000000 937.500000 -1000.000000 128 128 255 0.088045 0.704361 0.704361
-1000.000000 -1000.000000 937.500000 128 128 255 0.174078 -0.696311 -0.696311
0.000000 1000.000000 937.500000 128 128 255 0.000000 0.000000 0.000000
-1000.000000 -1000.000000 937.500000 128 128 255 -0.970107 0.242678 0.000000
-0.500000 0.000000 0.468750 128 128 255 0.710082 -0.704096 -0.005629
-16.000000 -16.000000 -16.000000 128 128 255 0.408255 -0.816497 0.408242
-16.000000 0.000000 16.000000 128 128 255 -0.412043 -0.824779 -0.387247
1000.000000 -1000.000000 937.500000 128 128 255 -0.389967 -0.833460 -0.391497
0.500000 0.000000 0.468750 128 128 255 0.710082 0.704096 0.005629
16.000000 -16.000000 -16.000000 128 128 255 0.408255 0.816497 -0.408242
16.000000 0.000000 16.000000 128 128 255 -0.412043 0.824779 0.387247
-1000.000000 -1000.000000 937.500000 128 128 255 -0.393557 0.831522 0.392025
0.000000 -0.500000 0.468750 128 128 255 0.704096 -0.710082 0.005629
-16.000000 -16.000000 -16.000000 128 128 255 0.816497 -0.408255 -0.408242
0.000000 -16.000000 16.000000 128 128 255 0.824779 0.412043 0.387247
-1000.000000 1000.000000 937.500000 128 128 255 0.833460 0.389967 0.391497
0.000000 0.500000 0.468750 128 128 255 -0.704096 -0.710082 -0.005629
-16.000000 16.000000 -16.000000 128 128 255 -0.816497 -0.408255 0.408242
0.000000 16.000000 16.000000 128 128 255 0.816433 0.395454 -0.420776
-1000.000000 937.500000 -1000.000000 128 128 255 0.833460 0.391497 -0.389967
0.000000 0.468750 -0.500000 128 128 255 -0.704096 -0.005629 0.710082
-16.000000 -16.000000 -16.000000 128 128 255 -0.816497 0.408242 0.408255
0.000000 16.000000 -16.000000 128 128 255 -0.824779 -0.387247 -0.412043
-1000.000000 937.500000 1000.000000 128 128 255 -0.833460 -0.391497 -0.389967
0.000000 0.468750 0.500000 128 128 255 0.704096 0.005629 0.710082
-16.000000 -16.000000 16.000000 128 128 255 0.816497 -0.408242 0.408255
0.000000 16.000000 16.000000 128 128 255 0.824968 -0.399643 0.399642
-0.500000 0.468750 0.500000 128 128 255 0.082261 0.701963 -0.707447
-0.500000 0.500000 0.500000 128 128 255 0.894427 0.000000 0.447214
0.000000 0.500000 -0.500000 128 128 255 0.894427 0.000000 0.447214
-0.500000 -0.500000 0.500000 128 128 255 -0.888621 0.000000 -0.458643
0.000000 0.500000 0.500000 128 128 255 0.707990 0.706223 0.000000
-1000.000000 1000.000000 1000.000000 128 128 255 1.000000 0.000500 0.000000
0.000000 1000.000000 -1000.000000 128 128 255 0.894427 0.000000 0.447214
-1000.000000 -1000.000000 1000.000000 128 128 255 -0.888621 0.000000 -0.458643
