ply
format ascii 1.0
element vertex 692
property float x
property float y
property float z
property uchar red
property uchar green
property uchar blue
property float nx
property float ny
property float nz
end_header
-2.632051 2.832051 -44.844887 128 128 255 -0.907226 -0.420571 0.007867
-0.642538 -1.454753 0.654753 128 128 255 -0.999046 -0.007971 0.042933
-0.644645 -1.498782 0.667990 128 128 255 -0.788675 0.211325 0.577350
-0.700520 -1.367761 0.543707 128 128 255 -0.788675 0.211325 0.577350
-0.752248 -1.246464 0.428648 128 128 255 -0.788675 0.211325 0.577350
-0.800274 -1.133847 0.321822 128 128 255 -0.788676 0.211324 0.577350
-0.844982 -1.029011 0.222377 128 128 255 -0.788676 0.211324 0.577349
-0.886705 -0.931176 0.129573 128 128 255 -0.725155 0.576777 0.376136
-0.682380 -0.228112 -0.598129 128 128 255 -0.859602 0.426335 0.281645
-0.735437 -0.148116 -0.671728 128 128 255 -0.684550 -0.684551 -0.250563
-0.784652 -0.073914 -0.739996 128 128 255 -0.684550 -0.684550 -0.250563
-0.830427 -0.004897 -0.803492 128 128 255 -0.684550 -0.684550 -0.250563
-0.873110 0.059458 -0.862700 128 128 255 -0.793728 0.425885 0.434301
-0.247516 -0.062066 0.339092 128 128 255 -0.769501 0.474072 0.427930
-0.280170 -0.027361 0.287892 128 128 255 0.595301 -0.435791 -0.675057
-0.311688 0.006139 0.238471 128 128 255 0.595301 -0.435791 -0.675057
-0.342131 0.038495 0.190738 128 128 255 0.595302 -0.435791 -0.675057
-0.371551 0.069764 0.144607 128 128 255 0.735802 0.141973 0.662147
0.569131 -1.498782 -0.545786 128 128 255 0.634864 -0.076201 0.768857
0.466479 -1.367761 -0.623293 128 128 255 -0.684550 -0.684550 -0.250563
0.371446 -1.246464 -0.695047 128 128 255 -0.684550 -0.684550 -0.250563
0.283213 -1.133847 -0.761666 128 128 255 -0.684551 -0.684550 -0.250562
0.201077 -1.029011 -0.823683 128 128 255 -0.684551 -0.684550 -0.250562
0.124425 -0.931176 -0.881558 128 128 255 -0.347831 0.896445 -0.274591
0.283213 -0.592103 0.321822 128 128 255 -0.196643 0.931176 -0.306990
0.241423 -0.548285 0.271225 128 128 255 -0.000001 -0.755929 -0.654654
0.201077 -0.505981 0.222377 128 128 255 0.000000 -0.755929 -0.654654
0.162100 -0.465114 0.175187 128 128 255 0.000001 -0.755929 -0.654654
0.124425 -0.425611 0.129573 128 128 255 -0.104390 -0.655324 -0.748100
0.297478 -0.062066 -0.205902 128 128 255 -0.051782 -0.681474 -0.730008
0.255189 -0.027361 -0.247467 128 128 255 0.044658 -0.744017 -0.666667
0.214370 0.006139 -0.287587 128 128 255 0.044658 -0.744017 -0.666667
0.174945 0.038495 -0.326338 128 128 255 0.044658 -0.744017 -0.666667
0.136843 0.069764 -0.363787 128 128 255 -0.790536 0.000450 -0.612415
-0.644645 0.928771 0.667990 128 128 255 -0.675765 0.057132 -0.734899
-0.700520 0.966238 0.543707 128 128 255 0.918007 0.081993 -0.387995
-0.752248 1.000924 0.428648 128 128 255 0.918007 0.081993 -0.387995
-0.800274 1.033128 0.321822 128 128 255 0.918007 0.081993 -0.387995
-0.844982 1.063108 0.222377 128 128 255 0.918007 0.081993 -0.387996
-0.886705 1.091085 0.129573 128 128 255 -0.982466 -0.183533 -0.032794
-0.682380 -0.228112 1.766243 128 128 255 -0.989914 -0.139099 -0.026856
-0.735437 -0.148116 1.603808 128 128 255 0.903504 0.419318 -0.088612
-0.784652 -0.073914 1.453137 128 128 255 0.903504 0.419318 -0.088612
-0.830427 -0.004897 1.312998 128 128 255 0.903504 0.419318 -0.088612
-0.873110 0.059458 1.182322 128 128 255 -0.649869 0.288939 -0.702982
3.961810 1.900974 -2.556936 128 128 255 -0.384461 -0.327921 -0.862936
5.475886 1.900974 -2.556936 128 128 255 0.000000 -0.755929 -0.654654
7.999346 1.900974 -2.556936 128 128 255 0.000000 -0.755929 -0.654654
13.046267 1.900974 -2.556936 128 128 255 0.000000 -0.755929 -0.654654
28.187025 1.900974 -2.556936 128 128 255 0.007728 -0.791263 -0.611428
0.569131 -1.498782 1.881767 128 128 255 0.024967 -0.860720 -0.508465
0.466479 -1.367761 1.710706 128 128 255 0.508590 -0.508590 -0.694747
0.371446 -1.246464 1.552342 128 128 255 0.508590 -0.508589 -0.694747
0.283213 -1.133847 1.405310 128 128 255 0.508589 -0.508590 -0.694747
0.201077 -1.029011 1.268436 128 128 255 0.508589 -0.508591 -0.694747
0.124425 -0.931176 1.140703 128 128 255 -0.643336 0.144772 0.751771
-2.094494 8.389872 -2.556936 128 128 255 0.448197 0.347465 0.823643
-2.094494 10.159571 -2.556936 128 128 255 0.894427 0.000000 -0.447214
-2.094494 13.256544 -2.556936 128 128 255 0.894427 0.000000 -0.447214
-2.094494 20.069885 -2.556936 128 128 255 0.894427 0.000000 -0.447214
-2.094494 47.323254 -2.556936 128 128 255 0.998818 0.033751 0.034989
-2.094494 1.900974 3.499368 128 128 255 0.915857 0.062096 0.396674
-2.094494 1.900974 5.013443 128 128 255 0.866025 0.500000 0.000000
-2.094494 1.900974 7.536903 128 128 255 0.866025 0.500000 0.000000
-2.094494 1.900974 12.583823 128 128 255 0.866025 0.500000 0.000000
-2.094494 1.900974 27.724583 128 128 255 0.676306 0.735879 -0.033045
1.782907 -1.498782 0.667990 128 128 255 0.338211 0.938344 -0.071581
1.633479 -1.367761 0.543707 128 128 255 -0.211325 -0.788675 -0.577350
1.495140 -1.246464 0.428648 128 128 255 -0.211325 -0.788675 -0.577350
1.366701 -1.133847 0.321822 128 128 255 -0.211325 -0.788675 -0.577350
1.247136 -1.029011 0.222377 128 128 255 -0.211325 -0.788675 -0.577350
1.135556 -0.931176 0.129573 128 128 255 -0.236199 -0.613074 -0.753890
1.681992 -0.228112 -0.598129 128 128 255 -0.202084 -0.654901 -0.728194
1.540098 -0.148116 -0.671728 128 128 255 -0.120583 -0.779458 -0.614739
1.408481 -0.073914 -0.739996 128 128 255 -0.120583 -0.779458 -0.614740
1.286063 -0.004897 -0.803492 128 128 255 -0.120583 -0.779458 -0.614739
1.171912 0.059458 -0.862700 128 128 255 -0.504283 0.854317 -0.125859
0.842472 -0.062066 0.339092 128 128 255 -0.425646 0.900793 -0.086010
0.790548 -0.027361 0.287892 128 128 255 0.244864 -0.668982 -0.701787
0.740428 0.006139 0.238471 128 128 255 0.244864 -0.668982 -0.701787
0.692020 0.038495 0.190738 128 128 255 0.244864 -0.668982 -0.701787
0.645238 0.069764 0.144607 128 128 255 0.179477 -0.608097 -0.773308
0.569131 0.928771 -0.545786 128 128 255 0.210065 -0.615114 -0.759940
0.466479 0.966238 -0.623293 128 128 255 0.298264 -0.642670 -0.705701
0.371446 1.000924 -0.695047 128 128 255 0.298264 -0.642670 -0.705701
0.283213 1.033128 -0.761666 128 128 255 0.298264 -0.642670 -0.705701
0.201077 1.063108 -0.823683 128 128 255 0.298264 -0.642670 -0.705701
0.124425 1.091085 -0.881558 128 128 255 -0.768656 0.540294 0.342418
0.283213 0.491384 0.321822 128 128 255 -0.741911 0.570465 0.352332
0.241423 0.516159 0.271225 128 128 255 0.549442 -0.475831 -0.686803
0.201077 0.540078 0.222377 128 128 255 0.549442 -0.475831 -0.686803
0.162100 0.563185 0.175187 128 128 255 0.549442 -0.475831 -0.686803
0.124425 0.585520 0.129573 128 128 255 -0.655758 0.495277 0.569808
0.297478 -0.062066 0.884086 128 128 255 -0.648824 0.508250 0.566312
0.255189 -0.027361 0.823251 128 128 255 0.622008 -0.410684 -0.666667
0.214370 0.006139 0.764529 128 128 255 0.622009 -0.410683 -0.666667
0.174945 0.038495 0.707813 128 128 255 0.622009 -0.410683 -0.666667
0.136843 0.069764 0.653002 128 128 255 0.135188 -0.256041 0.957166
1.782907 0.928771 0.667990 128 128 255 0.533945 -0.794501 0.289259
1.633479 0.966238 0.543707 128 128 255 0.445629 -0.554370 -0.702914
1.495140 1.000924 0.428648 128 128 255 0.445629 -0.554371 -0.702914
1.366701 1.033128 0.321822 128 128 255 0.445629 -0.554371 -0.702914
1.247136 1.063108 0.222377 128 128 255 0.445630 -0.554370 -0.702914
1.135556 1.091085 0.129573 128 128 255 -0.497938 0.587837 0.637578
1.681992 -0.228112 1.766243 128 128 255 -0.492921 0.596771 0.633161
1.540098 -0.148116 1.603808 128 128 255 0.508590 -0.508590 -0.694747
1.408481 -0.073914 1.453137 128 128 255 0.508590 -0.508590 -0.694747
1.286063 -0.004897 1.312998 128 128 255 0.508590 -0.508590 -0.694747
1.171912 0.059458 1.182322 128 128 255 -0.365402 0.033356 0.930252
-8.150798 1.900974 -2.556936 128 128 255 -0.244830 0.340029 0.907986
-9.664873 1.900974 -2.556936 128 128 255 0.000000 0.755929 0.654654
-12.188334 1.900974 -2.556936 128 128 255 0.000000 0.755929 0.654654
-17.235252 1.900974 -2.556936 128 128 255 0.000000 0.755929 0.654654
-32.376015 1.900974 -2.556936 128 128 255 0.063176 0.981085 0.182977
0.569131 0.928771 1.881767 128 128 255 0.125068 0.628314 -0.767841
0.466479 0.966238 1.710706 128 128 255 0.837456 -0.129555 -0.530926
0.371446 1.000924 1.552342 128 128 255 0.837456 -0.129555 -0.530926
0.283213 1.033128 1.405310 128 128 255 0.837456 -0.129555 -0.530926
0.201077 1.063108 1.268436 128 128 255 0.837456 -0.129555 -0.530926
0.124425 1.091085 1.140703 128 128 255 -0.945887 0.313173 0.084973
-2.094494 -4.587923 -2.556936 128 128 255 -0.937433 0.107086 0.331289
-2.094494 -6.357622 -2.556936 128 128 255 -0.894427 0.000000 0.447214
-2.094494 -9.454596 -2.556936 128 128 255 -0.894427 0.000000 0.447214
-2.094494 -16.267937 -2.556936 128 128 255 -0.894427 0.000000 0.447214
-2.094494 -43.521305 -2.556936 128 128 255 0.998870 -0.032992 -0.034202
-2.094494 1.900974 -8.613240 128 128 255 0.984942 -0.026738 -0.170802
-2.094494 1.900974 -10.127316 128 128 255 -0.866025 -0.500000 0.000000
-2.094494 1.900974 -12.650776 128 128 255 -0.866025 -0.500000 0.000000
-2.094494 1.900974 -17.697697 128 128 255 -0.866025 -0.500000 0.000000
-2.094494 1.900974 -32.838455 128 128 255 -0.923221 -0.384092 0.011669
-0.644645 -1.498782 0.667990 128 128 255 -0.997832 0.045279 0.047771
-0.650159 -1.540593 0.675763 128 128 255 -0.788675 0.211325 0.577350
-0.707265 -1.394173 0.544161 128 128 255 -0.788675 0.211325 0.577350
-0.758875 -1.261843 0.425224 128 128 255 -0.788675 0.211325 0.577350
-0.805748 -1.141663 0.317206 128 128 255 -0.788675 0.211325 0.577350
-0.848505 -1.032032 0.218670 128 128 255 -0.788677 0.211323 0.577349
-0.887668 -0.931620 0.128420 128 128 255 -0.654984 0.620114 0.431803
-0.688882 -0.201379 -0.653403 128 128 255 -0.797896 0.488011 0.353847
-0.742233 -0.125219 -0.715719 128 128 255 -0.684551 -0.684550 -0.250562
-0.790609 -0.056159 -0.772226 128 128 255 -0.684550 -0.684550 -0.250563
-0.834676 0.006748 -0.823698 128 128 255 -0.684551 -0.684550 -0.250562
-0.874985 0.064290 -0.870781 128 128 255 -0.810085 0.386637 0.440765
-0.240412 -0.045271 0.334515 128 128 255 -0.791243 0.428841 0.435924
-0.275216 -0.013589 0.283370 128 128 255 0.595302 -0.435791 -0.675057
-0.308481 0.016691 0.234487 128 128 255 0.595302 -0.435791 -0.675057
-0.340307 0.045662 0.187719 128 128 255 0.595302 -0.435791 -0.675057
-0.370785 0.073406 0.142931 128 128 255 0.784689 0.210249 0.583146
0.633776 -1.540593 -0.608172 128 128 255 0.728477 0.022811 0.684690
0.511772 -1.394173 -0.674875 128 128 255 -0.684550 -0.684550 -0.250563
0.401507 -1.261843 -0.735159 128 128 255 -0.684550 -0.684550 -0.250563
0.301366 -1.141663 -0.789908 128 128 255 -0.684550 -0.684550 -0.250562
0.210016 -1.032032 -0.839852 128 128 255 -0.684551 -0.684550 -0.250561
0.126348 -0.931620 -0.885595 128 128 255 -0.498561 0.834066 -0.236159
0.301366 -0.588106 0.317206 128 128 255 -0.350679 0.893621 -0.280118
0.254666 -0.544481 0.266832 128 128 255 -0.000001 -0.755929 -0.654653
0.210016 -0.502771 0.218670 128 128 255 -0.000001 -0.755929 -0.654653
0.167283 -0.462853 0.172576 128 128 255 0.000000 -0.755929 -0.654654
0.126348 -0.424613 0.128420 128 128 255 -0.172767 -0.632005 -0.755461
0.317413 -0.045271 -0.223310 128 128 255 -0.083699 -0.675227 -0.732846
0.269998 -0.013589 -0.261844 128 128 255 0.044658 -0.744017 -0.666667
0.224680 0.016691 -0.298674 128 128 255 0.044658 -0.744017 -0.666667
0.181322 0.045662 -0.333910 128 128 255 0.044658 -0.744017 -0.666667
0.139800 0.073406 -0.367655 128 128 255 -0.818249 -0.066330 -0.571025
-0.650159 1.027277 0.675763 128 128 255 -0.715586 -0.020035 -0.698237
-0.707265 1.043899 0.544161 128 128 255 0.918007 0.081993 -0.387995
-0.758875 1.058922 0.425224 128 128 255 0.918007 0.081993 -0.387995
-0.805748 1.072565 0.317206 128 128 255 0.918007 0.081993 -0.387995
-0.848505 1.085011 0.218670 128 128 255 0.918007 0.081993 -0.387995
-0.887668 1.096410 0.128420 128 128 255 -0.976135 -0.210384 -0.053844
-0.688882 -0.201379 1.826453 128 128 255 -0.984767 -0.166110 -0.051396
-0.742233 -0.125219 1.642873 128 128 255 0.903504 0.419318 -0.088612
-0.790609 -0.056159 1.476411 128 128 255 0.903504 0.419318 -0.088612
-0.834676 0.006748 1.324778 128 128 255 0.903504 0.419319 -0.088612
-0.874985 0.064290 1.186077 128 128 255 -0.641774 0.153036 -0.751469
3.043471 1.356126 -1.927799 128 128 255 -0.403919 -0.324443 -0.855328
4.249320 1.356126 -1.927799 128 128 255 0.000000 -0.755929 -0.654654
6.259068 1.356126 -1.927799 128 128 255 0.000000 -0.755929 -0.654654
10.278563 1.356126 -1.927799 128 128 255 0.000000 -0.755929 -0.654654
22.337053 1.356126 -1.927799 128 128 255 0.009907 -0.798978 -0.601278
0.633776 -1.540593 1.959698 128 128 255 0.028281 -0.866376 -0.498592
0.511772 -1.394173 1.763198 128 128 255 0.508590 -0.508590 -0.694747
0.401507 -1.261843 1.585606 128 128 255 0.508589 -0.508590 -0.694747
0.301366 -1.141663 1.424320 128 128 255 0.508588 -0.508591 -0.694747
0.210016 -1.032032 1.277191 128 128 255 0.508588 -0.508591 -0.694747
0.126348 -0.931620 1.142435 128 128 255 -0.603038 0.166536 0.780136
-1.779925 6.524050 -1.927799 128 128 255 0.356083 0.356153 0.863921
-1.779925 7.933484 -1.927799 128 128 255 0.894427 0.000000 -0.447214
-1.779925 10.399993 -1.927799 128 128 255 0.894427 0.000000 -0.447214
-1.779925 15.826313 -1.927799 128 128 255 0.894427 0.000000 -0.447214
-1.779925 37.531593 -1.927799 128 128 255 0.997618 0.036705 0.058397
-1.779925 1.356126 2.895596 128 128 255 0.904846 0.066737 0.420476
-1.779925 1.356126 4.101445 128 128 255 0.866025 0.500000 0.000000
-1.779925 1.356126 6.111193 128 128 255 0.866025 0.500000 0.000000
-1.779925 1.356126 10.130690 128 128 255 0.866025 0.500000 0.000000
-1.779925 1.356126 22.189178 128 128 255 0.633230 0.772889 -0.040773
1.917711 -1.540593 0.675763 128 128 255 0.314557 0.945962 -0.078800
1.730808 -1.394173 0.544161 128 128 255 -0.211325 -0.788675 -0.577350
1.561890 -1.261843 0.425224 128 128 255 -0.211325 -0.788675 -0.577350
1.408480 -1.141663 0.317206 128 128 255 -0.211325 -0.788675 -0.577350
1.268538 -1.032032 0.218670 128 128 255 -0.211326 -0.788676 -0.577349
1.140363 -0.931620 0.128420 128 128 255 -0.262649 -0.596060 -0.758768
1.790974 -0.201379 -0.653403 128 128 255 -0.217198 -0.649758 -0.728450
1.616360 -0.125219 -0.715719 128 128 255 -0.120583 -0.779458 -0.614739
1.458027 -0.056159 -0.772226 128 128 255 -0.120583 -0.779458 -0.614739
1.313800 0.006748 -0.823698 128 128 255 -0.120583 -0.779458 -0.614739
1.181873 0.064290 -0.870781 128 128 255 -0.579933 0.799940 -0.154187
0.875238 -0.045271 0.334515 128 128 255 -0.498685 0.859190 -0.114481
0.815212 -0.013589 0.283370 128 128 255 0.244864 -0.668981 -0.701787
0.757841 0.016691 0.234487 128 128 255 0.244864 -0.668982 -0.701787
0.702951 0.045662 0.187719 128 128 255 0.244864 -0.668982 -0.701787
0.650386 0.073406 0.142931 128 128 255 0.163464 -0.610047 -0.775321
0.633776 1.027277 -0.608172 128 128 255 0.201577 -0.617826 -0.760038
0.511772 1.043899 -0.674875 128 128 255 0.298264 -0.642670 -0.705701
0.401507 1.058922 -0.735159 128 128 255 0.298264 -0.642670 -0.705701
0.301366 1.072565 -0.789908 128 128 255 0.298264 -0.642670 -0.705701
0.210016 1.085011 -0.839852 128 128 255 0.298264 -0.642671 -0.705700
0.126348 1.096410 -0.885595 128 128 255 -0.795857 0.507720 0.329898
0.301366 0.519008 0.317206 128 128 255 -0.770029 0.540101 0.339628
0.254666 0.537792 0.266832 128 128 255 0.549442 -0.475831 -0.686803
0.210016 0.555750 0.218670 128 128 255 0.549442 -0.475831 -0.686803
0.167283 0.572938 0.172576 128 128 255 0.549442 -0.475831 -0.686803
0.126348 0.589403 0.128420 128 128 255 -0.669997 0.483503 0.563319
0.317413 -0.045271 0.892340 128 128 255 -0.663722 0.497130 0.558870
0.269998 -0.013589 0.828584 128 128 255 0.622008 -0.410684 -0.666667
0.224680 0.016691 0.767648 128 128 255 0.622008 -0.410684 -0.666667
0.181322 0.045662 0.709348 128 128 255 0.622008 -0.410684 -0.666667
0.139800 0.073406 0.653517 128 128 255 -0.002444 -0.004296 0.999988
1.917711 1.027277 0.675763 128 128 255 0.485003 -0.661955 0.571478
1.730808 1.043899 0.544161 128 128 255 0.445630 -0.554370 -0.702914
1.561890 1.058922 0.425224 128 128 255 0.445630 -0.554371 -0.702914
1.408480 1.072565 0.317206 128 128 255 0.445629 -0.554371 -0.702914
1.268538 1.085011 0.218670 128 128 255 0.445629 -0.554371 -0.702913
1.140363 1.096410 0.128420 128 128 255 -0.502946 0.584344 0.636858
1.790974 -0.201379 1.826453 128 128 255 -0.498136 0.593950 0.631731
1.616360 -0.125219 1.642873 128 128 255 0.508590 -0.508590 -0.694747
1.458027 -0.056159 1.476411 128 128 255 0.508590 -0.508590 -0.694747
1.313800 0.006748 1.324778 128 128 255 0.508590 -0.508589 -0.694747
1.181873 0.064290 1.186077 128 128 255 -0.352852 0.104953 0.929774
-6.603321 1.356126 -1.927799 128 128 255 -0.253009 0.338814 0.906196
-7.809170 1.356126 -1.927799 128 128 255 0.000000 0.755929 0.654654
-9.818918 1.356126 -1.927799 128 128 255 0.000000 0.755929 0.654654
-13.838414 1.356126 -1.927799 128 128 255 0.000000 0.755929 0.654654
-25.896904 1.356126 -1.927799 128 128 255 0.081873 0.996142 0.031601
0.633776 1.027277 1.959698 128 128 255 0.131996 0.584709 -0.800433
0.511772 1.043899 1.763198 128 128 255 0.837456 -0.129555 -0.530926
0.401507 1.058922 1.585606 128 128 255 0.837456 -0.129555 -0.530926
0.301366 1.072565 1.424320 128 128 255 0.837456 -0.129555 -0.530926
0.210016 1.085011 1.277191 128 128 255 0.837456 -0.129555 -0.530926
0.126348 1.096410 1.142435 128 128 255 -0.949644 0.247106 0.192652
-1.779925 -3.811798 -1.927799 128 128 255 -0.935426 0.110519 0.335803
-1.779925 -5.221232 -1.927799 128 128 255 -0.894427 0.000000 0.447214
-1.779925 -7.687741 -1.927799 128 128 255 -0.894427 0.000000 0.447214
-1.779925 -13.114061 -1.927799 128 128 255 -0.894427 0.000000 0.447214
-1.779925 -34.819340 -1.927799 128 128 255 0.998054 -0.033181 -0.052790
-1.779925 1.356126 -6.751195 128 128 255 0.984056 -0.027880 -0.175657
-1.779925 1.356126 -7.957044 128 128 255 -0.866025 -0.500000 0.000000
-1.779925 1.356126 -9.966792 128 128 255 -0.866025 -0.500000 0.000000
-1.779925 1.356126 -13.986288 128 128 255 -0.866025 -0.500000 0.000000
-1.779925 1.356126 -26.044777 128 128 255 -0.936306 -0.350846 0.015427
-0.650159 -1.540593 0.675763 128 128 255 -0.993329 0.102361 0.053096
-0.659599 -1.579015 0.676930 128 128 255 -0.788675 0.211325 0.577351
-0.716985 -1.416928 0.539211 128 128 255 -0.788675 0.211325 0.577351
-0.767566 -1.274061 0.417823 128 128 255 -0.788675 0.211325 0.577350
-0.812485 -1.147187 0.310024 128 128 255 -0.788675 0.211325 0.577350
-0.852642 -1.033763 0.213652 128 128 255 -0.788675 0.211325 0.577351
-0.888757 -0.931757 0.126983 128 128 255 -0.586991 0.654674 0.476280
-0.698678 -0.168198 -0.717293 128 128 255 -0.735011 0.537952 0.412755
-0.751386 -0.097981 -0.765128 128 128 255 -0.684550 -0.684550 -0.250563
-0.798082 -0.035774 -0.807506 128 128 255 -0.684551 -0.684550 -0.250562
-0.839738 0.019720 -0.845310 128 128 255 -0.684550 -0.684550 -0.250563
-0.877129 0.069532 -0.879244 128 128 255 -0.823233 0.351151 0.446072
-0.234728 -0.026089 0.327145 128 128 255 -0.808395 0.388455 0.442268
-0.271415 0.001900 0.276723 128 128 255 0.595302 -0.435791 -0.675057
-0.306140 0.028392 0.228998 128 128 255 0.595302 -0.435791 -0.675057
-0.339056 0.053505 0.183759 128 128 255 0.595302 -0.435791 -0.675057
-0.370301 0.077342 0.140817 128 128 255 0.816340 0.266788 0.512262
0.699159 -1.579015 -0.681828 128 128 255 0.791830 0.107114 0.601275
0.556134 -1.416928 -0.733908 128 128 255 -0.684550 -0.684550 -0.250563
0.430069 -1.274061 -0.779812 128 128 255 -0.684550 -0.684550 -0.250563
0.318116 -1.147187 -0.820577 128 128 255 -0.684550 -0.684550 -0.250563
0.218031 -1.033763 -0.857021 128 128 255 -0.684550 -0.684550 -0.250563
0.128022 -0.931757 -0.889796 128 128 255 -0.639122 0.745738 -0.188142
0.318116 -0.581886 0.310024 128 128 255 -0.506285 0.827824 -0.241624
0.266711 -0.539020 0.260526 128 128 255 0.000001 -0.755929 -0.654654
0.218031 -0.498426 0.213652 128 128 255 -0.000001 -0.755929 -0.654653
0.171865 -0.459928 0.169199 128 128 255 -0.000001 -0.755929 -0.654653
0.128022 -0.423368 0.126983 128 128 255 -0.309176 -0.572718 -0.759213
0.335896 -0.026089 -0.243479 128 128 255 -0.131890 -0.663875 -0.736122
0.283532 0.001900 -0.278224 128 128 255 0.044658 -0.744017 -0.666667
0.233969 0.028392 -0.311110 128 128 255 0.044658 -0.744017 -0.666667
0.186987 0.053505 -0.342283 128 128 255 0.044658 -0.744017 -0.666667
0.142389 0.077342 -0.371874 128 128 255 -0.840300 -0.124835 -0.527553
-0.659599 1.138501 0.676930 128 128 255 -0.747667 -0.088546 -0.658144
-0.716985 1.129311 0.539211 128 128 255 0.918007 0.081993 -0.387995
-0.767566 1.121210 0.417823 128 128 255 0.918007 0.081993 -0.387995
-0.812485 1.114016 0.310024 128 128 255 0.918007 0.081993 -0.387995
-0.852642 1.107584 0.213652 128 128 255 0.918007 0.081993 -0.387995
-0.888757 1.101801 0.126983 128 128 255 -0.968230 -0.238573 -0.074923
-0.698678 -0.168198 1.883588 128 128 255 -0.977899 -0.194595 -0.076465
-0.751386 -0.097981 1.678436 128 128 255 0.903504 0.419318 -0.088612
-0.798082 -0.035774 1.496687 128 128 255 0.903504 0.419318 -0.088612
-0.839738 0.019720 1.334551 128 128 255 0.903504 0.419318 -0.088612
-0.877129 0.069532 1.189017 128 128 255 -0.625209 0.015989 -0.780294
2.469794 0.992682 -1.508131 128 128 255 -0.410845 -0.347377 -0.842933
3.479765 0.992682 -1.508131 128 128 255 0.000000 -0.755929 -0.654654
5.163051 0.992682 -1.508131 128 128 255 0.000000 -0.755929 -0.654654
8.529621 0.992682 -1.508131 128 128 255 0.000000 -0.755929 -0.654654
18.629333 0.992682 -1.508131 128 128 255 0.012101 -0.805372 -0.592646
0.699159 -1.579015 2.035689 128 128 255 0.032791 -0.870467 -0.491133
0.556134 -1.416928 1.812330 128 128 255 0.508590 -0.508590 -0.694746
0.430069 -1.274061 1.615458 128 128 255 0.508590 -0.508590 -0.694747
0.318116 -1.147187 1.440625 128 128 255 0.508590 -0.508589 -0.694747
0.218031 -1.033763 1.284326 128 128 255 0.508590 -0.508590 -0.694747
0.128022 -0.931757 1.143762 128 128 255 -0.545224 0.196640 0.814901
-1.570091 5.321130 -1.508131 128 128 255 0.408916 0.369003 0.834640
-1.570091 6.501616 -1.508131 128 128 255 0.894427 0.000000 -0.447214
-1.570091 8.567467 -1.508131 128 128 255 0.894427 0.000000 -0.447214
-1.570091 13.112337 -1.508131 128 128 255 0.894427 0.000000 -0.447214
-1.570091 31.291819 -1.508131 128 128 255 0.996241 0.039956 0.076861
-1.570091 0.992682 2.531754 128 128 255 0.888066 0.072734 0.453926
-1.570091 0.992682 3.541725 128 128 255 0.866025 0.500000 0.000000
-1.570091 0.992682 5.225011 128 128 255 0.866025 0.500000 0.000000
-1.570091 0.992682 8.591581 128 128 255 0.866025 0.500000 0.000000
-1.570091 0.992682 18.691294 128 128 255 0.597951 0.800079 -0.048256
2.057917 -1.579015 0.676930 128 128 255 0.295311 0.951153 -0.090002
1.829253 -1.416928 0.539211 128 128 255 -0.211324 -0.788675 -0.577351
1.627704 -1.274061 0.417823 128 128 255 -0.211325 -0.788675 -0.577350
1.448717 -1.147187 0.310024 128 128 255 -0.211324 -0.788675 -0.577351
1.288705 -1.033763 0.213652 128 128 255 -0.211325 -0.788675 -0.577351
1.144801 -0.931757 0.126983 128 128 255 -0.298901 -0.569780 -0.765512
1.902203 -0.168198 -0.717293 128 128 255 -0.235231 -0.642741 -0.729075
1.692178 -0.097981 -0.765128 128 128 255 -0.120583 -0.779458 -0.614739
1.506111 -0.035774 -0.807506 128 128 255 -0.120583 -0.779458 -0.614739
1.340124 0.019720 -0.845310 128 128 255 -0.120583 -0.779458 -0.614739
1.191132 0.069532 -0.879244 128 128 255 -0.658046 0.730453 -0.182795
0.906520 -0.026089 0.327145 128 128 255 -0.576106 0.804590 -0.144004
0.838479 0.001900 0.276723 128 128 255 0.244864 -0.668982 -0.701787
0.774077 0.028392 0.228998 128 128 255 0.244864 -0.668981 -0.701787
0.713029 0.053505 0.183759 128 128 255 0.244864 -0.668982 -0.701787
0.655080 0.077342 0.140817 128 128 255 0.142466 -0.611595 -0.778239
0.699159 1.138501 -0.681828 128 128 255 0.191830 -0.620545 -0.760346
0.556134 1.129311 -0.733908 128 128 255 0.298264 -0.642670 -0.705701
0.430069 1.121210 -0.779812 128 128 255 0.298264 -0.642670 -0.705701
0.318116 1.114016 -0.820577 128 128 255 0.298264 -0.642670 -0.705701
0.218031 1.107584 -0.857021 128 128 255 0.298264 -0.642670 -0.705701
0.128022 1.101801 -0.889796 128 128 255 -0.823263 0.471362 0.316316
0.318116 0.548715 0.310024 128 128 255 -0.798421 0.506272 0.325902
0.266711 0.560802 0.260526 128 128 255 0.549443 -0.475831 -0.686803
0.218031 0.572248 0.213652 128 128 255 0.549442 -0.475831 -0.686803
0.171865 0.583103 0.169199 128 128 255 0.549442 -0.475832 -0.686803
0.128022 0.593411 0.126983 128 128 255 -0.685610 0.469752 0.556122
0.335896 -0.026089 0.897768 128 128 255 -0.680196 0.484054 0.550477
0.283532 0.001900 0.831670 128 128 255 0.622009 -0.410684 -0.666667
0.233969 0.028392 0.769107 128 128 255 0.622009 -0.410683 -0.666667
0.186987 0.053505 0.709802 128 128 255 0.622008 -0.410684 -0.666667
0.142389 0.077342 0.653507 128 128 255 -0.102305 0.173411 0.979521
2.057917 1.138501 0.676930 128 128 255 0.357187 -0.413038 0.837745
1.829253 1.129311 0.539211 128 128 255 0.445629 -0.554371 -0.702914
1.627704 1.121210 0.417823 128 128 255 0.445629 -0.554371 -0.702914
1.448717 1.114016 0.310024 128 128 255 0.445629 -0.554371 -0.702914
1.288705 1.107584 0.213652 128 128 255 0.445629 -0.554370 -0.702914
1.144801 1.101801 0.126983 128 128 255 -0.508293 0.580339 0.636275
1.902203 -0.168198 1.883588 128 128 255 -0.503751 0.590702 0.630323
1.692178 -0.097981 1.678436 128 128 255 0.508590 -0.508589 -0.694747
1.506111 -0.035774 1.496687 128 128 255 0.508590 -0.508590 -0.694747
1.340124 0.019720 1.334551 128 128 255 0.508590 -0.508589 -0.694747
1.191132 0.069532 1.189017 128 128 255 -0.340676 0.173855 0.923966
-5.609976 0.992682 -1.508131 128 128 255 -0.255913 0.353522 0.899739
-6.619947 0.992682 -1.508131 128 128 255 0.000000 0.755929 0.654654
-8.303232 0.992682 -1.508131 128 128 255 0.000000 0.755929 0.654654
-11.669803 0.992682 -1.508131 128 128 255 0.000000 0.755929 0.654654
-21.769516 0.992682 -1.508131 128 128 255 0.099129 0.989984 -0.100522
0.699159 1.138501 2.035689 128 128 255 0.144077 0.547091 -0.824580
0.556134 1.129311 1.812330 128 128 255 0.837456 -0.129555 -0.530926
0.430069 1.121210 1.615458 128 128 255 0.837456 -0.129555 -0.530926
0.318116 1.114016 1.440625 128 128 255 0.837456 -0.129555 -0.530926
0.218031 1.107584 1.284326 128 128 255 0.837456 -0.129555 -0.530926
0.128022 1.101801 1.143762 128 128 255 -0.942977 0.201001 0.265318
-1.570091 -3.335766 -1.508131 128 128 255 -0.931229 0.108633 0.347867
-1.570091 -4.516252 -1.508131 128 128 255 -0.894427 0.000000 0.447214
-1.570091 -6.582102 -1.508131 128 128 255 -0.894427 0.000000 0.447214
-1.570091 -11.126972 -1.508131 128 128 255 -0.894427 0.000000 0.447214
-1.570091 -29.306454 -1.508131 128 128 255 0.997248 -0.034194 -0.065778
-1.570091 0.992682 -5.548016 128 128 255 0.982872 -0.029157 -0.181968
-1.570091 0.992682 -6.557987 128 128 255 -0.866025 -0.500000 0.000000
-1.570091 0.992682 -8.241272 128 128 255 -0.866025 -0.500000 0.000000
-1.570091 0.992682 -11.607843 128 128 255 -0.866025 -0.500000 0.000000
-1.570091 0.992682 -21.707556 128 128 255 -0.947246 -0.319924 0.019341
-0.659599 -1.579015 0.676930 128 128 255 -0.986622 0.152492 0.057650
-0.673498 -1.612635 0.670250 128 128 255 -0.788675 0.211325 0.577350
-0.729921 -1.435113 0.528197 128 128 255 -0.788675 0.211325 0.577350
-0.778391 -1.282614 0.406168 128 128 255 -0.788674 0.211326 0.577351
-0.820478 -1.150196 0.300207 128 128 255 -0.788675 0.211326 0.577351
-0.857366 -1.034138 0.207337 128 128 255 -0.788675 0.211325 0.577350
-0.889962 -0.931583 0.125273 128 128 255 -0.520905 0.682844 0.512232
-0.712089 -0.128202 -0.789924 128 128 255 -0.672251 0.579058 0.461272
-0.763012 -0.066360 -0.819754 128 128 255 -0.684550 -0.684550 -0.250563
-0.807079 -0.012845 -0.845568 128 128 255 -0.684550 -0.684550 -0.250563
-0.845587 0.033920 -0.868126 128 128 255 -0.684550 -0.684550 -0.250563
-0.879526 0.075136 -0.888007 128 128 255 -0.834002 0.318482 0.450566
-0.230641 -0.004618 0.316887 128 128 255 -0.822211 0.351752 0.447481
-0.268877 0.019001 0.267921 128 128 255 0.595302 -0.435791 -0.675057
-0.304727 0.041147 0.222010 128 128 255 0.595302 -0.435791 -0.675057
-0.338407 0.061952 0.178879 128 128 255 0.595302 -0.435791 -0.675057
-0.370108 0.081535 0.138281 128 128 255 0.836138 0.314293 0.449548
0.764070 -1.612635 -0.767318 128 128 255 0.833094 0.177855 0.523758
0.598646 -1.435113 -0.800370 128 128 255 -0.684550 -0.684550 -0.250563
0.456540 -1.282614 -0.828763 128 128 255 -0.684550 -0.684550 -0.250563
0.333146 -1.150196 -0.853417 128 128 255 -0.684550 -0.684550 -0.250564
0.224997 -1.034138 -0.875026 128 128 255 -0.684550 -0.684550 -0.250564
0.129431 -0.931583 -0.894120 128 128 255 -0.759408 0.636760 -0.133555
0.333146 -0.573384 0.300207 128 128 255 -0.651396 0.733900 -0.192546
0.277348 -0.531889 0.252292 128 128 255 -0.000000 -0.755929 -0.654654
0.224997 -0.492957 0.207337 128 128 255 0.000001 -0.755928 -0.654654
0.175782 -0.456357 0.165076 128 128 255 0.000000 -0.755929 -0.654654
0.129431 -0.421887 0.125273 128 128 255 -0.661266 -0.326843 -0.675205
0.352571 -0.004618 -0.266324 128 128 255 -0.215477 -0.639338 -0.738117
0.295548 0.019001 -0.296504 128 128 255 0.044658 -0.744017 -0.666667
0.242084 0.041147 -0.324801 128 128 255 0.044658 -0.744017 -0.666667
0.191856 0.061952 -0.351384 128 128 255 0.044658 -0.744017 -0.666667
0.144579 0.081535 -0.376406 128 128 255 -0.858058 -0.176372 -0.482317
-0.673498 1.262501 0.670250 128 128 255 -0.773812 -0.149626 -0.615489
-0.729921 1.222021 0.528197 128 128 255 0.918007 0.081993 -0.387995
-0.778391 1.187247 0.406168 128 128 255 0.918007 0.081993 -0.387995
-0.820478 1.157052 0.300207 128 128 255 0.918007 0.081993 -0.387995
-0.857366 1.130587 0.207337 128 128 255 0.918007 0.081993 -0.387995
-0.889962 1.107202 0.125273 128 128 255 -0.958472 -0.268476 -0.096188
-0.712089 -0.128202 1.936109 128 128 255 -0.968957 -0.225040 -0.102365
-0.763012 -0.066360 1.709528 128 128 255 0.903505 0.419318 -0.088612
-0.807079 -0.012845 1.513452 128 128 255 0.903504 0.419318 -0.088612
-0.845587 0.033920 1.342110 128 128 255 0.903504 0.419318 -0.088612
-0.879526 0.075136 1.191098 128 128 255 -0.602029 -0.115792 -0.790034
2.086745 0.728626 -1.203225 128 128 255 -0.409946 -0.386320 -0.826257
2.962841 0.728626 -1.203225 128 128 255 0.000000 -0.755929 -0.654654
4.423001 0.728626 -1.203225 128 128 255 0.000000 -0.755929 -0.654654
7.343320 0.728626 -1.203225 128 128 255 0.000000 -0.755929 -0.654654
16.104279 0.728626 -1.203225 128 128 255 0.014426 -0.810686 -0.585304
0.764070 -1.612635 2.107818 128 128 255 0.038913 -0.867467 -0.495971
0.598646 -1.435113 1.856764 128 128 255 0.508589 -0.508590 -0.694747
0.456540 -1.282614 1.641098 128 128 255 0.508590 -0.508590 -0.694747
0.333146 -1.150196 1.453831 128 128 255 0.508591 -0.508589 -0.694746
0.224997 -1.034138 1.289700 128 128 255 0.508589 -0.508591 -0.694747
0.129431 -0.931583 1.144666 128 128 255 -0.456653 0.239574 0.856780
-1.417638 4.483323 -1.203225 128 128 255 0.550767 0.379145 0.743576
-1.417638 5.507331 -1.203225 128 128 255 0.894427 0.000000 -0.447213
-1.417638 7.299345 -1.203225 128 128 255 0.894427 0.000000 -0.447214
-1.417638 11.241776 -1.203225 128 128 255 0.894427 0.000000 -0.447213
-1.417638 27.011501 -1.203225 128 128 255 0.994561 0.043928 0.094434
-1.417638 0.728626 2.301158 128 128 255 0.862280 0.080679 0.499964
-1.417638 0.728626 3.177254 128 128 255 0.866025 0.500000 0.000000
-1.417638 0.728626 4.637414 128 128 255 0.866026 0.500000 0.000000
-1.417638 0.728626 7.557733 128 128 255 0.866025 0.500000 0.000000
-1.417638 0.728626 16.318691 128 128 255 0.568904 0.820488 -0.056110
2.201638 -1.612635 0.670250 128 128 255 0.297677 0.948199 -0.110941
1.927213 -1.435113 0.528197 128 128 255 -0.211325 -0.788675 -0.577350
1.691470 -1.282614 0.406168 128 128 255 -0.211325 -0.788675 -0.577350
1.486770 -1.150196 0.300207 128 128 255 -0.211324 -0.788675 -0.577351
1.307359 -1.034138 0.207337 128 128 255 -0.211324 -0.788675 -0.577351
1.148824 -0.931583 0.125273 128 128 255 -0.353478 -0.524863 -0.774321
2.013944 -0.128202 -0.789924 128 128 255 -0.257912 -0.632763 -0.730132
1.766270 -0.066360 -0.819754 128 128 255 -0.120583 -0.779458 -0.614739
1.551941 -0.012845 -0.845568 128 128 255 -0.120583 -0.779458 -0.614740
1.364648 0.033920 -0.868126 128 128 255 -0.120583 -0.779458 -0.614740
1.199579 0.075136 -0.888007 128 128 255 -0.736453 0.642788 -0.210859
0.935782 -0.004618 0.316887 128 128 255 -0.656905 0.733586 -0.174148
0.859973 0.019001 0.267921 128 128 255 0.244864 -0.668982 -0.701787
0.788895 0.041147 0.222010 128 128 255 0.244864 -0.668982 -0.701787
0.722119 0.061952 0.178879 128 128 255 0.244864 -0.668981 -0.701787
0.659266 0.081535 0.138281 128 128 255 0.112728 -0.612437 -0.782440
0.764070 1.262501 -0.767318 128 128 255 0.180121 -0.623353 -0.760912
0.598646 1.222021 -0.800370 128 128 255 0.298264 -0.642670 -0.705701
0.456540 1.187247 -0.828763 128 128 255 0.298264 -0.642670 -0.705701
0.333146 1.157052 -0.853417 128 128 255 0.298264 -0.642670 -0.705701
0.224997 1.130587 -0.875026 128 128 255 0.298264 -0.642669 -0.705701
0.129431 1.107202 -0.894120 128 128 255 -0.850988 0.430156 0.301304
0.333146 0.580240 0.300207 128 128 255 -0.827269 0.468001 0.310806
0.277348 0.584969 0.252292 128 128 255 0.549442 -0.475831 -0.686803
0.224997 0.589406 0.207337 128 128 255 0.549442 -0.475831 -0.686803
0.175782 0.593577 0.165076 128 128 255 0.549442 -0.475831 -0.686803
0.129431 0.597506 0.125273 128 128 255 -0.703009 0.453371 0.547935
0.352571 -0.004618 0.900099 128 128 255 -0.698757 0.468326 0.540748
0.295548 0.019001 0.832346 128 128 255 0.622009 -0.410683 -0.666667
0.242084 0.041147 0.768821 128 128 255 0.622008 -0.410684 -0.666667
0.191856 0.061952 0.709141 128 128 255 0.622008 -0.410685 -0.666667
0.144579 0.081535 0.652968 128 128 255 -0.171515 0.292476 0.940766
2.201638 1.262501 0.670250 128 128 255 0.183062 -0.119715 0.975785
1.927213 1.222021 0.528197 128 128 255 0.445629 -0.554371 -0.702914
1.691470 1.187247 0.406168 128 128 255 0.445629 -0.554371 -0.702914
1.486770 1.157052 0.300207 128 128 255 0.445629 -0.554370 -0.702914
1.307359 1.130587 0.207337 128 128 255 0.445630 -0.554370 -0.702914
1.148824 1.107202 0.125273 128 128 255 -0.514094 0.575679 0.635846
2.013944 -0.128202 1.936109 128 128 255 -0.509916 0.586891 0.628923
1.766270 -0.066360 1.709528 128 128 255 0.508590 -0.508590 -0.694747
1.551941 -0.012845 1.513452 128 128 255 0.508590 -0.508590 -0.694747
1.364648 0.033920 1.342110 128 128 255 0.508590 -0.508590 -0.694747
1.199579 0.075136 1.191098 128 128 255 -0.329000 0.239589 0.913431
-4.922021 0.728626 -1.203225 128 128 255 -0.255713 0.378011 0.889786
-5.798117 0.728626 -1.203225 128 128 255 0.000000 0.755929 0.654654
-7.258277 0.728626 -1.203225 128 128 255 0.000000 0.755929 0.654654
-10.178596 0.728626 -1.203225 128 128 255 0.000000 0.755929 0.654654
-18.939554 0.728626 -1.203225 128 128 255 0.115739 0.970346 -0.212212
0.764070 1.262501 2.107818 128 128 255 0.170758 0.536066 -0.826725
0.598646 1.222021 1.856764 128 128 255 0.837456 -0.129555 -0.530926
0.456540 1.187247 1.641098 128 128 255 0.837456 -0.129555 -0.530926
0.333146 1.157052 1.453831 128 128 255 0.837456 -0.129555 -0.530926
0.224997 1.130587 1.289700 128 128 255 0.837456 -0.129556 -0.530926
0.129431 1.107202 1.144666 128 128 255 -0.933422 0.167943 0.317047
-1.417638 -3.026070 -1.203225 128 128 255 -0.925726 0.103819 0.363667
-1.417638 -4.050078 -1.203225 128 128 255 -0.894427 0.000000 0.447214
-1.417638 -5.842092 -1.203225 128 128 255 -0.894427 0.000000 0.447213
-1.417638 -9.784523 -1.203225 128 128 255 -0.894427 0.000000 0.447214
-1.417638 -25.554247 -1.203225 128 128 255 0.996377 -0.035872 -0.077116
-1.417638 0.728626 -4.707609 128 128 255 0.981312 -0.030655 -0.189967
-1.417638 0.728626 -5.583704 128 128 255 -0.866025 -0.500000 0.000000
-1.417638 0.728626 -7.043864 128 128 255 -0.866025 -0.500000 0.000000
-1.417638 0.728626 -9.964184 128 128 255 -0.866025 -0.500000 0.000000
-1.417638 0.728626 -18.725142 128 128 255 -0.956423 -0.291031 0.023574
-0.673498 -1.612635 0.670250 128 128 255 -0.987554 0.147107 0.055647
-0.692353 -1.639799 0.654436 128 128 255 -0.788675 0.211325 0.577350
-0.746256 -1.447754 0.510510 128 128 255 -0.788676 0.211324 0.577350
-0.791374 -1.287011 0.390042 128 128 255 -0.788676 0.211324 0.577350
-0.829691 -1.150493 0.287730 128 128 255 -0.788675 0.211325 0.577350
-0.862639 -1.033109 0.199757 128 128 255 -0.788675 0.211325 0.577351
-0.891271 -0.931098 0.123306 128 128 255 -0.456040 0.706231 0.541540
-0.729384 -0.081188 -0.871118 128 128 255 -0.609822 0.613531 0.501694
-0.777174 -0.030436 -0.879208 128 128 255 -0.684550 -0.684550 -0.250563
-0.817577 0.012470 -0.886048 128 128 255 -0.684550 -0.684550 -0.250563
-0.852182 0.049219 -0.891905 128 128 255 -0.684550 -0.684550 -0.250563
-0.882153 0.081047 -0.896979 128 128 255 -0.842958 0.287862 0.454486
-0.228319 0.018984 0.303698 128 128 255 -0.833537 0.317795 0.451910
-0.267704 0.037570 0.256969 128 128 255 0.595302 -0.435791 -0.675057
-0.304295 0.054837 0.213553 128 128 255 0.595302 -0.435791 -0.675057
-0.338381 0.070922 0.173110 128 128 255 0.595302 -0.435791 -0.675057
-0.370211 0.085942 0.135345 128 128 255 0.847714 0.355028 0.394126
0.826933 -1.639799 -0.864850 128 128 255 0.858921 0.237475 0.453718
0.638228 -1.447754 -0.873975 128 128 255 -0.684550 -0.684550 -0.250563
0.480280 -1.287011 -0.881612 128 128 255 -0.684550 -0.684550 -0.250563
0.346137 -1.150493 -0.888098 128 128 255 -0.684550 -0.684550 -0.250562
0.230794 -1.033109 -0.893676 128 128 255 -0.684550 -0.684550 -0.250563
0.130557 -0.931098 -0.898522 128 128 255 -0.853251 0.515879 -0.076368
0.346137 -0.562579 0.287730 128 128 255 -0.774509 0.617743 -0.136123
0.286371 -0.523103 0.242147 128 128 255 -0.000001 -0.755929 -0.654653
0.230794 -0.486392 0.199757 128 128 255 -0.000000 -0.755929 -0.654653
0.178979 -0.452167 0.160238 128 128 255 0.000000 -0.755929 -0.654654
0.130557 -0.420184 0.123306 128 128 255 -0.854938 0.508087 0.104539
0.367072 0.018984 -0.291694 128 128 255 -0.396063 -0.565784 -0.723203
0.305805 0.037570 -0.316540 128 128 255 0.044658 -0.744017 -0.666667
0.248882 0.054837 -0.339624 128 128 255 0.044658 -0.744017 -0.666667
0.195856 0.070922 -0.361127 128 128 255 0.044658 -0.744017 -0.666667
0.146342 0.085942 -0.381207 128 128 255 -0.872481 -0.222058 -0.435277
-0.692353 1.398773 0.654436 128 128 255 -0.795394 -0.204471 -0.570562
-0.746256 1.321215 0.510510 128 128 255 0.918007 0.081993 -0.387995
-0.791374 1.256297 0.390042 128 128 255 0.918007 0.081993 -0.387995
-0.829691 1.201164 0.287730 128 128 255 0.918007 0.081993 -0.387995
-0.862639 1.153757 0.199757 128 128 255 0.918007 0.081993 -0.387995
-0.891271 1.112559 0.123306 128 128 255 -0.946464 -0.300546 -0.117808
-0.729384 -0.081188 1.982240 128 128 255 -0.957423 -0.258042 -0.129446
-0.777174 -0.030436 1.735119 128 128 255 0.903505 0.419318 -0.088612
-0.817577 0.012470 1.526201 128 128 255 0.903505 0.419318 -0.088612
-0.852182 0.049219 1.347263 128 128 255 0.903504 0.419318 -0.088612
-0.882153 0.081047 1.192284 128 128 255 -0.574653 -0.237592 -0.783150
1.820899 0.524646 -0.967689 128 128 255 -0.404075 -0.433886 -0.805274
2.601091 0.524646 -0.967689 128 128 255 0.000000 -0.755929 -0.654654
3.901411 0.524646 -0.967689 128 128 255 0.000000 -0.755929 -0.654654
6.502051 0.524646 -0.967689 128 128 255 0.000000 -0.755929 -0.654654
14.303972 0.524646 -0.967689 128 128 255 0.016989 -0.814996 -0.579218
0.826933 -1.639799 2.173722 128 128 255 0.045220 -0.824416 -0.564175
0.638228 -1.447754 1.894994 128 128 255 0.508590 -0.508590 -0.694747
0.480280 -1.287011 1.661696 128 128 255 0.508590 -0.508590 -0.694747
0.346137 -1.150493 1.463559 128 128 255 0.508591 -0.508589 -0.694747
0.230794 -1.033109 1.293190 128 128 255 0.508592 -0.508588 -0.694746
0.130557 -0.931098 1.145135 128 128 255 -0.310633 0.301868 0.901323
-1.299870 3.868326 -0.967689 128 128 255 0.723080 0.371413 0.582415
-1.299870 4.780239 -0.967689 128 128 255 0.894427 0.000000 -0.447214
-1.299870 6.376087 -0.967689 128 128 255 0.894427 0.000000 -0.447214
-1.299870 9.886951 -0.967689 128 128 255 0.894427 0.000000 -0.447214
-1.299870 23.930410 -0.967689 128 128 255 0.992308 0.049065 0.113656
-1.299870 0.524646 2.153079 128 128 255 0.821457 0.091343 0.562907
-1.299870 0.524646 2.933271 128 128 255 0.866025 0.500000 0.000000
-1.299870 0.524646 4.233592 128 128 255 0.866025 0.500000 0.000000
-1.299870 0.524646 6.834232 128 128 255 0.866025 0.500000 0.000000
-1.299870 0.524646 14.636153 128 128 255 0.545319 0.835713 -0.064892
2.346219 -1.639799 0.654436 128 128 255 0.473342 0.862022 -0.181290
2.022712 -1.447754 0.510510 128 128 255 -0.211325 -0.788675 -0.577350
1.751934 -1.287011 0.390042 128 128 255 -0.211325 -0.788675 -0.577350
1.521966 -1.150493 0.287730 128 128 255 -0.211325 -0.788675 -0.577350
1.324226 -1.033109 0.199757 128 128 255 -0.211324 -0.788675 -0.577350
1.152386 -0.931098 0.123306 128 128 255 -0.446726 -0.434477 -0.782091
2.123975 -0.081188 -0.871118 128 128 255 -0.288417 -0.617671 -0.731641
1.837153 -0.030436 -0.879208 128 128 255 -0.120583 -0.779458 -0.614739
1.594672 0.012470 -0.886048 128 128 255 -0.120583 -0.779458 -0.614739
1.386987 0.049219 -0.891905 128 128 255 -0.120583 -0.779458 -0.614739
1.207109 0.081047 -0.896979 128 128 255 -0.811420 0.534245 -0.237021
0.962464 0.018984 0.303698 128 128 255 -0.738735 0.642380 -0.204007
0.879314 0.037570 0.256969 128 128 255 0.244864 -0.668982 -0.701787
0.802059 0.054837 0.213553 128 128 255 0.244864 -0.668982 -0.701787
0.730094 0.070922 0.173110 128 128 255 0.244864 -0.668982 -0.701787
0.662894 0.085942 0.135345 128 128 255 0.065888 -0.611585 -0.788430
0.826933 1.398773 -0.864850 128 128 255 0.165270 -0.626357 -0.761816
0.638228 1.321215 -0.873975 128 128 255 0.298264 -0.642670 -0.705701
0.480280 1.256297 -0.881612 128 128 255 0.298264 -0.642670 -0.705701
0.346137 1.201164 -0.888098 128 128 255 0.298264 -0.642670 -0.705701
0.230794 1.153757 -0.893676 128 128 255 0.298264 -0.642670 -0.705701
0.130557 1.112559 -0.898522 128 128 255 -0.879022 0.382694 0.284367
0.346137 0.613249 0.287730 128 128 255 -0.856670 0.423977 0.293869
0.286371 0.610032 0.242147 128 128 255 0.549442 -0.475831 -0.686803
0.230794 0.607041 0.199757 128 128 255 0.549442 -0.475831 -0.686803
0.178979 0.604251 0.160238 128 128 255 0.549442 -0.475832 -0.686803
0.130557 0.601645 0.123306 128 128 255 -0.722748 0.433401 0.538330
0.367072 0.018984 0.899090 128 128 255 -0.720116 0.448885 0.529088
0.305805 0.037570 0.830477 128 128 255 0.622008 -0.410684 -0.666667
0.248882 0.054837 0.766730 128 128 255 0.622009 -0.410683 -0.666667
0.195856 0.070922 0.707348 128 128 255 0.622009 -0.410683 -0.666667
0.146342 0.085942 0.651897 128 128 255 -0.220745 0.373690 0.900904
2.346219 1.398773 0.654436 128 128 255 0.030115 0.115626 0.992836
2.022712 1.321215 0.510510 128 128 255 0.445630 -0.554370 -0.702914
1.751934 1.256297 0.390042 128 128 255 0.445629 -0.554371 -0.702914
1.521966 1.201164 0.287730 128 128 255 0.445629 -0.554370 -0.702914
1.324226 1.153757 0.199757 128 128 255 0.445629 -0.554371 -0.702914
1.152386 1.112559 0.123306 128 128 255 -0.520502 0.570168 0.635599
2.123975 -0.081188 1.982240 128 128 255 -0.516841 0.582320 0.627518
1.837153 -0.030436 1.735119 128 128 255 0.508590 -0.508590 -0.694746
1.594672 0.012470 1.526201 128 128 255 0.508590 -0.508590 -0.694746
1.386987 0.049219 1.347263 128 128 255 0.508590 -0.508589 -0.694747
1.207109 0.081047 1.192284 128 128 255 -0.317937 0.301834 0.898784
-4.420639 0.524646 -0.967689 128 128 255 -0.253659 0.408308 0.876893
-5.200830 0.524646 -0.967689 128 128 255 0.000000 0.755929 0.654654
-6.501151 0.524646 -0.967689 128 128 255 0.000000 0.755929 0.654654
-9.101791 0.524646 -0.967689 128 128 255 0.000000 0.755929 0.654654
-16.903713 0.524646 -0.967689 128 128 255 0.132645 0.943376 -0.304050
0.826933 1.398773 2.173722 128 128 255 0.290188 0.728653 -0.620367
0.638228 1.321215 1.894994 128 128 255 0.837456 -0.129555 -0.530926
0.480280 1.256297 1.661696 128 128 255 0.837456 -0.129555 -0.530926
0.346137 1.201164 1.463559 128 128 255 0.837456 -0.129555 -0.530926
0.230794 1.153757 1.293190 128 128 255 0.837456 -0.129555 -0.530926
0.130557 1.112559 1.145135 128 128 255 -0.923527 0.143514 0.355671
-1.299870 -2.819035 -0.967689 128 128 255 -0.919533 0.097709 0.380674
-1.299870 -3.730947 -0.967689 128 128 255 -0.894427 0.000000 0.447214
-1.299870 -5.326795 -0.967689 128 128 255 -0.894427 0.000000 0.447214
-1.299870 -8.837660 -0.967689 128 128 255 -0.894427 0.000000 0.447214
-1.299870 -22.881119 -0.967689 128 128 255 0.995334 -0.038244 -0.088589
-1.299870 0.524646 -4.088458 128 128 255 0.979266 -0.032448 -0.199965
-1.299870 0.524646 -4.868650 128 128 255 -0.866025 -0.500000 0.000000
-1.299870 0.524646 -6.168970 128 128 255 -0.866025 -0.500000 0.000000
-1.299870 0.524646 -8.769610 128 128 255 -0.866025 -0.500000 0.000000
-1.299870 0.524646 -16.571531 128 128 255 -0.964020 -0.264321 0.028275
-0.692353 -1.639799 0.654436 128 128 255 -0.985305 -0.170279 0.013354
-0.716574 -1.658661 0.628254 128 128 255 -0.788675 0.211325 0.577350
-0.766090 -1.453858 0.485650 128 128 255 -0.788675 0.211325 0.577350
-0.806483 -1.286793 0.369323 128 128 255 -0.788675 0.211325 0.577350
-0.840060 -1.147914 0.272622 128 128 255 -0.788676 0.211324 0.577350
-0.868413 -1.030644 0.190967 128 128 255 -0.788674 0.211326 0.577351
-0.892673 -0.930304 0.121100 128 128 255 -0.391529 0.725894 0.565493
-0.750740 -0.027188 -0.960301 128 128 255 -0.547316 0.642981 0.535744
-0.793872 0.009565 -0.942876 128 128 255 -0.684550 -0.684550 -0.250563
-0.829515 0.039938 -0.928476 128 128 255 -0.684550 -0.684550 -0.250563
-0.859465 0.065459 -0.916376 128 128 255 -0.684550 -0.684550 -0.250563
-0.884985 0.087206 -0.906066 128 128 255 -0.850496 0.258641 0.457997
-0.227910 0.044495 0.287590 128 128 255 -0.842954 0.285799 0.455793
-0.267976 0.057418 0.243915 128 128 255 0.595302 -0.435791 -0.675057
-0.304884 0.069322 0.203683 128 128 255 0.595301 -0.435792 -0.675057
-0.338994 0.080323 0.166501 128 128 255 0.595302 -0.435791 -0.675057
-0.370611 0.090521 0.132036 128 128 255 0.853450 0.390759 0.344863
0.885785 -1.658661 -0.974104 128 128 255 0.874029 0.288490 0.390956
0.673660 -1.453858 -0.954100 128 128 255 -0.684550 -0.684550 -0.250563
0.500621 -1.286793 -0.937781 128 128 255 -0.684550 -0.684550 -0.250563
0.356778 -1.147914 -0.924216 128 128 255 -0.684550 -0.684550 -0.250562
0.235315 -1.030644 -0.912761 128 128 255 -0.684550 -0.684550 -0.250563
0.131387 -0.930304 -0.902960 128 128 255 -0.919629 0.392267 -0.020223
0.356778 -0.549495 0.272622 128 128 255 -0.868706 0.489340 -0.076791
0.293588 -0.512707 0.230142 128 128 255 0.000000 -0.755929 -0.654654
0.235315 -0.478780 0.190967 128 128 255 -0.000000 -0.755929 -0.654654
0.181405 -0.447394 0.154726 128 128 255 -0.000000 -0.755929 -0.654654
0.131387 -0.418273 0.121100 128 128 255 -0.474183 0.716414 0.511763
0.379042 0.044495 -0.319363 128 128 255 -0.858681 -0.177017 -0.480969
0.314075 0.057418 -0.338137 128 128 255 0.044658 -0.744017 -0.666667
0.254229 0.069322 -0.355431 128 128 255 0.044658 -0.744017 -0.666667
0.198921 0.080323 -0.371414 128 128 255 0.044658 -0.744017 -0.666667
0.147654 0.090521 -0.386229 128 128 255 -0.884206 -0.262808 -0.386151
-0.716574 1.546056 0.628254 128 128 255 -0.813417 -0.254147 -0.523223
-0.766090 1.425642 0.485650 128 128 255 0.918007 0.081993 -0.387995
-0.806483 1.327415 0.369323 128 128 255 0.918007 0.081993 -0.387995
-0.840060 1.245762 0.272622 128 128 255 0.918007 0.081993 -0.387995
-0.868413 1.176813 0.190967 128 128 255 0.918007 0.081994 -0.387996
-0.892673 1.117817 0.121100 128 128 255 -0.931641 -0.335342 -0.139965
-0.750740 -0.027188 2.020014 128 128 255 -0.942520 -0.294366 -0.158129
-0.793872 0.009565 1.754159 128 128 255 0.903505 0.419318 -0.088612
-0.829515 0.039938 1.534457 128 128 255 0.903504 0.419318 -0.088612
-0.859465 0.065459 1.349849 128 128 255 0.903505 0.419318 -0.088612
-0.884985 0.087206 1.192548 128 128 255 -0.545451 -0.346804 -0.763027
1.632970 0.359484 -0.776976 128 128 255 -0.395104 -0.485025 -0.780156
2.342341 0.359484 -0.776976 128 128 255 0.000000 -0.755929 -0.654654
