ply
format ascii 1.0
element vertex 700
property float x
property float y
property float z
property uchar red
property uchar green
property uchar blue
property float nx
property float ny
property float nz
end_header
0.928888 0.653846 5.114248 128 128 255 0.832379 0.554208 0.000000
0.928888 0.653846 5.113227 128 128 255 0.832820 0.553545 0.000000
0.928888 0.653846 5.112266 128 128 255 -0.289674 -0.476587 -0.830033
-0.897496 0.139192 6.111380 128 128 255 0.496024 -0.253681 0.830425
-0.897496 0.139192 6.110584 128 128 255 -0.998987 0.044992 0.000000
-0.897496 0.139192 6.109893 128 128 255 -0.998906 0.046768 0.000000
-0.897496 0.139192 6.109317 128 128 255 0.513674 0.213095 -0.831102
0.888807 -0.521845 7.108868 128 128 255 -0.255140 0.490878 0.833032
0.888807 -0.521845 7.108551 128 128 255 0.770838 -0.637031 0.000000
0.888807 -0.521845 7.108374 128 128 255 0.750330 -0.661063 0.000000
0.888807 -0.521845 7.108338 128 128 255 -0.534068 0.137197 -0.834235
-0.170952 1.060724 8.108444 128 128 255 -0.082305 -0.548498 0.832091
-0.170952 1.060724 8.108692 128 128 255 0.288383 -0.957515 0.000000
-0.170952 1.060724 8.109076 128 128 255 0.282882 -0.959155 0.000000
-0.170952 1.060724 8.109590 128 128 255 0.279751 -0.960073 0.000000
-0.170952 1.060724 8.110225 128 128 255 0.349263 -0.427718 -0.833710
-0.245081 -0.835383 9.110970 128 128 255 0.382712 0.399055 0.833239
-0.245081 -0.835383 9.111813 128 128 255 0.342496 0.939519 0.000000
-0.245081 -0.835383 9.112739 128 128 255 0.343426 0.939180 0.000000
-0.245081 -0.835383 9.113731 128 128 255 -0.031675 0.551317 -0.833694
0.934977 0.657914 10.114775 128 128 255 -0.539232 -0.102464 0.835901
0.934977 0.657914 10.115849 128 128 255 -0.831179 -0.556005 0.000000
0.934977 0.657914 10.116940 128 128 255 -0.831566 -0.555426 0.000000
0.934977 0.657914 10.118024 128 128 255 -0.831957 -0.554839 0.000000
0.934977 0.657914 10.119085 128 128 255 -0.849468 -0.527640 0.000000
0.809964 0.809964 0.119856 128 128 255 -0.684387 -0.729119 0.000000
0.809964 0.809964 0.120833 128 128 255 -0.709300 -0.704907 0.000000
0.809964 0.809964 0.121740 128 128 255 -0.710020 -0.704182 0.000000
0.809964 0.809964 0.122559 128 128 255 -0.710900 -0.703293 0.000000
0.809964 0.809964 0.123278 128 128 255 -0.201512 -0.512241 -0.834867
-0.889041 -0.056649 1.123883 128 128 255 0.533393 -0.140431 0.834129
-0.889041 -0.056649 1.124366 128 128 255 0.989637 0.143592 0.000000
-0.889041 -0.056649 1.124716 128 128 255 0.990628 0.136587 0.000000
-0.889041 -0.056649 1.124929 128 128 255 0.464419 0.300032 -0.833244
0.987160 -0.352031 2.125000 128 128 255 -0.347146 0.433666 0.831519
0.987160 -0.352031 2.124929 128 128 255 0.908788 -0.417258 0.000000
0.987160 -0.352031 2.124716 128 128 255 0.899940 -0.436013 0.000000
0.987160 -0.352031 2.124366 128 128 255 0.896827 -0.442382 0.000000
0.987160 -0.352031 2.123883 128 128 255 -0.557249 0.021189 -0.830075
-0.354074 0.991170 3.123278 128 128 255 0.024177 -0.554716 0.831688
-0.354074 0.991170 3.122559 128 128 255 -0.458776 0.888552 0.000000
-0.354074 0.991170 3.121740 128 128 255 -0.457666 0.889124 0.000000
-0.354074 0.991170 3.120833 128 128 255 0.439608 -0.342016 -0.830524
-0.057077 -0.891745 4.119856 128 128 255 0.308955 0.460959 0.831903
-0.057077 -0.891745 4.118824 128 128 255 -0.155009 -0.987913 0.000000
-0.057077 -0.891745 4.117754 128 128 255 -0.155736 -0.987799 0.000000
-0.057077 -0.891745 4.116667 128 128 255 -0.151083 0.534141 -0.831786
0.804912 0.804912 5.115579 128 128 255 -0.526199 -0.187979 0.829324
0.804912 0.804912 5.114510 128 128 255 0.708121 0.706091 0.000000
0.804912 0.804912 5.113478 128 128 255 0.708681 0.705529 0.000000
0.804912 0.804912 5.112500 128 128 255 0.709303 0.704904 0.000000
0.804912 0.804912 5.111594 128 128 255 -0.191556 -0.523564 -0.830173
-0.885975 -0.056163 6.110774 128 128 255 0.535948 -0.151456 0.830554
-0.885975 -0.056163 6.110055 128 128 255 -0.988761 -0.149505 0.000000
-0.885975 -0.056163 6.109450 128 128 255 -0.989103 -0.147224 0.000000
-0.885975 -0.056163 6.108968 128 128 255 0.462425 0.308369 -0.831307
0.994967 -0.356008 7.108617 128 128 255 -0.346455 0.430937 0.833224
0.994967 -0.356008 7.108405 128 128 255 0.871725 -0.489995 0.000000
0.994967 -0.356008 7.108333 128 128 255 -0.453990 -0.891007 0.000000
0.994967 -0.356008 7.108405 128 128 255 -0.550216 0.031217 -0.834438
-0.353174 0.989404 8.108617 128 128 255 0.027137 -0.553653 0.832305
-0.353174 0.989404 8.108968 128 128 255 0.465489 -0.885054 0.000000
-0.353174 0.989404 8.109449 128 128 255 0.462262 -0.886743 0.000000
-0.353174 0.989404 8.110055 128 128 255 0.460238 -0.887795 0.000000
-0.353174 0.989404 8.110774 128 128 255 0.425433 -0.351710 -0.833851
-0.055966 -0.884732 9.111593 128 128 255 0.296875 0.466186 0.833388
-0.055966 -0.884732 9.112500 128 128 255 0.153369 0.988169 0.000000
-0.055966 -0.884732 9.113478 128 128 255 0.154241 0.988033 0.000000
-0.055966 -0.884732 9.114510 128 128 255 -0.138381 0.534535 -0.833740
0.810089 0.810089 10.115579 128 128 255 -0.508731 -0.205847 0.835955
0.810089 0.810089 10.116667 128 128 255 -0.707097 -0.707117 0.000000
0.810089 0.810089 10.117754 128 128 255 -0.707612 -0.706602 0.000000
0.810089 0.810089 10.118823 128 128 255 -0.708121 -0.706091 0.000000
0.810089 0.810089 10.119856 128 128 255 -0.730338 -0.683086 0.000000
0.657815 0.934830 0.120595 128 128 255 -0.529236 -0.848474 0.000000
0.657815 0.934830 0.121521 128 128 255 -0.558771 -0.829322 0.000000
0.657815 0.934830 0.122363 128 128 255 -0.559753 -0.828660 0.000000
0.657815 0.934830 0.123108 128 128 255 -0.561009 -0.827810 0.000000
0.657815 0.934830 0.123743 128 128 255 -0.097022 -0.542111 -0.834687
-0.839476 -0.246591 1.124257 128 128 255 0.550760 -0.034450 0.833953
-0.839476 -0.246591 1.124641 128 128 255 0.944184 0.329420 0.000000
-0.839476 -0.246591 1.124889 128 128 255 0.948964 0.315384 0.000000
-0.839476 -0.246591 1.124996 128 128 255 0.396579 0.385715 -0.833036
1.058300 -0.170269 2.124960 128 128 255 -0.424760 0.358490 0.831303
1.058300 -0.170269 2.124782 128 128 255 0.968461 -0.249164 0.000000
1.058300 -0.170269 2.124466 128 128 255 0.966236 -0.257658 0.000000
1.058300 -0.170269 2.124016 128 128 255 0.965137 -0.261745 0.000000
1.058300 -0.170269 2.123441 128 128 255 -0.550817 -0.088675 -0.829902
-0.519208 0.885461 3.122749 128 128 255 0.131325 -0.539758 0.831514
-0.519208 0.885461 3.121953 128 128 255 -0.622555 0.782576 0.000000
-0.519208 0.885461 3.121067 128 128 255 -0.621716 0.783243 0.000000
-0.519208 0.885461 3.120106 128 128 255 0.498154 -0.249416 -0.830442
0.139421 -0.903333 4.119086 128 128 255 0.213448 0.512375 0.831812
0.139421 -0.903333 4.118024 128 128 255 0.040145 -0.999194 0.000000
0.139421 -0.903333 4.116940 128 128 255 0.039440 -0.999222 0.000000
0.139421 -0.903333 4.115850 128 128 255 -0.252289 0.494400 -0.831817
0.653846 0.928888 5.114774 128 128 255 -0.479332 -0.287106 0.829344
0.653846 0.928888 5.113731 128 128 255 0.557250 0.830345 0.000000
0.653846 0.928888 5.112738 128 128 255 0.557965 0.829865 0.000000
0.653846 0.928888 5.111813 128 128 255 0.558766 0.829326 0.000000
0.653846 0.928888 5.110970 128 128 255 -0.086286 -0.550553 -0.830329
-0.836564 -0.245517 6.110225 128 128 255 0.555029 -0.043358 0.830700
-0.836564 -0.245517 6.109590 128 128 255 -0.941148 -0.337993 0.000000
-0.836564 -0.245517 6.109076 128 128 255 -0.942232 -0.334962 0.000000
-0.836564 -0.245517 6.108692 128 128 255 0.393748 0.391843 -0.831518
1.066733 -0.172647 7.108445 128 128 255 -0.424177 0.354232 0.833423
1.066733 -0.172647 7.108338 128 128 255 0.905714 -0.423888 0.000000
1.066733 -0.172647 7.108374 128 128 255 -0.975844 0.218467 0.000000
1.066733 -0.172647 7.108551 128 128 255 -0.545556 -0.075845 -0.834635
-0.517981 0.883905 8.108868 128 128 255 0.135378 -0.537208 0.832515
-0.517981 0.883905 8.109318 128 128 255 0.626956 -0.779055 0.000000
-0.517981 0.883905 8.109893 128 128 255 0.624981 -0.780640 0.000000
-0.517981 0.883905 8.110584 128 128 255 0.623598 -0.781745 0.000000
-0.517981 0.883905 8.111380 128 128 255 0.485448 -0.262356 -0.833972
0.139142 -0.896239 9.112267 128 128 255 0.199647 0.515153 0.833522
0.139142 -0.896239 9.113228 128 128 255 -0.041685 0.999131 0.000000
0.139142 -0.896239 9.114247 128 128 255 -0.040890 0.999164 0.000000
0.139142 -0.896239 9.115309 128 128 255 -0.239860 0.497297 -0.833764
0.657914 0.934977 10.116394 128 128 255 -0.458687 -0.301208 0.835990
0.657914 0.934977 10.117483 128 128 255 -0.556017 -0.831171 0.000000
0.657914 0.934977 10.118559 128 128 255 -0.556606 -0.830777 0.000000
0.657914 0.934977 10.119602 128 128 255 -0.557250 -0.830344 0.000000
0.657914 0.934977 10.120595 128 128 255 -0.583261 -0.812285 0.000000
0.484230 1.027613 0.121296 128 128 255 -0.353844 -0.935304 0.000000
0.484230 1.027613 0.122161 128 128 255 -0.387038 -0.922064 0.000000
0.484230 1.027613 0.122932 128 128 255 -0.388344 -0.921515 0.000000
0.484230 1.027613 0.123596 128 128 255 -0.390109 -0.920769 0.000000
0.484230 1.027613 0.124141 128 128 255 0.011394 -0.550893 -0.834498
-0.753808 -0.423214 1.124558 128 128 255 0.547285 0.072903 0.833765
-0.753808 -0.423214 1.124840 128 128 255 0.866450 0.499264 0.000000
-0.753808 -0.423214 1.124982 128 128 255 0.892550 0.450948 0.000000
-0.753808 -0.423214 1.124982 128 128 255 0.313170 0.456421 -0.832829
1.092614 0.021880 2.124840 128 128 255 -0.486395 0.269658 0.831086
1.092614 0.021880 2.124558 128 128 255 0.998035 -0.062658 0.000000
1.092614 0.021880 2.124141 128 128 255 0.997714 -0.067580 0.000000
1.092614 0.021880 2.123595 128 128 255 0.997517 -0.070433 0.000000
1.092614 0.021880 2.122932 128 128 255 -0.522925 -0.195127 -0.829744
-0.660546 0.749567 3.122161 128 128 255 0.233631 -0.504253 0.831352
-0.660546 0.749567 3.121296 128 128 255 -0.762737 0.646709 0.000000
-0.660546 0.749567 3.120353 128 128 255 -0.762127 0.647428 0.000000
-0.660546 0.749567 3.119345 128 128 255 0.537403 -0.147194 -0.830381
0.334404 -0.876363 4.118292 128 128 255 0.109653 0.544227 0.831741
0.334404 -0.876363 4.117212 128 128 255 0.233790 -0.972287 0.000000
0.334404 -0.876363 4.116122 128 128 255 0.233100 -0.972453 0.000000
0.334404 -0.876363 4.115041 128 128 255 -0.343714 0.435726 -0.831868
0.481495 1.021011 5.113988 128 128 255 -0.413932 -0.375208 0.829385
0.481495 1.021011 5.112981 128 128 255 0.385130 0.922862 0.000000
0.481495 1.021011 5.112037 128 128 255 0.386003 0.922497 0.000000
0.481495 1.021011 5.111172 128 128 255 0.387037 0.922064 0.000000
0.481495 1.021011 5.110401 128 128 255 0.022115 -0.556582 -0.830499
-0.751162 -0.421592 6.109738 128 128 255 0.552506 0.066395 0.830860
-0.751162 -0.421592 6.109193 128 128 255 -0.858281 -0.513181 0.000000
-0.751162 -0.421592 6.108776 128 128 255 -0.860819 -0.508911 0.000000
-0.751162 -0.421592 6.108493 128 128 255 0.310272 0.460381 -0.831733
1.101348 0.021192 7.108351 128 128 255 -0.485274 0.263774 0.833626
1.101348 0.021192 7.108351 128 128 255 -0.999994 -0.003408 0.000000
1.101348 0.021192 7.108493 128 128 255 -0.998673 0.051494 0.000000
1.101348 0.021192 7.108776 128 128 255 -0.520275 -0.179947 -0.834825
-0.659039 0.748280 8.109193 128 128 255 0.238192 -0.499848 0.832716
-0.659039 0.748280 8.109737 128 128 255 0.765616 -0.643298 0.000000
-0.659039 0.748280 8.110401 128 128 255 0.764377 -0.644770 0.000000
-0.659039 0.748280 8.111172 128 128 255 0.763467 -0.645847 0.000000
-0.659039 0.748280 8.112037 128 128 255 0.527001 -0.163035 -0.834080
0.332747 -0.869460 9.112981 128 128 255 0.094818 0.544109 0.833640
0.332747 -0.869460 9.113988 128 128 255 -0.235211 0.971944 0.000000
0.332747 -0.869460 9.115041 128 128 255 -0.234505 0.972115 0.000000
0.332747 -0.869460 9.116121 128 128 255 -0.332214 0.440978 -0.833770
0.484298 1.027776 10.117211 128 128 255 -0.391072 -0.384910 0.836006
0.484298 1.027776 10.118293 128 128 255 -0.383663 -0.923473 0.000000
0.484298 1.027776 10.119346 128 128 255 -0.384374 -0.923177 0.000000
0.484298 1.027776 10.120353 128 128 255 -0.385137 -0.922859 0.000000
0.484298 1.027776 10.121297 128 128 255 -0.413801 -0.910367 0.000000
0.295879 1.084749 0.121953 128 128 255 -0.164956 -0.986301 0.000000
0.295879 1.084749 0.122749 128 128 255 -0.200720 -0.979649 0.000000
0.295879 1.084749 0.123440 128 128 255 -0.202447 -0.979293 0.000000
0.295879 1.084749 0.124016 128 128 255 -0.204951 -0.978772 0.000000
0.295879 1.084749 0.124466 128 128 255 0.119514 -0.538198 -0.834302
-0.635328 -0.579730 1.124782 128 128 255 0.523095 0.177580 0.833569
-0.635328 -0.579730 1.124960 128 128 255 0.770247 0.637745 0.000000
-0.635328 -0.579730 1.124996 128 128 255 -0.614585 -0.788851 0.000000
-0.635328 -0.579730 1.124889 128 128 255 0.217440 0.509367 -0.832625
1.088782 0.217030 2.124641 128 128 255 -0.529699 0.170504 0.830871
1.088782 0.217030 2.124257 128 128 255 0.991603 0.129321 0.000000
1.088782 0.217030 2.123743 128 128 255 0.992015 0.126118 0.000000
1.088782 0.217030 2.123108 128 128 255 0.992276 0.124048 0.000000
1.088782 0.217030 2.122363 128 128 255 -0.474677 -0.294015 -0.829600
-0.772656 0.588711 3.121521 128 128 255 0.327186 -0.449499 0.831204
-0.772656 0.588711 3.120595 128 128 255 -0.873897 0.486111 0.000000
-0.772656 0.588711 3.119602 128 128 255 -0.873484 0.486853 0.000000
-0.772656 0.588711 3.118559 128 128 255 0.555867 -0.039331 -0.830340
0.520379 -0.811873 4.117484 128 128 255 0.001541 0.555238 0.831690
0.520379 -0.811873 4.116394 128 128 255 0.418502 -0.908216 0.000000
0.520379 -0.811873 4.115309 128 128 255 0.417855 -0.908514 0.000000
0.520379 -0.811873 4.114248 128 128 255 -0.421871 0.360420 -0.831939
0.294485 1.077741 5.113227 128 128 255 -0.332496 -0.448845 0.829448
0.294485 1.077741 5.112266 128 128 255 0.198368 0.980128 0.000000
0.294485 1.077741 5.111380 128 128 255 0.199423 0.979913 0.000000
0.294485 1.077741 5.110584 128 128 255 0.200715 0.979650 0.000000
0.294485 1.077741 5.109893 128 128 255 0.129519 -0.541474 -0.830681
-0.633049 -0.577624 6.109317 128 128 255 0.528466 0.173515 0.831033
-0.633049 -0.577624 6.108868 128 128 255 -0.743949 -0.668237 0.000000
-0.633049 -0.577624 6.108551 128 128 255 -0.749774 -0.661694 0.000000
-0.633049 -0.577624 6.108374 128 128 255 0.215174 0.511430 -0.831949
1.097482 0.218060 7.108338 128 128 255 -0.527369 0.163111 0.833833
1.097482 0.218060 7.108445 128 128 255 -0.988712 -0.149826 0.000000
1.097482 0.218060 7.108692 128 128 255 -0.990827 -0.135140 0.000000
1.097482 0.218060 7.109076 128 128 255 -0.475336 -0.277162 -0.835008
-0.770927 0.587743 8.109590 128 128 255 0.331590 -0.443065 0.832911
-0.770927 0.587743 8.110225 128 128 255 0.875681 -0.482890 0.000000
-0.770927 0.587743 8.110970 128 128 255 0.874951 -0.484212 0.000000
-0.770927 0.587743 8.111813 128 128 255 0.874374 -0.485252 0.000000
-0.770927 0.587743 8.112739 128 128 255 0.548507 -0.057486 -0.834167
0.517407 -0.805425 9.113731 128 128 255 -0.013545 0.551991 0.833740
0.517407 -0.805425 9.114775 128 128 255 -0.419805 0.907615 0.000000
0.517407 -0.805425 9.115849 128 128 255 -0.419134 0.907924 0.000000
0.517407 -0.805425 9.116940 128 128 255 -0.411904 0.367686 -0.833752
0.295913 1.084922 10.118024 128 128 255 -0.308513 -0.453781 0.836004
0.295913 1.084922 10.119085 128 128 255 -0.196704 -0.980463 0.000000
0.295913 1.084922 10.120106 128 128 255 -0.197485 -0.980306 0.000000
0.295913 1.084922 10.121067 128 128 255 -0.198359 -0.980129 0.000000
0.295913 1.084922 10.121953 128 128 255 -0.228535 -0.973536 0.000000
0.100000 1.104041 0.122559 128 128 255 0.030162 -0.999545 0.000000
0.100000 1.104041 0.123278 128 128 255 -0.007010 -0.999975 0.000000
0.100000 1.104041 0.123884 128 128 255 -0.009317 -0.999957 0.000000
0.100000 1.104041 0.124366 128 128 255 -0.012986 -0.999916 0.000000
0.100000 1.104041 0.124716 128 128 255 0.223110 -0.504480 -0.834099
-0.488590 -0.710125 1.124929 128 128 255 0.479092 0.275631 0.833366
-0.488590 -0.710125 1.125000 128 128 255 0.809017 -0.587785 0.000000
-0.488590 -0.710125 1.124929 128 128 255 -0.554248 -0.832352 0.000000
-0.488590 -0.710125 1.124716 128 128 255 0.113130 0.542466 -0.832426
1.046951 0.407683 2.124366 128 128 255 -0.553001 0.064759 0.830660
1.046951 0.407683 2.123883 128 128 255 0.948136 0.317865 0.000000
1.046951 0.407683 2.123278 128 128 255 0.948866 0.315679 0.000000
1.046951 0.407683 2.122559 128 128 255 0.949381 0.314128 0.000000
1.046951 0.407683 2.121740 128 128 255 -0.407972 -0.381487 -0.829474
-0.851231 0.409074 3.120833 128 128 255 0.408395 -0.377537 0.831071
-0.851231 0.409074 3.119856 128 128 255 -0.951743 0.306897 0.000000
-0.851231 0.409074 3.118824 128 128 255 -0.951500 0.307648 0.000000
-0.851231 0.409074 3.117754 128 128 255 0.552873 0.069985 -0.830321
0.690199 -0.712340 4.116667 128 128 255 -0.106736 0.544931 0.831659
0.690199 -0.712340 4.115579 128 128 255 0.587207 -0.809437 0.000000
0.690199 -0.712340 4.114510 128 128 255 0.586623 -0.809860 0.000000
0.690199 -0.712340 4.113478 128 128 255 -0.483804 0.271411 -0.832027
0.100000 1.096896 5.112500 128 128 255 -0.238167 -0.505130 0.829530
0.100000 1.096896 5.111594 128 128 255 0.004124 0.999991 0.000000
0.100000 1.096896 5.110774 128 128 255 0.005384 0.999986 0.000000
0.100000 1.096896 5.110055 128 128 255 0.007012 0.999975 0.000000
0.100000 1.096896 5.109450 128 128 255 0.231861 -0.505857 -0.830873
-0.486766 -0.707614 6.108968 128 128 255 0.483842 0.273813 0.831218
-0.486766 -0.707614 6.108617 128 128 255 -0.603898 -0.797062 0.000000
-0.486766 -0.707614 6.108405 128 128 255 -0.620330 -0.784341 0.000000
-0.486766 -0.707614 6.108333 128 128 255 0.112062 0.543088 -0.832165
1.055283 0.410390 7.108405 128 128 255 -0.548837 0.056198 0.834038
1.055283 0.410390 7.108617 128 128 255 -0.944665 -0.328036 0.000000
1.055283 0.410390 7.108968 128 128 255 -0.946964 -0.321341 0.000000
1.055283 0.410390 7.109450 128 128 255 -0.412437 -0.363829 -0.835179
-0.849346 0.408461 8.110055 128 128 255 0.411952 -0.369112 0.833098
-0.849346 0.408461 8.110774 128 128 255 0.952709 -0.303884 0.000000
-0.849346 0.408461 8.111593 128 128 255 0.952320 -0.305101 0.000000
-0.849346 0.408461 8.112500 128 128 255 0.952011 -0.306065 0.000000
-0.849346 0.408461 8.113478 128 128 255 0.549110 0.050283 -0.834236
0.686026 -0.706596 9.114510 128 128 255 -0.121248 0.538555 0.833821
0.686026 -0.706596 9.115579 128 128 255 -0.588351 0.808606 0.000000
0.686026 -0.706596 9.116667 128 128 255 -0.587797 0.809008 0.000000
0.686026 -0.706596 9.117754 128 128 255 -0.475827 0.280191 -0.833716
0.100000 1.104218 10.118823 128 128 255 -0.214204 -0.505227 0.835980
0.100000 1.104218 10.119856 128 128 255 -0.002220 -0.999998 0.000000
0.100000 1.104218 10.120833 128 128 255 -0.003120 -0.999995 0.000000
0.100000 1.104218 10.121739 128 128 255 -0.004114 -0.999992 0.000000
0.100000 1.104218 10.122560 128 128 255 -0.034520 -0.999404 0.000000
-0.095879 1.084749 0.123108 128 128 255 0.224002 -0.974589 0.000000
-0.095879 1.084749 0.123743 128 128 255 0.186598 -0.982436 0.000000
-0.095879 1.084749 0.124257 128 128 255 0.183433 -0.983032 0.000000
-0.095879 1.084749 0.124641 128 128 255 0.177669 -0.984090 0.000000
-0.095879 1.084749 0.124889 128 128 255 0.318127 -0.451019 -0.833892
-0.319233 -0.809387 1.124996 128 128 255 0.416923 0.363353 0.833157
-0.319233 -0.809387 1.124960 128 128 255 -0.368512 -0.929623 0.000000
-0.319233 -0.809387 1.124782 128 128 255 -0.397603 -0.917558 0.000000
-0.319233 -0.809387 1.124466 128 128 255 0.004315 0.554410 -0.832232
0.968730 0.586512 2.124016 128 128 255 -0.555379 -0.043586 0.830454
0.968730 0.586512 2.123441 128 128 255 0.868803 0.495159 0.000000
0.968730 0.586512 2.122749 128 128 255 0.869676 0.493624 0.000000
0.968730 0.586512 2.121953 128 128 255 0.870330 0.492469 0.000000
0.968730 0.586512 2.121067 128 128 255 -0.325428 -0.454146 -0.829366
-0.893251 0.217559 3.120106 128 128 255 0.474122 -0.291067 0.830956
-0.893251 0.217559 3.119086 128 128 255 -0.993259 0.115918 0.000000
-0.893251 0.217559 3.118024 128 128 255 -0.993173 0.116654 0.000000
-0.893251 0.217559 3.116939 128 128 255 0.528585 0.176528 -0.830323
0.837338 -0.581589 4.115850 128 128 255 -0.211000 0.513652 0.831649
0.837338 -0.581589 4.114774 128 128 255 0.733471 -0.679721 0.000000
0.837338 -0.581589 4.113731 128 128 255 0.732948 -0.680284 0.000000
0.837338 -0.581589 4.112738 128 128 255 -0.527176 0.172148 -0.832136
-0.094485 1.077741 5.111813 128 128 255 -0.134586 -0.541845 0.829633
-0.094485 1.077741 5.110970 128 128 255 -0.190138 0.981757 0.000000
-0.094485 1.077741 5.110225 128 128 255 -0.188654 0.982044 0.000000
-0.094485 1.077741 5.109590 128 128 255 -0.186604 0.982435 0.000000
-0.094485 1.077741 5.109076 128 128 255 0.325274 -0.451126 -0.831073
-0.317934 -0.806568 6.108692 128 128 255 0.420384 0.363365 0.831410
-0.317934 -0.806568 6.108445 128 128 255 -0.448022 -0.894023 0.000000
-0.317934 -0.806568 6.108338 128 128 255 -0.560354 -0.828253 0.000000
-0.317934 -0.806568 6.108374 128 128 255 0.004831 0.554187 -0.832378
0.976374 0.590793 7.108551 128 128 255 -0.548862 -0.052788 0.834245
0.976374 0.590793 7.108868 128 128 255 -0.865424 -0.501041 0.000000
0.976374 0.590793 7.109317 128 128 255 -0.867539 -0.497369 0.000000
0.976374 0.590793 7.109893 128 128 255 -0.333950 -0.436679 -0.835337
-0.891283 0.217326 8.110584 128 128 255 0.476178 -0.280916 0.833271
-0.891283 0.217326 8.111380 128 128 255 0.993577 -0.113158 0.000000
-0.891283 0.217326 8.112267 128 128 255 0.993457 -0.114209 0.000000
-0.891283 0.217326 8.113228 128 128 255 0.993351 -0.115127 0.000000
-0.891283 0.217326 8.114247 128 128 255 0.528748 0.156174 -0.834287
0.832125 -0.576769 9.115309 128 128 255 -0.224158 0.504372 0.833884
0.832125 -0.576769 9.116394 128 128 255 -0.734450 0.678663 0.000000
0.832125 -0.576769 9.117483 128 128 255 -0.733958 0.679195 0.000000
0.832125 -0.576769 9.118559 128 128 255 -0.521493 0.181817 -0.833659
-0.095913 1.084922 10.119602 128 128 255 -0.111753 -0.537324 0.835939
-0.095913 1.084922 10.120595 128 128 255 0.192246 -0.981347 0.000000
-0.095913 1.084922 10.121521 128 128 255 0.191324 -0.981527 0.000000
-0.095913 1.084922 10.122363 128 128 255 0.190137 -0.981758 0.000000
-0.095913 1.084922 10.123109 128 128 255 0.160720 -0.987000 0.000000
-0.284230 1.027613 0.123596 128 128 255 0.409097 -0.912491 0.000000
-0.284230 1.027613 0.124141 128 128 255 0.372583 -0.927999 0.000000
-0.284230 1.027613 0.124558 128 128 255 0.367996 -0.929828 0.000000
-0.284230 1.027613 0.124840 128 128 255 0.357566 -0.933888 0.000000
-0.284230 1.027613 0.124982 128 128 255 0.400832 -0.379875 -0.833684
-0.133765 -0.873701 1.124982 128 128 255 0.338913 0.437426 0.832945
-0.133765 -0.873701 1.124840 128 128 255 -0.207081 -0.978324 0.000000
-0.133765 -0.873701 1.124558 128 128 255 -0.218003 -0.975948 0.000000
-0.133765 -0.873701 1.124141 128 128 255 -0.104743 0.544725 -0.832048
0.857123 0.746644 2.123595 128 128 255 -0.536697 -0.150434 0.830257
0.857123 0.746644 2.122932 128 128 255 0.756407 0.654101 0.000000
0.857123 0.746644 2.122161 128 128 255 0.757334 0.653028 0.000000
0.857123 0.746644 2.121296 128 128 255 0.758065 0.652179 0.000000
0.857123 0.746644 2.120353 128 128 255 -0.230278 -0.509189 -0.829276
-0.897101 0.021526 3.119345 128 128 255 0.521809 -0.193364 0.830858
-0.897101 0.021526 3.118292 128 128 255 -0.996833 -0.079524 0.000000
-0.897101 0.021526 3.117212 128 128 255 -0.996890 -0.078809 0.000000
-0.897101 0.021526 3.116122 128 128 255 0.483986 0.276187 -0.830348
0.956142 -0.424644 4.115041 128 128 255 -0.307216 0.462556 0.831661
0.956142 -0.424644 4.113988 128 128 255 0.851682 -0.524059 0.000000
0.956142 -0.424644 4.112981 128 128 255 0.851253 -0.524756 0.000000
0.956142 -0.424644 4.112037 128 128 255 -0.550386 0.066446 -0.832262
-0.281495 1.021011 5.111172 128 128 255 -0.025774 -0.557533 0.829755
-0.281495 1.021011 5.110401 128 128 255 -0.377008 0.926210 0.000000
-0.281495 1.021011 5.109738 128 128 255 -0.375223 0.926935 0.000000
-0.281495 1.021011 5.109193 128 128 255 -0.372598 0.927993 0.000000
-0.281495 1.021011 5.108776 128 128 255 0.406240 -0.379396 -0.831281
-0.133041 -0.870684 6.108493 128 128 255 0.340571 0.438671 0.831612
-0.133041 -0.870684 6.108351 128 128 255 -0.312256 -0.949998 0.000000
-0.133041 -0.870684 6.108351 128 128 255 0.153068 0.988216 0.000000
-0.133041 -0.870684 6.108493 128 128 255 -0.102473 0.544335 -0.832586
0.863786 0.752334 7.108776 128 128 255 -0.527482 -0.159574 0.834446
0.863786 0.752334 7.109193 128 128 255 -0.753287 -0.657692 0.000000
0.863786 0.752334 7.109738 128 128 255 -0.755145 -0.655558 0.000000
0.863786 0.752334 7.110401 128 128 255 -0.242836 -0.492947 -0.835484
-0.895125 0.021682 8.111172 128 128 255 0.521817 -0.181929 0.833432
-0.895125 0.021682 8.112037 128 128 255 0.996629 0.082044 0.000000
-0.895125 0.021682 8.112981 128 128 255 0.996707 0.081092 0.000000
-0.895125 0.021682 8.113988 128 128 255 0.996773 0.080269 0.000000
-0.895125 0.021682 8.115041 128 128 255 0.488160 0.256150 -0.834318
0.950088 -0.420935 9.116121 128 128 255 -0.318332 0.450808 0.833929
0.950088 -0.420935 9.117211 128 128 255 -0.852451 0.522807 0.000000
0.950088 -0.420935 9.118293 128 128 255 -0.852086 0.523402 0.000000
0.950088 -0.420935 9.119346 128 128 255 -0.547101 0.076312 -0.833581
-0.284298 1.027776 10.120353 128 128 255 -0.005092 -0.548894 0.835876
-0.284298 1.027776 10.121297 128 128 255 0.379374 -0.925243 0.000000
-0.284298 1.027776 10.122161 128 128 255 0.378312 -0.925678 0.000000
-0.284298 1.027776 10.122932 128 128 255 0.377007 -0.926210 0.000000
-0.284298 1.027776 10.123595 128 128 255 0.349702 -0.936861 0.000000
-0.457815 0.934830 0.124016 128 128 255 0.578303 -0.815822 0.000000
-0.457815 0.934830 0.124466 128 128 255 0.543630 -0.839325 0.000000
-0.457815 0.934830 0.124782 128 128 255 0.536244 -0.844063 0.000000
-0.457815 0.934830 0.124960 128 128 255 0.509396 -0.860532 0.000000
-0.457815 0.934830 0.124996 128 128 255 0.467970 -0.293808 -0.833475
0.060686 -0.900597 1.124889 128 128 255 0.247988 0.495036 0.832731
0.060686 -0.900597 1.124641 128 128 255 -0.021528 -0.999768 0.000000
0.060686 -0.900597 1.124257 128 128 255 -0.027397 -0.999625 0.000000
0.060686 -0.900597 1.123743 128 128 255 -0.209781 0.513788 -0.831874
0.716421 0.881927 2.123108 128 128 255 -0.497615 -0.251725 0.830069
0.716421 0.881927 2.122363 128 128 255 0.615130 0.788426 0.000000
0.716421 0.881927 2.121521 128 128 255 0.616061 0.787699 0.000000
0.716421 0.881927 2.120595 128 128 255 0.616834 0.787093 0.000000
0.716421 0.881927 2.119602 128 128 255 -0.126241 -0.544497 -0.829208
-0.862632 -0.171490 3.118559 128 128 255 0.549577 -0.088142 0.830780
-0.862632 -0.171490 3.117483 128 128 255 -0.962312 -0.271947 0.000000
-0.862632 -0.171490 3.116394 128 128 255 -0.962503 -0.271270 0.000000
-0.862632 -0.171490 3.115309 128 128 255 0.420846 0.365152 -0.830393
1.042044 -0.247539 4.114248 128 128 255 -0.391638 0.393579 0.831694
1.042044 -0.247539 4.113227 128 128 255 0.937346 -0.348400 0.000000
1.042044 -0.247539 4.112266 128 128 255 0.937029 -0.349251 0.000000
1.042044 -0.247539 4.111380 128 128 255 -0.552603 -0.041642 -0.832404
-0.453846 0.928888 5.110584 128 128 255 0.084030 -0.551557 0.829894
-0.453846 0.928888 5.109893 128 128 255 -0.549306 0.835621 0.000000
-0.453846 0.928888 5.109317 128 128 255 -0.547183 0.837013 0.000000
-0.453846 0.928888 5.108868 128 128 255 -0.543631 0.839325 0.000000
-0.453846 0.928888 5.108551 128 128 255 0.471736 -0.293409 -0.831491
0.060808 -0.897496 6.108374 128 128 255 0.247543 0.496791 0.831818
0.060808 -0.897496 6.108338 128 128 255 -0.123261 0.992374 0.000000
0.060808 -0.897496 6.108445 128 128 255 0.006687 0.999978 0.000000
0.060808 -0.897496 6.108692 128 128 255 -0.205799 0.513917 -0.832788
0.721845 0.888807 7.109076 128 128 255 -0.485561 -0.260004 0.834643
0.721845 0.888807 7.109590 128 128 255 -0.612282 -0.790640 0.000000
0.721845 0.888807 7.110225 128 128 255 -0.613930 -0.789360 0.000000
0.721845 0.888807 7.110970 128 128 255 -0.142528 -0.530503 -0.835615
-0.860725 -0.170952 8.111813 128 128 255 0.547145 -0.076019 0.833579
-0.860725 -0.170952 8.112739 128 128 255 0.961673 0.274198 0.000000
-0.860725 -0.170952 8.113731 128 128 255 0.961904 0.273386 0.000000
-0.860725 -0.170952 8.114775 128 128 255 0.962112 0.272654 0.000000
-0.860725 -0.170952 8.115849 128 128 255 0.428849 0.346390 -0.834328
1.035383 -0.245081 9.116940 128 128 255 -0.400178 0.379980 0.833950
1.035383 -0.245081 9.118024 128 128 255 -0.937887 0.346941 0.000000
1.035383 -0.245081 9.119085 128 128 255 -0.937621 0.347660 0.000000
1.035383 -0.245081 9.120106 128 128 255 -0.551599 -0.032263 -0.833485
-0.457914 0.934977 10.121067 128 128 255 0.101728 -0.539535 0.835795
-0.457914 0.934977 10.121953 128 128 255 0.551883 -0.833922 0.000000
-0.457914 0.934977 10.122749 128 128 255 0.550800 -0.834637 0.000000
-0.457914 0.934977 10.123441 128 128 255 0.549306 -0.835621 0.000000
-0.457914 0.934977 10.124016 128 128 255 0.525290 -0.850923 0.000000
-0.609964 0.809964 0.124366 128 128 255 0.725046 -0.688701 0.000000
-0.609964 0.809964 0.124716 128 128 255 0.692770 -0.721158 0.000000
-0.609964 0.809964 0.124929 128 128 255 0.677647 -0.735387 0.000000
-0.609964 0.809964 0.125000 128 128 255 -0.707107 -0.707107 0.000000
-0.609964 0.809964 0.124929 128 128 255 0.516895 -0.196171 -0.833269
0.256649 -0.889041 1.124716 128 128 255 0.147563 0.533983 0.832519
0.256649 -0.889041 1.124366 128 128 255 0.169251 -0.985573 0.000000
0.256649 -0.889041 1.123883 128 128 255 0.165630 -0.986188 0.000000
0.256649 -0.889041 1.123278 128 128 255 -0.306693 0.462812 -0.831712
0.552031 0.987160 2.122559 128 128 255 -0.439567 -0.343597 0.829892
0.552031 0.987160 2.121740 128 128 255 0.450308 0.892873 0.000000
0.552031 0.987160 2.120833 128 128 255 0.451220 0.892413 0.000000
0.552031 0.987160 2.119856 128 128 255 0.452004 0.892016 0.000000
0.552031 0.987160 2.118824 128 128 255 -0.017366 -0.558742 -0.829160
-0.791170 -0.354074 3.117754 128 128 255 0.556306 0.020578 0.830723
-0.791170 -0.354074 3.116667 128 128 255 -0.891007 -0.453990 0.000000
-0.791170 -0.354074 3.115579 128 128 255 -0.891326 -0.453364 0.000000
-0.791170 -0.354074 3.114510 128 128 255 0.341639 0.440024 -0.830459
1.091745 -0.057077 4.113478 128 128 255 -0.460970 0.309363 0.831746
1.091745 -0.057077 4.112500 128 128 255 0.987197 -0.159506 0.000000
1.091745 -0.057077 4.111594 128 128 255 0.987035 -0.160506 0.000000
1.091745 -0.057077 4.110774 128 128 255 -0.533799 -0.148001 -0.832559
-0.604912 0.804912 5.110055 128 128 255 0.190539 -0.524132 0.830048
-0.604912 0.804912 5.109450 128 128 255 -0.700487 0.713665 0.000000
-0.604912 0.804912 5.108968 128 128 255 -0.697865 0.716229 0.000000
-0.604912 0.804912 5.108617 128 128 255 -0.692778 0.721151 0.000000
-0.604912 0.804912 5.108405 128 128 255 0.519304 -0.196443 -0.831705
0.256163 -0.885975 6.108333 128 128 255 0.144945 0.535463 0.832028
0.256163 -0.885975 6.108405 128 128 255 -0.196635 0.980477 0.000000
0.256163 -0.885975 6.108617 128 128 255 -0.176219 0.984351 0.000000
0.256163 -0.885975 6.108968 128 128 255 -0.301265 0.464093 -0.832981
0.556008 0.994967 7.109450 128 128 255 -0.424779 -0.350168 0.834833
0.556008 0.994967 7.110055 128 128 255 -0.447732 -0.894168 0.000000
0.556008 0.994967 7.110774 128 128 255 -0.449187 -0.893438 0.000000
0.556008 0.994967 7.111594 128 128 255 -0.036813 -0.547906 -0.835730
-0.789404 -0.353174 8.112500 128 128 255 0.551235 0.032688 0.833709
-0.789404 -0.353174 8.113478 128 128 255 0.889996 0.455968 0.000000
-0.789404 -0.353174 8.114510 128 128 255 0.890347 0.455283 0.000000
-0.789404 -0.353174 8.115579 128 128 255 0.890689 0.454614 0.000000
-0.789404 -0.353174 8.116667 128 128 255 0.353041 0.423408 -0.834319
1.084732 -0.055966 9.117754 128 128 255 -0.466600 0.294628 0.833954
1.084732 -0.055966 9.118823 128 128 255 -0.987463 0.157852 0.000000
1.084732 -0.055966 9.119856 128 128 255 -0.987339 0.158627 0.000000
1.084732 -0.055966 9.120833 128 128 255 -0.534759 -0.139724 -0.833373
-0.610089 0.810089 10.121739 128 128 255 0.204661 -0.509629 0.835699
-0.610089 0.810089 10.122560 128 128 255 0.703282 -0.710911 0.000000
-0.610089 0.810089 10.123278 128 128 255 0.702122 -0.712057 0.000000
-0.610089 0.810089 10.123883 128 128 255 0.700500 -0.713652 0.000000
-0.610089 0.810089 10.124366 128 128 255 0.680643 -0.732615 0.000000
-0.734830 0.657815 0.124641 128 128 255 0.843481 -0.537159 0.000000
-0.734830 0.657815 0.124889 128 128 255 0.812936 -0.582354 0.000000
-0.734830 0.657815 0.124996 128 128 255 0.730377 -0.683044 0.000000
-0.734830 0.657815 0.124960 128 128 255 -0.860533 0.509395 0.000000
-0.734830 0.657815 0.124782 128 128 255 0.545674 -0.090776 -0.833066
0.446591 -0.839476 1.124466 128 128 255 0.041417 0.552762 0.832309
0.446591 -0.839476 1.124016 128 128 255 0.355544 -0.934659 0.000000
0.446591 -0.839476 1.123440 128 128 255 0.353146 -0.935568 0.000000
0.446591 -0.839476 1.122749 128 128 255 -0.391694 0.393799 -0.831564
0.370269 1.058300 2.121953 128 128 255 -0.364715 -0.422530 0.829729
0.370269 1.058300 2.121067 128 128 255 0.268221 0.963357 0.000000
0.370269 1.058300 2.120106 128 128 255 0.269089 0.963115 0.000000
0.370269 1.058300 2.119086 128 128 255 0.269871 0.962897 0.000000
0.370269 1.058300 2.118024 128 128 255 0.092120 -0.551410 -0.829133
-0.685461 -0.519208 3.116939 128 128 255 0.541685 0.128614 0.830684
-0.685461 -0.519208 3.115850 128 128 255 -0.785645 -0.618678 0.000000
-0.685461 -0.519208 3.114774 128 128 255 -0.786092 -0.618109 0.000000
-0.685461 -0.519208 3.113731 128 128 255 0.249446 0.497966 -0.830546
1.103333 0.139421 4.112738 128 128 255 -0.512492 0.213141 0.831819
1.103333 0.139421 4.111813 128 128 255 0.999373 0.035415 0.000000
1.103333 0.139421 4.110970 128 128 255 0.999414 0.034216 0.000000
1.103333 0.139421 4.110225 128 128 255 -0.494743 -0.248584 -0.832728
-0.728888 0.653846 5.109590 128 128 255 0.289593 -0.476314 0.830217
-0.728888 0.653846 5.109076 128 128 255 -0.824820 0.565396 0.000000
-0.728888 0.653846 5.108692 128 128 255 -0.821481 0.570236 0.000000
-0.728888 0.653846 5.108445 128 128 255 -0.812930 0.582362 0.000000
-0.728888 0.653846 5.108338 128 128 255 0.547192 -0.092167 -0.831917
0.445517 -0.836564 6.108374 128 128 255 0.036800 0.553194 0.832239
0.445517 -0.836564 6.108551 128 128 255 -0.367651 0.929964 0.000000
0.445517 -0.836564 6.108868 128 128 255 -0.359490 0.933149 0.000000
0.445517 -0.836564 6.109317 128 128 255 -0.385265 0.396748 -0.833164
0.372647 1.066733 7.109893 128 128 255 -0.347544 -0.426576 0.835013
0.372647 1.066733 7.110584 128 128 255 -0.265914 -0.963997 0.000000
0.372647 1.066733 7.111380 128 128 255 -0.267184 -0.963645 0.000000
0.372647 1.066733 7.112266 128 128 255 0.070310 -0.544473 -0.835827
-0.683905 -0.517981 8.113228 128 128 255 0.533991 0.139985 0.833822
-0.683905 -0.517981 8.114247 128 128 255 0.784306 0.620374 0.000000
-0.683905 -0.517981 8.115309 128 128 255 0.784764 0.619795 0.000000
-0.683905 -0.517981 8.116394 128 128 255 0.785201 0.619241 0.000000
-0.683905 -0.517981 8.117483 128 128 255 0.263600 0.484227 -0.834289
1.096238 0.139142 9.118559 128 128 255 -0.515097 0.198054 0.833937
1.096238 0.139142 9.119602 128 128 255 -0.999306 -0.037239 0.000000
1.096238 0.139142 9.120595 128 128 255 -0.999339 -0.036362 0.000000
1.096238 0.139142 9.121521 128 128 255 -0.497176 -0.241920 -0.833241
-0.734977 0.657914 10.122363 128 128 255 0.299802 -0.460343 0.835585
-0.734977 0.657914 10.123109 128 128 255 0.827809 -0.561010 0.000000
-0.734977 0.657914 10.123743 128 128 255 0.826633 -0.562741 0.000000
-0.734977 0.657914 10.124257 128 128 255 0.824822 -0.565392 0.000000
-0.734977 0.657914 10.124641 128 128 255 0.809782 -0.586731 0.000000
-0.827613 0.484230 0.124840 128 128 255 0.928022 -0.372526 0.000000
-0.827613 0.484230 0.124982 128 128 255 0.889479 -0.456976 0.000000
-0.827613 0.484230 0.124982 128 128 255 -0.952087 0.305826 0.000000
-0.827613 0.484230 0.124840 128 128 255 -0.933888 0.357566 0.000000
-0.827613 0.484230 0.124558 128 128 255 0.553169 0.018256 -0.832869
0.623214 -0.753808 1.124141 128 128 255 -0.066444 0.550624 0.832105
0.623214 -0.753808 1.123596 128 128 255 0.529349 -0.848404 0.000000
0.623214 -0.753808 1.122932 128 128 255 0.527717 -0.849420 0.000000
0.623214 -0.753808 1.122161 128 128 255 -0.461477 0.309454 -0.831431
0.178120 1.092614 2.121296 128 128 255 -0.275865 -0.485482 0.829582
0.178120 1.092614 2.120353 128 128 255 0.075813 0.997122 0.000000
0.178120 1.092614 2.119345 128 128 255 0.076638 0.997059 0.000000
0.178120 1.092614 2.118292 128 128 255 0.077395 0.997001 0.000000
0.178120 1.092614 2.117212 128 128 255 0.197978 -0.522829 -0.829129
-0.549567 -0.660546 3.116122 128 128 255 0.506219 0.231805 0.830668
-0.549567 -0.660546 3.115041 128 128 255 -0.650260 -0.759712 0.000000
-0.549567 -0.660546 3.113988 128 128 255 -0.650836 -0.759218 0.000000
-0.549567 -0.660546 3.112981 128 128 255 0.147834 0.536807 -0.830652
1.076363 0.334404 4.112037 128 128 255 -0.544169 0.108636 0.831912
1.076363 0.334404 4.111172 128 128 255 0.973460 0.228855 0.000000
1.076363 0.334404 4.110401 128 128 255 0.973784 0.227475 0.000000
1.076363 0.334404 4.109738 128 128 255 -0.436968 -0.339594 -0.832907
-0.821011 0.481495 5.109193 128 128 255 0.377317 -0.409961 0.830400
-0.821011 0.481495 5.108776 128 128 255 -0.917694 0.397287 0.000000
-0.821011 0.481495 5.108493 128 128 255 -0.913202 0.407507 0.000000
-0.821011 0.481495 5.108351 128 128 255 -0.889454 0.457024 0.000000
-0.821011 0.481495 5.108351 128 128 255 0.554366 0.015469 -0.832129
0.621592 -0.751162 6.108493 128 128 255 -0.072652 0.549318 0.832449
0.621592 -0.751162 6.108776 128 128 255 -0.535955 0.844247 0.000000
0.621592 -0.751162 6.109193 128 128 255 -0.531755 0.846898 0.000000
0.621592 -0.751162 6.109738 128 128 255 -0.454634 0.314422 -0.833334
0.178808 1.101348 7.110401 128 128 255 -0.256893 -0.486286 0.835184
0.178808 1.101348 7.111172 128 128 255 -0.073755 -0.997276 0.000000
0.178808 1.101348 7.112037 128 128 255 -0.074873 -0.997193 0.000000
0.178808 1.101348 7.112981 128 128 255 0.174769 -0.520301 -0.835908
-0.548280 -0.659039 8.113988 128 128 255 0.496129 0.241739 0.833917
-0.548280 -0.659039 8.115041 128 128 255 0.648619 0.761113 0.000000
-0.548280 -0.659039 8.116121 128 128 255 0.649184 0.760632 0.000000
-0.548280 -0.659039 8.117211 128 128 255 0.649723 0.760171 0.000000
-0.548280 -0.659039 8.118293 128 128 255 0.163920 0.526475 -0.834239
1.069460 0.332747 9.119346 128 128 255 -0.543859 0.093964 0.833900
1.069460 0.332747 9.120353 128 128 255 -0.972987 -0.230860 0.000000
1.069460 0.332747 9.121297 128 128 255 -0.973199 -0.229963 0.000000
1.069460 0.332747 9.122161 128 128 255 -0.440248 -0.334866 -0.833094
-0.827776 0.484298 10.122932 128 128 255 0.383558 -0.393574 0.835454
-0.827776 0.484298 10.123595 128 128 255 0.920765 -0.390118 0.000000
-0.827776 0.484298 10.124141 128 128 255 0.919662 -0.392710 0.000000
-0.827776 0.484298 10.124557 128 128 255 0.917691 -0.397294 0.000000
-0.827776 0.484298 10.124840 128 128 255 0.907892 -0.419205 0.000000
-0.884749 0.295879 0.124960 128 128 255 -0.189884 -0.981807 0.000000
-0.884749 0.295879 0.124996 128 128 255 -0.999440 0.033470 0.000000
-0.884749 0.295879 0.124889 128 128 255 -0.986618 0.163046 0.000000
-0.884749 0.295879 0.124641 128 128 255 -0.984090 0.177669 0.000000
-0.884749 0.295879 0.124257 128 128 255 0.539074 0.126657 -0.832681
0.779730 -0.635328 1.123743 128 128 255 -0.171937 0.527607 0.831907
0.779730 -0.635328 1.123108 128 128 255 0.683600 -0.729857 0.000000
0.779730 -0.635328 1.122363 128 128 255 0.682491 -0.730894 0.000000
0.779730 -0.635328 1.121521 128 128 255 -0.513336 0.213080 -0.831314
-0.017030 1.088782 2.120595 128 128 255 -0.176374 -0.530004 0.829450
-0.017030 1.088782 2.119602 128 128 255 -0.119549 0.992828 0.000000
-0.017030 1.088782 2.118559 128 128 255 -0.118786 0.992920 0.000000
-0.017030 1.088782 2.117483 128 128 255 -0.118060 0.993006 0.000000
-0.017030 1.088782 2.116394 128 128 255 0.296136 -0.474153 -0.829145
-0.388711 -0.772656 3.115309 128 128 255 0.451229 0.326151 0.830673
-0.388711 -0.772656 3.114248 128 128 255 -0.490040 -0.871700 0.000000
-0.388711 -0.772656 3.113227 128 128 255 -0.490751 -0.871300 0.000000
-0.388711 -0.772656 3.112266 128 128 255 0.040711 0.555116 -0.830776
1.011873 0.520379 4.111380 128 128 255 -0.554741 -0.000093 0.832023
1.011873 0.520379 4.110584 128 128 255 0.910530 0.413442 0.000000
1.011873 0.520379 4.109893 128 128 255 0.911264 0.411823 0.000000
1.011873 0.520379 4.109317 128 128 255 -0.362711 -0.417603 -0.833096
-0.877741 0.294485 5.108868 128 128 255 0.450277 -0.327671 0.830591
-0.877741 0.294485 5.108551 128 128 255 -0.976028 0.217646 0.000000
-0.877741 0.294485 5.108374 128 128 255 -0.968665 0.248369 0.000000
-0.877741 0.294485 5.108338 128 128 255 0.999439 -0.033499 0.000000
-0.877741 0.294485 5.108445 128 128 255 0.540585 0.122408 -0.832337
0.777624 -0.633049 6.108692 128 128 255 -0.179138 0.524015 0.832657
0.777624 -0.633049 6.109076 128 128 255 -0.687465 0.726217 0.000000
0.777624 -0.633049 6.109590 128 128 255 -0.685124 0.728427 0.000000
0.777624 -0.633049 6.110225 128 128 255 -0.506750 0.220219 -0.833492
-0.018060 1.097482 7.110970 128 128 255 -0.156388 -0.527017 0.835342
-0.018060 1.097482 7.111813 128 128 255 0.121358 -0.992609 0.000000
-0.018060 1.097482 7.112738 128 128 255 0.120400 -0.992725 0.000000
-0.018060 1.097482 7.113731 128 128 255 0.272606 -0.476280 -0.835969
-0.387743 -0.770927 8.114775 128 128 255 0.439170 0.334042 0.833994
-0.387743 -0.770927 8.115849 128 128 255 0.488165 0.872751 0.000000
-0.387743 -0.770927 8.116940 128 128 255 0.488773 0.872411 0.000000
-0.387743 -0.770927 8.118024 128 128 255 0.489388 0.872066 0.000000
-0.387743 -0.770927 8.119085 128 128 255 0.057817 0.548468 -0.834170
1.005425 0.517407 9.120106 128 128 255 -0.551836 -0.013655 0.833841
1.005425 0.517407 9.121067 128 128 255 -0.909534 -0.415630 0.000000
1.005425 0.517407 9.121953 128 128 255 -0.909988 -0.414634 0.000000
1.005425 0.517407 9.122749 128 128 255 -0.366134 -0.414934 -0.832932
-0.884922 0.295913 10.123441 128 128 255 0.452780 -0.311850 0.835308
-0.884922 0.295913 10.124016 128 128 255 0.978774 -0.204944 0.000000
-0.884922 0.295913 10.124466 128 128 255 0.977895 -0.209098 0.000000
-0.884922 0.295913 10.124783 128 128 255 0.976033 -0.217622 0.000000
-0.884922 0.295913 10.124960 128 128 255 0.971346 -0.237668 0.000000
-0.904041 0.100000 0.125000 128 128 255 -0.998511 -0.054544 0.000000
-0.904041 0.100000 0.124929 128 128 255 -0.999166 -0.040828 0.000000
-0.904041 0.100000 0.124716 128 128 255 -0.999799 -0.020073 0.000000
-0.904041 0.100000 0.124366 128 128 255 -0.999916 -0.012986 0.000000
-0.904041 0.100000 0.123884 128 128 255 0.503940 0.230186 -0.832502
0.910125 -0.488590 1.123278 128 128 255 -0.271058 0.484533 0.831718
0.910125 -0.488590 1.122559 128 128 255 0.812167 -0.583426 0.000000
0.910125 -0.488590 1.121740 128 128 255 0.811437 -0.584440 0.000000
0.910125 -0.488590 1.120833 128 128 255 -0.545270 0.108445 -0.831216
-0.207683 1.046951 2.119856 128 128 255 -0.070015 -0.554344 0.829338
-0.207683 1.046951 2.118824 128 128 255 -0.310386 0.950611 0.000000
-0.207683 1.046951 2.117754 128 128 255 -0.309689 0.950838 0.000000
-0.207683 1.046951 2.116667 128 128 255 -0.309017 0.951056 0.000000
-0.207683 1.046951 2.115579 128 128 255 0.382827 -0.407305 -0.829184
-0.209074 -0.851231 3.114510 128 128 255 0.378803 0.407982 0.830698
-0.209074 -0.851231 3.113478 128 128 255 -0.311135 -0.950366 0.000000
-0.209074 -0.851231 3.112500 128 128 255 -0.311970 -0.950092 0.000000
-0.209074 -0.851231 3.111594 128 128 255 -0.067819 0.552248 -0.830917
0.912340 0.690199 4.110774 128 128 255 -0.543769 -0.108815 0.832150
0.912340 0.690199 4.110055 128 128 255 0.813119 0.582098 0.000000
0.912340 0.690199 4.109450 128 128 255 0.814459 0.580221 0.000000
0.912340 0.690199 4.108968 128 128 255 -0.274819 -0.479686 -0.833292
-0.896896 0.100000 5.108617 128 128 255 0.505621 -0.232659 0.830793
-0.896896 0.100000 5.108405 128 128 255 -0.999166 0.040834 0.000000
-0.896896 0.100000 5.108333 128 128 255 -0.000000 1.000000 0.000000
-0.896896 0.100000 5.108405 128 128 255 0.999166 0.040834 0.000000
-0.896896 0.100000 5.108617 128 128 255 0.506386 0.224619 -0.832538
0.907614 -0.486766 6.108968 128 128 255 -0.278499 0.478313 0.832859
0.907614 -0.486766 6.109450 128 128 255 -0.814459 0.580221 0.000000
0.907614 -0.486766 6.110055 128 128 255 -0.813119 0.582098 0.000000
0.907614 -0.486766 6.110774 128 128 255 -0.539632 0.117693 -0.833634
-0.210390 1.055283 7.111594 128 128 255 -0.049948 -0.547235 0.835487
-0.210390 1.055283 7.112500 128 128 255 0.311974 -0.950091 0.000000
-0.210390 1.055283 7.113478 128 128 255 0.311136 -0.950366 0.000000
-0.210390 1.055283 7.114510 128 128 255 0.360069 -0.414046 -0.836012
-0.208461 -0.849346 8.115579 128 128 255 0.365355 0.413371 0.834050
-0.208461 -0.849346 8.116667 128 128 255 0.309003 0.951061 0.000000
-0.208461 -0.849346 8.117754 128 128 255 0.309696 0.950836 0.000000
-0.208461 -0.849346 8.118823 128 128 255 0.310382 0.950612 0.000000
-0.208461 -0.849346 8.119856 128 128 255 -0.050642 0.549308 -0.834084
0.906596 0.686026 9.120833 128 128 255 -0.538756 -0.120726 0.833767
0.906596 0.686026 9.121739 128 128 255 -0.811429 -0.584452 0.000000
0.906596 0.686026 9.122560 128 128 255 -0.812176 -0.583412 0.000000
0.906596 0.686026 9.123278 128 128 255 -0.277673 -0.478970 -0.832758
-0.904218 0.100000 10.123883 128 128 255 0.504859 -0.218278 0.835148
-0.904218 0.100000 10.124366 128 128 255 0.999916 -0.012990 0.000000
-0.904218 0.100000 10.124716 128 128 255 0.999798 -0.020096 0.000000
-0.904218 0.100000 10.124928 128 128 255 0.999169 -0.040755 0.000000
-0.904218 0.100000 10.125000 128 128 255 0.998517 -0.054441 0.000000
-0.884749 -0.095879 0.124960 128 128 255 -0.971355 -0.237632 0.000000
-0.884749 -0.095879 0.124782 128 128 255 -0.976025 -0.217661 0.000000
-0.884749 -0.095879 0.124466 128 128 255 -0.977897 -0.209088 0.000000
-0.884749 -0.095879 0.124016 128 128 255 -0.978772 -0.204951 0.000000
-0.884749 -0.095879 0.123440 128 128 255 0.449141 0.324794 -0.832335
1.009387 -0.319233 1.122749 128 128 255 -0.360024 0.422993 0.831541
1.009387 -0.319233 1.121953 128 128 255 0.909983 -0.414646 0.000000
1.009387 -0.319233 1.121067 128 128 255 0.909539 -0.415620 0.000000
1.009387 -0.319233 1.120106 128 128 255 -0.556068 -0.000372 -0.831137
-0.386512 0.968730 2.119086 128 128 255 0.039155 -0.557514 0.829243
-0.386512 0.968730 2.118024 128 128 255 -0.489397 0.872061 0.000000
-0.386512 0.968730 2.116939 128 128 255 -0.488773 0.872411 0.000000
-0.386512 0.968730 2.115850 128 128 255 -0.488159 0.872755 0.000000
-0.386512 0.968730 2.114774 128 128 255 0.454745 -0.324902 -0.829244
-0.017559 -0.893251 3.113731 128 128 255 0.291703 0.474102 0.830744
-0.017559 -0.893251 3.112738 128 128 255 -0.120392 -0.992726 0.000000
-0.017559 -0.893251 3.111813 128 128 255 -0.121366 -0.992608 0.000000
-0.017559 -0.893251 3.110970 128 128 255 -0.173614 0.528370 -0.831074
0.781589 0.837338 4.110225 128 128 255 -0.511658 -0.213290 0.832294
0.781589 0.837338 4.109590 128 128 255 0.685124 0.728427 0.000000
0.781589 0.837338 4.109076 128 128 255 0.687465 0.726217 0.000000
0.781589 0.837338 4.108692 128 128 255 -0.176645 -0.523531 -0.833494
-0.877741 -0.094485 5.108445 128 128 255 0.541189 -0.128649 0.831002
-0.877741 -0.094485 5.108338 128 128 255 -0.999439 -0.033499 0.000000
-0.877741 -0.094485 5.108374 128 128 255 0.968665 0.248369 0.000000
-0.877741 -0.094485 5.108551 128 128 255 0.976028 0.217646 0.000000
-0.877741 -0.094485 5.108868 128 128 255 0.453071 0.318251 -0.832732
1.006568 -0.317934 6.109317 128 128 255 -0.366875 0.414029 0.833056
1.006568 -0.317934 6.109893 128 128 255 -0.911264 0.411823 0.000000
1.006568 -0.317934 6.110584 128 128 255 -0.910530 0.413442 0.000000
1.006568 -0.317934 6.111380 128 128 255 -0.552024 0.010712 -0.833760
-0.390793 0.976374 7.112266 128 128 255 0.058282 -0.546212 0.835617
-0.390793 0.976374 7.113227 128 128 255 0.490744 -0.871304 0.000000
-0.390793 0.976374 7.114248 128 128 255 0.490050 -0.871695 0.000000
-0.390793 0.976374 7.115309 128 128 255 0.433814 -0.335934 -0.836034
-0.017326 -0.891283 8.116394 128 128 255 0.277561 0.476716 0.834087
-0.017326 -0.891283 8.117483 128 128 255 0.118071 0.993005 0.000000
-0.017326 -0.891283 8.118559 128 128 255 0.118775 0.992921 0.000000
