ply
format ascii 1.0
element vertex 702
property float x
property float y
property float z
property uchar red
property uchar green
property uchar blue
property float nx
property float ny
property float nz
end_header
-0.258605 1.100075 0.241818 128 128 255 -0.000045 1.000000 0.000000
-0.258605 1.100075 0.241803 128 128 255 -0.000045 1.000000 0.000000
-0.258605 1.100075 0.241787 128 128 255 -0.000045 1.000000 0.000000
-0.258605 1.100075 0.241771 128 128 255 -0.000045 1.000000 0.000000
-0.258605 1.100075 0.241755 128 128 255 -0.000045 1.000000 0.000000
-0.258605 1.100075 0.241738 128 128 255 -0.000045 1.000000 0.000000
-0.258605 1.100075 0.241722 128 128 255 -0.000045 1.000000 0.000000
-0.258605 1.100075 0.241706 128 128 255 -0.000045 1.000000 0.000000
-0.258605 1.100075 0.241691 128 128 255 -0.000045 1.000000 0.000000
-0.258605 1.100075 0.241676 128 128 255 -0.000045 1.000000 0.000000
-0.258605 1.100075 0.241662 128 128 255 -0.000045 1.000000 0.000000
-0.258605 1.100075 0.241649 128 128 255 -0.000045 1.000000 0.000000
-0.258605 1.100075 0.241637 128 128 255 -0.000045 1.000000 0.000000
-0.258605 1.100075 0.241626 128 128 255 -0.000045 1.000000 0.000000
-0.258605 1.100075 0.241616 128 128 255 -0.000045 1.000000 0.000000
-0.258605 1.100075 0.241608 128 128 255 -0.000045 1.000000 0.000000
-0.258605 1.100075 0.241601 128 128 255 -0.000045 1.000000 0.000000
-0.258605 1.100075 0.241595 128 128 255 -0.000044 1.000000 0.000000
-0.258605 1.100075 0.241591 128 128 255 -0.000012 -1.000000 -0.000022
0.741460 1.100060 0.241589 128 128 255 -0.000016 -1.000000 0.000011
0.741460 1.100060 0.241588 128 128 255 -0.000055 -1.000000 0.000000
0.741460 1.100060 0.241589 128 128 255 -0.000055 -1.000000 0.000000
0.741460 1.100060 0.241591 128 128 255 -0.000055 -1.000000 0.000000
0.741460 1.100060 0.241595 128 128 255 -0.000055 -1.000000 0.000000
0.741460 1.100060 0.241601 128 128 255 -0.000055 -1.000000 0.000000
0.741460 1.100060 0.241608 128 128 255 -0.000055 -1.000000 0.000000
0.741460 1.100060 0.241616 128 128 255 -0.000055 -1.000000 0.000000
0.741460 1.100060 0.241626 128 128 255 -0.000055 -1.000000 0.000000
0.741460 1.100060 0.241637 128 128 255 -0.000055 -1.000000 0.000000
0.741460 1.100060 0.241649 128 128 255 -0.000055 -1.000000 0.000000
0.741460 1.100060 0.241662 128 128 255 -0.000055 -1.000000 0.000000
0.741460 1.100060 0.241676 128 128 255 -0.000055 -1.000000 0.000000
0.741460 1.100060 0.241691 128 128 255 -0.000055 -1.000000 0.000000
0.741460 1.100060 0.241706 128 128 255 -0.000055 -1.000000 0.000000
0.741460 1.100060 0.241722 128 128 255 -0.000055 -1.000000 0.000000
0.741460 1.100060 0.241738 128 128 255 -0.000055 -1.000000 0.000000
0.741460 1.100060 0.241755 128 128 255 -0.000055 -1.000000 0.000000
0.741460 1.100060 0.241771 128 128 255 -0.000055 -1.000000 0.000000
0.741460 1.100060 0.241787 128 128 255 -0.000055 -1.000000 0.000000
0.741460 1.100060 0.241803 128 128 255 0.625893 0.313017 0.714338
0.241412 2.099863 0.241818 128 128 255 0.704298 0.352244 0.616351
-0.823541 0.100000 0.285202 128 128 255 0.000000 -1.000000 0.000000
-0.823541 0.100000 0.285215 128 128 255 0.000000 -1.000000 0.000000
-0.823541 0.100000 0.285227 128 128 255 0.000000 -1.000000 0.000000
-0.823541 0.100000 0.285238 128 128 255 0.000000 -1.000000 0.000000
-0.823541 0.100000 0.285248 128 128 255 0.000000 -1.000000 0.000000
-0.823541 0.100000 0.285256 128 128 255 0.000000 -1.000000 0.000000
-0.823541 0.100000 0.285263 128 128 255 0.000000 -1.000000 0.000000
-0.823541 0.100000 0.285269 128 128 255 0.000000 -1.000000 0.000000
-0.823541 0.100000 0.285273 128 128 255 0.000000 -1.000000 0.000000
-0.823541 0.100000 0.285275 128 128 255 0.000000 -1.000000 0.000000
-0.823541 0.100000 0.285276 128 128 255 0.000000 1.000000 0.000000
-0.823541 0.100000 0.285275 128 128 255 0.000000 1.000000 0.000000
-0.823541 0.100000 0.285273 128 128 255 0.000000 1.000000 0.000000
-0.823541 0.100000 0.285269 128 128 255 0.000000 1.000000 0.000000
-0.823541 0.100000 0.285263 128 128 255 0.000000 1.000000 0.000000
-0.823541 0.100000 0.285256 128 128 255 0.000000 1.000000 0.000000
-0.823541 0.100000 0.285248 128 128 255 0.000000 1.000000 0.000000
-0.823541 0.100000 0.285238 128 128 255 0.000000 1.000000 0.000000
-0.823541 0.100000 0.285227 128 128 255 0.000000 1.000000 0.000000
-0.823541 0.100000 0.285215 128 128 255 0.000000 1.000000 0.000000
-0.823541 0.100000 0.285202 128 128 255 0.000000 1.000000 0.000000
-0.823541 0.100000 0.285188 128 128 255 0.316337 -0.158146 0.935372
-0.323494 1.100072 0.285173 128 128 255 0.432195 -0.216075 0.875511
-0.323494 1.100072 0.285158 128 128 255 -0.000048 1.000000 0.000000
-0.323494 1.100072 0.285142 128 128 255 -0.000048 1.000000 0.000000
-0.323494 1.100072 0.285126 128 128 255 -0.000048 1.000000 0.000000
-0.323494 1.100072 0.285109 128 128 255 -0.000048 1.000000 0.000000
-0.323494 1.100072 0.285093 128 128 255 -0.000048 1.000000 0.000000
-0.323494 1.100072 0.285077 128 128 255 -0.000048 1.000000 0.000000
-0.323494 1.100072 0.285061 128 128 255 -0.000048 1.000000 0.000000
-0.323494 1.100072 0.285045 128 128 255 -0.000048 1.000000 0.000000
-0.323494 1.100072 0.285031 128 128 255 -0.000048 1.000000 0.000000
-0.323494 1.100072 0.285017 128 128 255 -0.000048 1.000000 0.000000
-0.323494 1.100072 0.285004 128 128 255 -0.000048 1.000000 0.000000
-0.323494 1.100072 0.284991 128 128 255 -0.000048 1.000000 0.000000
-0.323494 1.100072 0.284980 128 128 255 -0.000048 1.000000 0.000000
-0.323494 1.100072 0.284971 128 128 255 -0.000048 1.000000 0.000000
-0.323494 1.100072 0.284962 128 128 255 -0.000048 1.000000 0.000000
-0.323494 1.100072 0.284955 128 128 255 -0.000048 1.000000 0.000000
-0.323494 1.100072 0.284950 128 128 255 -0.000048 1.000000 0.000000
-0.323494 1.100072 0.284946 128 128 255 -0.000048 1.000000 0.000000
-0.323494 1.100072 0.284943 128 128 255 -0.000048 1.000000 0.000000
-0.323494 1.100072 0.284943 128 128 255 -0.000006 -1.000000 -0.000053
0.676574 1.100064 0.284943 128 128 255 -0.000010 -1.000000 0.000024
0.676574 1.100064 0.284946 128 128 255 -0.000052 -1.000000 0.000000
0.676574 1.100064 0.284950 128 128 255 -0.000053 -1.000000 0.000000
0.676574 1.100064 0.284955 128 128 255 -0.000053 -1.000000 0.000000
0.676574 1.100064 0.284962 128 128 255 -0.000053 -1.000000 0.000000
0.676574 1.100064 0.284971 128 128 255 -0.000053 -1.000000 0.000000
0.676574 1.100064 0.284980 128 128 255 -0.000053 -1.000000 0.000000
0.676574 1.100064 0.284991 128 128 255 -0.000053 -1.000000 0.000000
0.676574 1.100064 0.285004 128 128 255 -0.000053 -1.000000 0.000000
0.676574 1.100064 0.285017 128 128 255 -0.000053 -1.000000 0.000000
0.676574 1.100064 0.285031 128 128 255 -0.000053 -1.000000 0.000000
0.676574 1.100064 0.285045 128 128 255 -0.000053 -1.000000 0.000000
0.676574 1.100064 0.285061 128 128 255 -0.000053 -1.000000 0.000000
0.676574 1.100064 0.285077 128 128 255 -0.000053 -1.000000 0.000000
0.676574 1.100064 0.285093 128 128 255 -0.000053 -1.000000 0.000000
0.676574 1.100064 0.285109 128 128 255 -0.000053 -1.000000 0.000000
0.676574 1.100064 0.285126 128 128 255 -0.000053 -1.000000 0.000000
0.676574 1.100064 0.285142 128 128 255 -0.000053 -1.000000 0.000000
0.676574 1.100064 0.285158 128 128 255 -0.000053 -1.000000 0.000000
0.676574 1.100064 0.285173 128 128 255 -0.000053 -1.000000 0.000000
0.676574 1.100064 0.285188 128 128 255 0.316991 0.158514 0.935088
0.176531 2.099863 0.285202 128 128 255 0.432772 0.216436 0.875137
-0.900079 0.100000 0.300451 128 128 255 0.000000 -1.000000 0.000000
-0.900079 0.100000 0.300462 128 128 255 0.000000 -1.000000 0.000000
-0.900079 0.100000 0.300472 128 128 255 0.000000 -1.000000 0.000000
-0.900079 0.100000 0.300480 128 128 255 0.000000 -1.000000 0.000000
-0.900079 0.100000 0.300487 128 128 255 0.000000 -1.000000 0.000000
-0.900079 0.100000 0.300493 128 128 255 0.000000 -1.000000 0.000000
-0.900079 0.100000 0.300497 128 128 255 0.000000 -1.000000 0.000000
-0.900079 0.100000 0.300499 128 128 255 0.000000 -1.000000 0.000000
-0.900079 0.100000 0.300500 128 128 255 0.000000 -1.000000 0.000000
-0.900079 0.100000 0.300499 128 128 255 0.000000 1.000000 0.000000
-0.900079 0.100000 0.300497 128 128 255 0.000000 1.000000 0.000000
-0.900079 0.100000 0.300493 128 128 255 0.000000 1.000000 0.000000
-0.900079 0.100000 0.300487 128 128 255 0.000000 1.000000 0.000000
-0.900079 0.100000 0.300480 128 128 255 0.000000 1.000000 0.000000
-0.900079 0.100000 0.300472 128 128 255 0.000000 1.000000 0.000000
-0.900079 0.100000 0.300462 128 128 255 0.000000 1.000000 0.000000
-0.900079 0.100000 0.300451 128 128 255 0.000000 1.000000 0.000000
-0.900079 0.100000 0.300439 128 128 255 0.000000 1.000000 0.000000
-0.900079 0.100000 0.300426 128 128 255 0.000000 1.000000 0.000000
-0.900079 0.100000 0.300412 128 128 255 0.000000 1.000000 0.000000
-0.900079 0.100000 0.300397 128 128 255 0.000000 1.000000 0.000000
-0.900079 0.100000 0.300382 128 128 255 -0.066531 0.033297 0.997229
-0.400034 1.100068 0.300366 128 128 255 0.065716 -0.032827 0.997298
-0.400034 1.100068 0.300350 128 128 255 -0.000050 1.000000 0.000000
-0.400034 1.100068 0.300333 128 128 255 -0.000050 1.000000 0.000000
-0.400034 1.100068 0.300317 128 128 255 -0.000050 1.000000 0.000000
-0.400034 1.100068 0.300301 128 128 255 -0.000050 1.000000 0.000000
-0.400034 1.100068 0.300285 128 128 255 -0.000050 1.000000 0.000000
-0.400034 1.100068 0.300270 128 128 255 -0.000050 1.000000 0.000000
-0.400034 1.100068 0.300255 128 128 255 -0.000050 1.000000 0.000000
-0.400034 1.100068 0.300241 128 128 255 -0.000050 1.000000 0.000000
-0.400034 1.100068 0.300228 128 128 255 -0.000050 1.000000 0.000000
-0.400034 1.100068 0.300215 128 128 255 -0.000050 1.000000 0.000000
-0.400034 1.100068 0.300204 128 128 255 -0.000050 1.000000 0.000000
-0.400034 1.100068 0.300195 128 128 255 -0.000050 1.000000 0.000000
-0.400034 1.100068 0.300186 128 128 255 -0.000050 1.000000 0.000000
-0.400034 1.100068 0.300179 128 128 255 -0.000050 1.000000 0.000000
-0.400034 1.100068 0.300174 128 128 255 -0.000049 1.000000 0.000000
-0.400034 1.100068 0.300170 128 128 255 -0.000049 1.000000 0.000000
-0.400034 1.100068 0.300167 128 128 255 -0.000049 1.000000 0.000000
-0.400034 1.100068 0.300167 128 128 255 0.327184 0.944960 0.000000
-0.400034 1.100068 0.300167 128 128 255 0.000051 -1.000000 0.000000
-0.400034 1.100068 0.300170 128 128 255 -0.000008 1.000000 -0.000220
0.600034 1.100068 0.300174 128 128 255 -0.000008 -1.000000 0.000220
0.600034 1.100068 0.300179 128 128 255 -0.000050 -1.000000 0.000000
0.600034 1.100068 0.300186 128 128 255 -0.000050 -1.000000 0.000000
0.600034 1.100068 0.300195 128 128 255 -0.000050 -1.000000 0.000000
0.600034 1.100068 0.300204 128 128 255 -0.000050 -1.000000 0.000000
0.600034 1.100068 0.300215 128 128 255 -0.000050 -1.000000 0.000000
0.600034 1.100068 0.300228 128 128 255 -0.000050 -1.000000 0.000000
0.600034 1.100068 0.300241 128 128 255 -0.000050 -1.000000 0.000000
0.600034 1.100068 0.300255 128 128 255 -0.000050 -1.000000 0.000000
0.600034 1.100068 0.300270 128 128 255 -0.000050 -1.000000 0.000000
0.600034 1.100068 0.300285 128 128 255 -0.000050 -1.000000 0.000000
0.600034 1.100068 0.300301 128 128 255 -0.000050 -1.000000 0.000000
0.600034 1.100068 0.300317 128 128 255 -0.000050 -1.000000 0.000000
0.600034 1.100068 0.300333 128 128 255 -0.000050 -1.000000 0.000000
0.600034 1.100068 0.300350 128 128 255 -0.000050 -1.000000 0.000000
0.600034 1.100068 0.300366 128 128 255 -0.000050 -1.000000 0.000000
0.600034 1.100068 0.300382 128 128 255 -0.000050 -1.000000 0.000000
0.600034 1.100068 0.300397 128 128 255 -0.000050 -1.000000 0.000000
0.600034 1.100068 0.300412 128 128 255 -0.000050 -1.000000 0.000000
0.600034 1.100068 0.300426 128 128 255 -0.000050 -1.000000 0.000000
0.600034 1.100068 0.300439 128 128 255 -0.065816 -0.032942 0.997288
0.100000 2.099863 0.300451 128 128 255 0.066442 0.033218 0.997237
-0.976615 0.100000 0.285248 128 128 255 0.000000 -1.000000 0.000000
-0.976615 0.100000 0.285256 128 128 255 0.000000 -1.000000 0.000000
-0.976615 0.100000 0.285263 128 128 255 0.000000 -1.000000 0.000000
-0.976615 0.100000 0.285269 128 128 255 0.000000 -1.000000 0.000000
-0.976615 0.100000 0.285273 128 128 255 0.000000 -1.000000 0.000000
-0.976615 0.100000 0.285275 128 128 255 0.000000 -1.000000 0.000000
-0.976615 0.100000 0.285276 128 128 255 0.000000 -1.000000 0.000000
-0.976615 0.100000 0.285275 128 128 255 0.000000 1.000000 0.000000
-0.976615 0.100000 0.285273 128 128 255 0.000000 1.000000 0.000000
-0.976615 0.100000 0.285269 128 128 255 0.000000 1.000000 0.000000
-0.976615 0.100000 0.285263 128 128 255 0.000000 1.000000 0.000000
-0.976615 0.100000 0.285256 128 128 255 0.000000 1.000000 0.000000
-0.976615 0.100000 0.285248 128 128 255 0.000000 1.000000 0.000000
-0.976615 0.100000 0.285238 128 128 255 0.000000 1.000000 0.000000
-0.976615 0.100000 0.285227 128 128 255 0.000000 1.000000 0.000000
-0.976615 0.100000 0.285215 128 128 255 0.000000 1.000000 0.000000
-0.976615 0.100000 0.285202 128 128 255 0.000000 1.000000 0.000000
-0.976615 0.100000 0.285188 128 128 255 0.000000 1.000000 0.000000
-0.976615 0.100000 0.285173 128 128 255 0.000000 1.000000 0.000000
-0.976615 0.100000 0.285158 128 128 255 0.000000 1.000000 0.000000
-0.976615 0.100000 0.285142 128 128 255 0.000000 1.000000 0.000000
-0.976615 0.100000 0.285126 128 128 255 -0.432806 0.216435 0.875120
-0.476574 1.100064 0.285109 128 128 255 -0.317039 0.158552 0.935066
-0.476574 1.100064 0.285093 128 128 255 -0.000053 1.000000 0.000000
-0.476574 1.100064 0.285077 128 128 255 -0.000053 1.000000 0.000000
-0.476574 1.100064 0.285061 128 128 255 -0.000053 1.000000 0.000000
-0.476574 1.100064 0.285045 128 128 255 -0.000053 1.000000 0.000000
-0.476574 1.100064 0.285031 128 128 255 -0.000053 1.000000 0.000000
-0.476574 1.100064 0.285017 128 128 255 -0.000053 1.000000 0.000000
-0.476574 1.100064 0.285004 128 128 255 -0.000053 1.000000 0.000000
-0.476574 1.100064 0.284991 128 128 255 -0.000053 1.000000 0.000000
-0.476574 1.100064 0.284980 128 128 255 -0.000053 1.000000 0.000000
-0.476574 1.100064 0.284971 128 128 255 -0.000053 1.000000 0.000000
-0.476574 1.100064 0.284962 128 128 255 -0.000053 1.000000 0.000000
-0.476574 1.100064 0.284955 128 128 255 -0.000053 1.000000 0.000000
-0.476574 1.100064 0.284950 128 128 255 -0.000053 1.000000 0.000000
-0.476574 1.100064 0.284946 128 128 255 -0.000052 1.000000 0.000000
-0.476574 1.100064 0.284943 128 128 255 -0.000052 1.000000 0.000000
-0.476574 1.100064 0.284943 128 128 255 -0.000032 1.000000 0.000000
-0.476574 1.100064 0.284943 128 128 255 0.000055 -1.000000 0.000000
-0.476574 1.100064 0.284946 128 128 255 0.000054 -1.000000 0.000000
-0.476574 1.100064 0.284950 128 128 255 0.000054 -1.000000 0.000000
-0.476574 1.100064 0.284955 128 128 255 -0.000010 1.000000 -0.000024
0.523494 1.100072 0.284962 128 128 255 -0.000006 1.000000 0.000053
0.523494 1.100072 0.284971 128 128 255 -0.000048 -1.000000 0.000000
0.523494 1.100072 0.284980 128 128 255 -0.000048 -1.000000 0.000000
0.523494 1.100072 0.284991 128 128 255 -0.000048 -1.000000 0.000000
0.523494 1.100072 0.285004 128 128 255 -0.000048 -1.000000 0.000000
0.523494 1.100072 0.285017 128 128 255 -0.000048 -1.000000 0.000000
0.523494 1.100072 0.285031 128 128 255 -0.000048 -1.000000 0.000000
0.523494 1.100072 0.285045 128 128 255 -0.000048 -1.000000 0.000000
0.523494 1.100072 0.285061 128 128 255 -0.000048 -1.000000 0.000000
0.523494 1.100072 0.285077 128 128 255 -0.000048 -1.000000 0.000000
0.523494 1.100072 0.285093 128 128 255 -0.000048 -1.000000 0.000000
0.523494 1.100072 0.285109 128 128 255 -0.000048 -1.000000 0.000000
0.523494 1.100072 0.285126 128 128 255 -0.000048 -1.000000 0.000000
0.523494 1.100072 0.285142 128 128 255 -0.000048 -1.000000 0.000000
0.523494 1.100072 0.285158 128 128 255 -0.000048 -1.000000 0.000000
0.523494 1.100072 0.285173 128 128 255 -0.000048 -1.000000 0.000000
0.523494 1.100072 0.285188 128 128 255 -0.000048 -1.000000 0.000000
0.523494 1.100072 0.285202 128 128 255 -0.000048 -1.000000 0.000000
0.523494 1.100072 0.285215 128 128 255 -0.000048 -1.000000 0.000000
0.523494 1.100072 0.285227 128 128 255 -0.000048 -1.000000 0.000000
0.523494 1.100072 0.285238 128 128 255 -0.432297 -0.216222 0.875424
0.023469 2.099863 0.285248 128 128 255 -0.316461 -0.158282 0.935307
-1.041497 0.100000 0.241909 128 128 255 0.000000 -1.000000 0.000000
-1.041497 0.100000 0.241914 128 128 255 0.000000 -1.000000 0.000000
-1.041497 0.100000 0.241918 128 128 255 0.000000 -1.000000 0.000000
-1.041497 0.100000 0.241921 128 128 255 0.000000 -1.000000 0.000000
-1.041497 0.100000 0.241921 128 128 255 0.000000 -1.000000 0.000000
-1.041497 0.100000 0.241921 128 128 255 0.000000 1.000000 0.000000
-1.041497 0.100000 0.241918 128 128 255 0.000000 1.000000 0.000000
-1.041497 0.100000 0.241914 128 128 255 0.000000 1.000000 0.000000
-1.041497 0.100000 0.241909 128 128 255 0.000000 1.000000 0.000000
-1.041497 0.100000 0.241902 128 128 255 0.000000 1.000000 0.000000
-1.041497 0.100000 0.241893 128 128 255 0.000000 1.000000 0.000000
-1.041497 0.100000 0.241884 128 128 255 0.000000 1.000000 0.000000
-1.041497 0.100000 0.241873 128 128 255 0.000000 1.000000 0.000000
-1.041497 0.100000 0.241860 128 128 255 0.000000 1.000000 0.000000
-1.041497 0.100000 0.241847 128 128 255 0.000000 1.000000 0.000000
-1.041497 0.100000 0.241833 128 128 255 0.000000 1.000000 0.000000
-1.041497 0.100000 0.241818 128 128 255 0.000000 1.000000 0.000000
-1.041497 0.100000 0.241803 128 128 255 0.000000 1.000000 0.000000
-1.041497 0.100000 0.241787 128 128 255 0.000000 1.000000 0.000000
-1.041497 0.100000 0.241771 128 128 255 0.000000 1.000000 0.000000
-1.041497 0.100000 0.241755 128 128 255 0.000000 1.000000 0.000000
-1.041497 0.100000 0.241738 128 128 255 -0.704317 0.352184 0.616363
-0.541460 1.100060 0.241722 128 128 255 -0.625910 0.312981 0.714339
-0.541460 1.100060 0.241706 128 128 255 -0.000055 1.000000 0.000000
-0.541460 1.100060 0.241691 128 128 255 -0.000055 1.000000 0.000000
-0.541460 1.100060 0.241676 128 128 255 -0.000055 1.000000 0.000000
-0.541460 1.100060 0.241662 128 128 255 -0.000055 1.000000 0.000000
-0.541460 1.100060 0.241649 128 128 255 -0.000055 1.000000 0.000000
-0.541460 1.100060 0.241637 128 128 255 -0.000055 1.000000 0.000000
-0.541460 1.100060 0.241626 128 128 255 -0.000055 1.000000 0.000000
-0.541460 1.100060 0.241616 128 128 255 -0.000055 1.000000 0.000000
-0.541460 1.100060 0.241608 128 128 255 -0.000055 1.000000 0.000000
-0.541460 1.100060 0.241601 128 128 255 -0.000055 1.000000 0.000000
-0.541460 1.100060 0.241595 128 128 255 -0.000055 1.000000 0.000000
-0.541460 1.100060 0.241591 128 128 255 -0.000055 1.000000 0.000000
-0.541460 1.100060 0.241589 128 128 255 -0.000055 1.000000 0.000000
-0.541460 1.100060 0.241588 128 128 255 -0.000055 1.000000 0.000000
-0.541460 1.100060 0.241589 128 128 255 0.000055 -1.000000 0.000000
-0.541460 1.100060 0.241591 128 128 255 0.000055 -1.000000 0.000000
-0.541460 1.100060 0.241595 128 128 255 0.000055 -1.000000 0.000000
-0.541460 1.100060 0.241601 128 128 255 0.000055 -1.000000 0.000000
-0.541460 1.100060 0.241608 128 128 255 0.000055 -1.000000 0.000000
-0.541460 1.100060 0.241616 128 128 255 -0.000016 1.000000 -0.000011
0.458605 1.100075 0.241626 128 128 255 -0.000012 1.000000 0.000022
0.458605 1.100075 0.241637 128 128 255 -0.000045 -1.000000 0.000000
0.458605 1.100075 0.241649 128 128 255 -0.000045 -1.000000 0.000000
0.458605 1.100075 0.241662 128 128 255 -0.000045 -1.000000 0.000000
0.458605 1.100075 0.241676 128 128 255 -0.000045 -1.000000 0.000000
0.458605 1.100075 0.241691 128 128 255 -0.000045 -1.000000 0.000000
0.458605 1.100075 0.241706 128 128 255 -0.000045 -1.000000 0.000000
0.458605 1.100075 0.241722 128 128 255 -0.000045 -1.000000 0.000000
0.458605 1.100075 0.241738 128 128 255 -0.000045 -1.000000 0.000000
0.458605 1.100075 0.241755 128 128 255 -0.000045 -1.000000 0.000000
0.458605 1.100075 0.241771 128 128 255 -0.000045 -1.000000 0.000000
0.458605 1.100075 0.241787 128 128 255 -0.000045 -1.000000 0.000000
0.458605 1.100075 0.241803 128 128 255 -0.000045 -1.000000 0.000000
0.458605 1.100075 0.241818 128 128 255 -0.000045 -1.000000 0.000000
0.458605 1.100075 0.241833 128 128 255 -0.000045 -1.000000 0.000000
0.458605 1.100075 0.241847 128 128 255 -0.000045 -1.000000 0.000000
0.458605 1.100075 0.241860 128 128 255 -0.000045 -1.000000 0.000000
0.458605 1.100075 0.241873 128 128 255 -0.000045 -1.000000 0.000000
0.458605 1.100075 0.241884 128 128 255 -0.000045 -1.000000 0.000000
0.458605 1.100075 0.241893 128 128 255 -0.000046 -1.000000 0.000000
0.458605 1.100075 0.241902 128 128 255 -0.704079 -0.352135 0.616664
-0.041412 2.099863 0.241909 128 128 255 -0.625609 -0.312889 0.714642
-1.084849 0.100000 0.177033 128 128 255 0.000000 -1.000000 0.000000
-1.084849 0.100000 0.177036 128 128 255 0.000000 -1.000000 0.000000
-1.084849 0.100000 0.177037 128 128 255 0.000000 -1.000000 0.000000
-1.084849 0.100000 0.177036 128 128 255 0.000000 1.000000 0.000000
-1.084849 0.100000 0.177033 128 128 255 0.000000 1.000000 0.000000
-1.084849 0.100000 0.177030 128 128 255 0.000000 1.000000 0.000000
-1.084849 0.100000 0.177024 128 128 255 0.000000 1.000000 0.000000
-1.084849 0.100000 0.177017 128 128 255 0.000000 1.000000 0.000000
-1.084849 0.100000 0.177009 128 128 255 0.000000 1.000000 0.000000
-1.084849 0.100000 0.176999 128 128 255 0.000000 1.000000 0.000000
-1.084849 0.100000 0.176988 128 128 255 0.000000 1.000000 0.000000
-1.084849 0.100000 0.176976 128 128 255 0.000000 1.000000 0.000000
-1.084849 0.100000 0.176963 128 128 255 0.000000 1.000000 0.000000
-1.084849 0.100000 0.176949 128 128 255 0.000000 1.000000 0.000000
-1.084849 0.100000 0.176934 128 128 255 0.000000 1.000000 0.000000
-1.084849 0.100000 0.176918 128 128 255 0.000000 1.000000 0.000000
-1.084849 0.100000 0.176903 128 128 255 0.000000 1.000000 0.000000
-1.084849 0.100000 0.176886 128 128 255 0.000000 1.000000 0.000000
-1.084849 0.100000 0.176870 128 128 255 0.000000 1.000000 0.000000
-1.084849 0.100000 0.176854 128 128 255 0.000000 1.000000 0.000000
-1.084849 0.100000 0.176838 128 128 255 0.000000 1.000000 0.000000
-1.084849 0.100000 0.176822 128 128 255 -0.856057 0.428043 0.289734
-0.584816 1.100058 0.176806 128 128 255 -0.818160 0.409094 0.404051
-0.584816 1.100058 0.176791 128 128 255 -0.000055 1.000000 0.000000
-0.584816 1.100058 0.176777 128 128 255 -0.000055 1.000000 0.000000
-0.584816 1.100058 0.176764 128 128 255 -0.000055 1.000000 0.000000
-0.584816 1.100058 0.176752 128 128 255 -0.000055 1.000000 0.000000
-0.584816 1.100058 0.176741 128 128 255 -0.000055 1.000000 0.000000
-0.584816 1.100058 0.176731 128 128 255 -0.000055 1.000000 0.000000
-0.584816 1.100058 0.176723 128 128 255 -0.000055 1.000000 0.000000
-0.584816 1.100058 0.176716 128 128 255 -0.000055 1.000000 0.000000
-0.584816 1.100058 0.176711 128 128 255 -0.000055 1.000000 0.000000
-0.584816 1.100058 0.176707 128 128 255 -0.000055 1.000000 0.000000
-0.584816 1.100058 0.176704 128 128 255 -0.000055 1.000000 0.000000
-0.584816 1.100058 0.176703 128 128 255 -0.000055 1.000000 0.000000
-0.584816 1.100058 0.176704 128 128 255 0.000055 -1.000000 0.000000
-0.584816 1.100058 0.176707 128 128 255 0.000055 -1.000000 0.000000
-0.584816 1.100058 0.176711 128 128 255 0.000055 -1.000000 0.000000
-0.584816 1.100058 0.176716 128 128 255 0.000055 -1.000000 0.000000
-0.584816 1.100058 0.176723 128 128 255 0.000055 -1.000000 0.000000
-0.584816 1.100058 0.176731 128 128 255 0.000055 -1.000000 0.000000
-0.584816 1.100058 0.176741 128 128 255 0.000055 -1.000000 0.000000
-0.584816 1.100058 0.176752 128 128 255 -0.000019 1.000000 -0.000005
0.415248 1.100077 0.176764 128 128 255 -0.000017 1.000000 0.000009
0.415248 1.100077 0.176777 128 128 255 -0.000043 -1.000000 0.000000
0.415248 1.100077 0.176791 128 128 255 -0.000043 -1.000000 0.000000
0.415248 1.100077 0.176806 128 128 255 -0.000043 -1.000000 0.000000
0.415248 1.100077 0.176822 128 128 255 -0.000043 -1.000000 0.000000
0.415248 1.100077 0.176838 128 128 255 -0.000043 -1.000000 0.000000
0.415248 1.100077 0.176854 128 128 255 -0.000043 -1.000000 0.000000
0.415248 1.100077 0.176870 128 128 255 -0.000043 -1.000000 0.000000
0.415248 1.100077 0.176886 128 128 255 -0.000043 -1.000000 0.000000
0.415248 1.100077 0.176903 128 128 255 -0.000043 -1.000000 0.000000
0.415248 1.100077 0.176918 128 128 255 -0.000043 -1.000000 0.000000
0.415248 1.100077 0.176934 128 128 255 -0.000043 -1.000000 0.000000
0.415248 1.100077 0.176949 128 128 255 -0.000043 -1.000000 0.000000
0.415248 1.100077 0.176963 128 128 255 -0.000043 -1.000000 0.000000
0.415248 1.100077 0.176976 128 128 255 -0.000043 -1.000000 0.000000
0.415248 1.100077 0.176988 128 128 255 -0.000043 -1.000000 0.000000
0.415248 1.100077 0.176999 128 128 255 -0.000043 -1.000000 0.000000
0.415248 1.100077 0.177009 128 128 255 -0.000042 -1.000000 0.000000
0.415248 1.100077 0.177017 128 128 255 -0.000042 -1.000000 0.000000
0.415248 1.100077 0.177024 128 128 255 -0.000042 -1.000000 0.000000
0.415248 1.100077 0.177030 128 128 255 -0.855982 -0.428095 0.289878
-0.084763 2.099863 0.177033 128 128 255 -0.818054 -0.409127 0.404231
-1.100072 0.100000 0.100500 128 128 255 0.000000 -1.000000 0.000000
-1.100072 0.100000 0.100499 128 128 255 0.000000 -1.000000 0.000000
-1.100072 0.100000 0.100497 128 128 255 0.000000 -1.000000 0.000000
-1.100072 0.100000 0.100493 128 128 255 0.000000 -1.000000 0.000000
-1.100072 0.100000 0.100487 128 128 255 0.000000 -1.000000 0.000000
-1.100072 0.100000 0.100480 128 128 255 0.000000 -1.000000 0.000000
-1.100072 0.100000 0.100472 128 128 255 0.000000 -1.000000 0.000000
-1.100072 0.100000 0.100462 128 128 255 0.000000 -1.000000 0.000000
-1.100072 0.100000 0.100451 128 128 255 0.000000 -1.000000 0.000000
-1.100072 0.100000 0.100439 128 128 255 0.000000 -1.000000 0.000000
-1.100072 0.100000 0.100426 128 128 255 0.000000 -1.000000 0.000000
-1.100072 0.100000 0.100412 128 128 255 0.000000 -1.000000 0.000000
-1.100072 0.100000 0.100397 128 128 255 0.000000 -1.000000 0.000000
-1.100072 0.100000 0.100382 128 128 255 0.000000 -1.000000 0.000000
-1.100072 0.100000 0.100366 128 128 255 0.000000 -1.000000 0.000000
-1.100072 0.100000 0.100350 128 128 255 0.000000 -1.000000 0.000000
-1.100072 0.100000 0.100333 128 128 255 0.000000 1.000000 0.000000
-1.100072 0.100000 0.100317 128 128 255 0.000000 1.000000 0.000000
-1.100072 0.100000 0.100301 128 128 255 0.000000 1.000000 0.000000
-1.100072 0.100000 0.100285 128 128 255 0.000000 1.000000 0.000000
-1.100072 0.100000 0.100270 128 128 255 0.000000 1.000000 0.000000
-1.100072 0.100000 0.100255 128 128 255 -0.892858 0.446433 -0.059178
-0.600040 1.100057 0.100241 128 128 255 -0.892858 0.446433 0.059174
-0.600040 1.100057 0.100228 128 128 255 -0.000055 1.000000 0.000000
-0.600040 1.100057 0.100215 128 128 255 -0.000055 1.000000 0.000000
-0.600040 1.100057 0.100204 128 128 255 -0.000055 1.000000 0.000000
-0.600040 1.100057 0.100195 128 128 255 -0.000055 1.000000 0.000000
-0.600040 1.100057 0.100186 128 128 255 -0.000055 1.000000 0.000000
-0.600040 1.100057 0.100179 128 128 255 -0.000055 1.000000 0.000000
-0.600040 1.100057 0.100174 128 128 255 -0.000055 1.000000 0.000000
-0.600040 1.100057 0.100170 128 128 255 -0.000055 1.000000 0.000000
-0.600040 1.100057 0.100167 128 128 255 -0.000055 1.000000 0.000000
-0.600040 1.100057 0.100167 128 128 255 -0.000055 1.000000 0.000000
-0.600040 1.100057 0.100167 128 128 255 -0.000055 1.000000 0.000000
-0.600040 1.100057 0.100170 128 128 255 -0.000055 1.000000 0.000000
-0.600040 1.100057 0.100174 128 128 255 -0.000055 1.000000 0.000000
-0.600040 1.100057 0.100179 128 128 255 -0.000055 1.000000 0.000000
-0.600040 1.100057 0.100186 128 128 255 -0.000055 1.000000 0.000000
-0.600040 1.100057 0.100195 128 128 255 -0.000055 1.000000 0.000000
-0.600040 1.100057 0.100204 128 128 255 -0.000055 1.000000 0.000000
-0.600040 1.100057 0.100215 128 128 255 -0.000055 1.000000 0.000000
-0.600040 1.100057 0.100228 128 128 255 -0.000055 1.000000 0.000000
-0.600040 1.100057 0.100241 128 128 255 -0.000020 1.000000 -0.000004
0.400023 1.100077 0.100255 128 128 255 -0.000020 1.000000 -0.000002
0.400023 1.100077 0.100270 128 128 255 0.000047 1.000000 0.000000
0.400023 1.100077 0.100285 128 128 255 0.000047 1.000000 0.000000
0.400023 1.100077 0.100301 128 128 255 0.000047 1.000000 0.000000
0.400023 1.100077 0.100317 128 128 255 0.000047 1.000000 0.000000
0.400023 1.100077 0.100333 128 128 255 -0.000047 -1.000000 0.000000
0.400023 1.100077 0.100350 128 128 255 -0.000047 -1.000000 0.000000
0.400023 1.100077 0.100366 128 128 255 -0.000047 -1.000000 0.000000
0.400023 1.100077 0.100382 128 128 255 -0.000047 -1.000000 0.000000
0.400023 1.100077 0.100397 128 128 255 -0.000047 -1.000000 0.000000
0.400023 1.100077 0.100412 128 128 255 -0.000047 -1.000000 0.000000
0.400023 1.100077 0.100426 128 128 255 -0.000047 -1.000000 0.000000
0.400023 1.100077 0.100439 128 128 255 -0.000047 -1.000000 0.000000
0.400023 1.100077 0.100451 128 128 255 -0.000047 -1.000000 0.000000
0.400023 1.100077 0.100462 128 128 255 -0.000047 -1.000000 0.000000
0.400023 1.100077 0.100472 128 128 255 -0.000047 -1.000000 0.000000
0.400023 1.100077 0.100480 128 128 255 -0.000047 -1.000000 0.000000
0.400023 1.100077 0.100487 128 128 255 -0.000047 -1.000000 0.000000
0.400023 1.100077 0.100493 128 128 255 -0.000047 -1.000000 0.000000
0.400023 1.100077 0.100497 128 128 255 -0.000047 -1.000000 0.000000
0.400023 1.100077 0.100499 128 128 255 -0.892817 -0.446513 -0.059194
-0.099986 2.099863 0.100500 128 128 255 -0.892816 -0.446513 0.059201
-1.084849 0.100000 0.023960 128 128 255 0.000000 -1.000000 0.000000
-1.084849 0.100000 0.023956 128 128 255 0.000000 -1.000000 0.000000
-1.084849 0.100000 0.023951 128 128 255 0.000000 -1.000000 0.000000
-1.084849 0.100000 0.023944 128 128 255 0.000000 -1.000000 0.000000
-1.084849 0.100000 0.023935 128 128 255 0.000000 -1.000000 0.000000
-1.084849 0.100000 0.023925 128 128 255 0.000000 -1.000000 0.000000
-1.084849 0.100000 0.023914 128 128 255 0.000000 -1.000000 0.000000
-1.084849 0.100000 0.023902 128 128 255 0.000000 -1.000000 0.000000
-1.084849 0.100000 0.023889 128 128 255 0.000000 -1.000000 0.000000
-1.084849 0.100000 0.023875 128 128 255 0.000000 -1.000000 0.000000
-1.084849 0.100000 0.023860 128 128 255 0.000000 -1.000000 0.000000
-1.084849 0.100000 0.023845 128 128 255 0.000000 -1.000000 0.000000
-1.084849 0.100000 0.023829 128 128 255 0.000000 -1.000000 0.000000
-1.084849 0.100000 0.023813 128 128 255 0.000000 -1.000000 0.000000
-1.084849 0.100000 0.023797 128 128 255 0.000000 -1.000000 0.000000
-1.084849 0.100000 0.023780 128 128 255 0.000000 -1.000000 0.000000
-1.084849 0.100000 0.023764 128 128 255 0.000000 -1.000000 0.000000
-1.084849 0.100000 0.023748 128 128 255 0.000000 -1.000000 0.000000
-1.084849 0.100000 0.023733 128 128 255 0.000000 -1.000000 0.000000
-1.084849 0.100000 0.023718 128 128 255 0.000000 -1.000000 0.000000
-1.084849 0.100000 0.023704 128 128 255 0.000000 -1.000000 0.000000
-1.084849 0.100000 0.023691 128 128 255 -0.818153 0.409072 -0.404085
-0.584816 1.100058 0.023679 128 128 255 -0.856056 0.428024 -0.289766
-0.584816 1.100058 0.023668 128 128 255 0.000055 -1.000000 0.000000
-0.584816 1.100058 0.023658 128 128 255 0.000055 -1.000000 0.000000
-0.584816 1.100058 0.023650 128 128 255 0.000055 -1.000000 0.000000
-0.584816 1.100058 0.023643 128 128 255 0.000055 -1.000000 0.000000
-0.584816 1.100058 0.023637 128 128 255 0.000055 -1.000000 0.000000
-0.584816 1.100058 0.023633 128 128 255 0.000055 -1.000000 0.000000
-0.584816 1.100058 0.023631 128 128 255 0.000055 -1.000000 0.000000
-0.584816 1.100058 0.023630 128 128 255 -0.000055 1.000000 0.000000
-0.584816 1.100058 0.023631 128 128 255 -0.000055 1.000000 0.000000
-0.584816 1.100058 0.023633 128 128 255 -0.000055 1.000000 0.000000
-0.584816 1.100058 0.023637 128 128 255 -0.000055 1.000000 0.000000
-0.584816 1.100058 0.023643 128 128 255 -0.000055 1.000000 0.000000
-0.584816 1.100058 0.023650 128 128 255 -0.000055 1.000000 0.000000
-0.584816 1.100058 0.023658 128 128 255 -0.000055 1.000000 0.000000
-0.584816 1.100058 0.023668 128 128 255 -0.000055 1.000000 0.000000
-0.584816 1.100058 0.023679 128 128 255 -0.000055 1.000000 0.000000
-0.584816 1.100058 0.023691 128 128 255 -0.000055 1.000000 0.000000
-0.584816 1.100058 0.023704 128 128 255 -0.000055 1.000000 0.000000
-0.584816 1.100058 0.023718 128 128 255 -0.000055 1.000000 0.000000
-0.584816 1.100058 0.023733 128 128 255 -0.000017 1.000000 -0.000001
0.415248 1.100077 0.023748 128 128 255 -0.000019 1.000000 -0.000014
0.415248 1.100077 0.023764 128 128 255 0.000043 1.000000 0.000000
0.415248 1.100077 0.023780 128 128 255 0.000043 1.000000 0.000000
0.415248 1.100077 0.023797 128 128 255 0.000043 1.000000 0.000000
0.415248 1.100077 0.023813 128 128 255 0.000043 1.000000 0.000000
0.415248 1.100077 0.023829 128 128 255 0.000043 1.000000 0.000000
0.415248 1.100077 0.023845 128 128 255 0.000043 1.000000 0.000000
0.415248 1.100077 0.023860 128 128 255 0.000043 1.000000 0.000000
0.415248 1.100077 0.023875 128 128 255 0.000043 1.000000 0.000000
0.415248 1.100077 0.023889 128 128 255 0.000043 1.000000 0.000000
0.415248 1.100077 0.023902 128 128 255 0.000043 1.000000 0.000000
0.415248 1.100077 0.023914 128 128 255 0.000043 1.000000 0.000000
0.415248 1.100077 0.023925 128 128 255 0.000043 1.000000 0.000000
0.415248 1.100077 0.023935 128 128 255 0.000043 1.000000 0.000000
0.415248 1.100077 0.023944 128 128 255 0.000043 1.000000 0.000000
0.415248 1.100077 0.023951 128 128 255 0.000043 1.000000 0.000000
0.415248 1.100077 0.023956 128 128 255 0.000043 1.000000 0.000000
0.415248 1.100077 0.023960 128 128 255 0.000044 1.000000 0.000000
0.415248 1.100077 0.023963 128 128 255 0.000046 1.000000 0.000000
0.415248 1.100077 0.023963 128 128 255 -0.000038 -1.000000 0.000000
0.415248 1.100077 0.023963 128 128 255 -0.818079 -0.409139 -0.404169
-0.084763 2.099863 0.023960 128 128 255 -0.855999 -0.428101 -0.289819
-1.041497 0.100000 -0.040934 128 128 255 0.000000 -1.000000 0.000000
-1.041497 0.100000 -0.040941 128 128 255 0.000000 -1.000000 0.000000
-1.041497 0.100000 -0.040949 128 128 255 0.000000 -1.000000 0.000000
-1.041497 0.100000 -0.040959 128 128 255 0.000000 -1.000000 0.000000
-1.041497 0.100000 -0.040970 128 128 255 0.000000 -1.000000 0.000000
-1.041497 0.100000 -0.040982 128 128 255 0.000000 -1.000000 0.000000
-1.041497 0.100000 -0.040995 128 128 255 0.000000 -1.000000 0.000000
-1.041497 0.100000 -0.041009 128 128 255 0.000000 -1.000000 0.000000
-1.041497 0.100000 -0.041024 128 128 255 0.000000 -1.000000 0.000000
-1.041497 0.100000 -0.041040 128 128 255 0.000000 -1.000000 0.000000
-1.041497 0.100000 -0.041056 128 128 255 0.000000 -1.000000 0.000000
-1.041497 0.100000 -0.041072 128 128 255 0.000000 -1.000000 0.000000
-1.041497 0.100000 -0.041088 128 128 255 0.000000 -1.000000 0.000000
-1.041497 0.100000 -0.041104 128 128 255 0.000000 -1.000000 0.000000
-1.041497 0.100000 -0.041121 128 128 255 0.000000 -1.000000 0.000000
-1.041497 0.100000 -0.041136 128 128 255 0.000000 -1.000000 0.000000
-1.041497 0.100000 -0.041152 128 128 255 0.000000 -1.000000 0.000000
-1.041497 0.100000 -0.041167 128 128 255 0.000000 -1.000000 0.000000
-1.041497 0.100000 -0.041181 128 128 255 0.000000 -1.000000 0.000000
-1.041497 0.100000 -0.041194 128 128 255 0.000000 -1.000000 0.000000
-1.041497 0.100000 -0.041206 128 128 255 0.000000 -1.000000 0.000000
-1.041497 0.100000 -0.041217 128 128 255 -0.625837 0.312910 -0.714434
-0.541460 1.100060 -0.041227 128 128 255 -0.704264 0.352124 -0.616458
-0.541460 1.100060 -0.041235 128 128 255 0.000055 -1.000000 0.000000
-0.541460 1.100060 -0.041242 128 128 255 0.000055 -1.000000 0.000000
-0.541460 1.100060 -0.041248 128 128 255 0.000055 -1.000000 0.000000
-0.541460 1.100060 -0.041251 128 128 255 0.000055 -1.000000 0.000000
-0.541460 1.100060 -0.041254 128 128 255 0.000055 -1.000000 0.000000
-0.541460 1.100060 -0.041255 128 128 255 -0.000055 1.000000 0.000000
-0.541460 1.100060 -0.041254 128 128 255 -0.000055 1.000000 0.000000
-0.541460 1.100060 -0.041251 128 128 255 -0.000055 1.000000 0.000000
-0.541460 1.100060 -0.041248 128 128 255 -0.000055 1.000000 0.000000
-0.541460 1.100060 -0.041242 128 128 255 -0.000055 1.000000 0.000000
-0.541460 1.100060 -0.041235 128 128 255 -0.000055 1.000000 0.000000
-0.541460 1.100060 -0.041227 128 128 255 -0.000055 1.000000 0.000000
-0.541460 1.100060 -0.041217 128 128 255 -0.000055 1.000000 0.000000
-0.541460 1.100060 -0.041206 128 128 255 -0.000055 1.000000 0.000000
-0.541460 1.100060 -0.041194 128 128 255 -0.000055 1.000000 0.000000
-0.541460 1.100060 -0.041181 128 128 255 -0.000055 1.000000 0.000000
-0.541460 1.100060 -0.041167 128 128 255 -0.000055 1.000000 0.000000
-0.541460 1.100060 -0.041152 128 128 255 -0.000055 1.000000 0.000000
-0.541460 1.100060 -0.041136 128 128 255 -0.000055 1.000000 0.000000
-0.541460 1.100060 -0.041121 128 128 255 -0.000012 1.000000 0.000005
0.458605 1.100075 -0.041104 128 128 255 -0.000016 1.000000 -0.000028
0.458605 1.100075 -0.041088 128 128 255 0.000045 1.000000 0.000000
0.458605 1.100075 -0.041072 128 128 255 0.000045 1.000000 0.000000
0.458605 1.100075 -0.041056 128 128 255 0.000045 1.000000 0.000000
0.458605 1.100075 -0.041040 128 128 255 0.000045 1.000000 0.000000
0.458605 1.100075 -0.041024 128 128 255 0.000045 1.000000 0.000000
0.458605 1.100075 -0.041009 128 128 255 0.000045 1.000000 0.000000
0.458605 1.100075 -0.040995 128 128 255 0.000045 1.000000 0.000000
0.458605 1.100075 -0.040982 128 128 255 0.000045 1.000000 0.000000
0.458605 1.100075 -0.040970 128 128 255 0.000045 1.000000 0.000000
0.458605 1.100075 -0.040959 128 128 255 0.000045 1.000000 0.000000
0.458605 1.100075 -0.040949 128 128 255 0.000045 1.000000 0.000000
0.458605 1.100075 -0.040941 128 128 255 0.000045 1.000000 0.000000
0.458605 1.100075 -0.040934 128 128 255 0.000045 1.000000 0.000000
0.458605 1.100075 -0.040929 128 128 255 0.000044 1.000000 0.000000
0.458605 1.100075 -0.040925 128 128 255 0.000044 1.000000 0.000000
0.458605 1.100075 -0.040922 128 128 255 0.000042 1.000000 0.000000
0.458605 1.100075 -0.040921 128 128 255 -0.000061 -1.000000 0.000000
0.458605 1.100075 -0.040922 128 128 255 -0.000047 -1.000000 0.000000
0.458605 1.100075 -0.040925 128 128 255 -0.000046 -1.000000 0.000000
0.458605 1.100075 -0.040929 128 128 255 -0.625763 -0.312966 -0.714473
-0.041412 2.099863 -0.040934 128 128 255 -0.704202 -0.352189 -0.616492
-0.976615 0.100000 -0.084304 128 128 255 0.000000 -1.000000 0.000000
-0.976615 0.100000 -0.084314 128 128 255 0.000000 -1.000000 0.000000
-0.976615 0.100000 -0.084325 128 128 255 0.000000 -1.000000 0.000000
-0.976615 0.100000 -0.084337 128 128 255 0.000000 -1.000000 0.000000
-0.976615 0.100000 -0.084350 128 128 255 0.000000 -1.000000 0.000000
-0.976615 0.100000 -0.084364 128 128 255 0.000000 -1.000000 0.000000
-0.976615 0.100000 -0.084379 128 128 255 0.000000 -1.000000 0.000000
-0.976615 0.100000 -0.084394 128 128 255 0.000000 -1.000000 0.000000
-0.976615 0.100000 -0.084410 128 128 255 0.000000 -1.000000 0.000000
-0.976615 0.100000 -0.084426 128 128 255 0.000000 -1.000000 0.000000
-0.976615 0.100000 -0.084443 128 128 255 0.000000 -1.000000 0.000000
-0.976615 0.100000 -0.084459 128 128 255 0.000000 -1.000000 0.000000
-0.976615 0.100000 -0.084475 128 128 255 0.000000 -1.000000 0.000000
-0.976615 0.100000 -0.084491 128 128 255 0.000000 -1.000000 0.000000
-0.976615 0.100000 -0.084506 128 128 255 0.000000 -1.000000 0.000000
-0.976615 0.100000 -0.084521 128 128 255 0.000000 -1.000000 0.000000
-0.976615 0.100000 -0.084535 128 128 255 0.000000 -1.000000 0.000000
-0.976615 0.100000 -0.084548 128 128 255 0.000000 -1.000000 0.000000
-0.976615 0.100000 -0.084560 128 128 255 0.000000 -1.000000 0.000000
-0.976615 0.100000 -0.084571 128 128 255 0.000000 -1.000000 0.000000
-0.976615 0.100000 -0.084581 128 128 255 0.000000 -1.000000 0.000000
-0.976615 0.100000 -0.084590 128 128 255 -0.316831 0.158405 -0.935161
-0.476574 1.100064 -0.084597 128 128 255 -0.432630 0.216307 -0.875239
-0.476574 1.100064 -0.084602 128 128 255 0.000054 -1.000000 0.000000
-0.476574 1.100064 -0.084606 128 128 255 0.000054 -1.000000 0.000000
-0.476574 1.100064 -0.084608 128 128 255 0.000055 -1.000000 0.000000
-0.476574 1.100064 -0.084609 128 128 255 -0.000031 1.000000 0.000000
-0.476574 1.100064 -0.084608 128 128 255 -0.000052 1.000000 0.000000
-0.476574 1.100064 -0.084606 128 128 255 -0.000052 1.000000 0.000000
-0.476574 1.100064 -0.084602 128 128 255 -0.000053 1.000000 0.000000
-0.476574 1.100064 -0.084597 128 128 255 -0.000053 1.000000 0.000000
-0.476574 1.100064 -0.084590 128 128 255 -0.000053 1.000000 0.000000
-0.476574 1.100064 -0.084581 128 128 255 -0.000053 1.000000 0.000000
-0.476574 1.100064 -0.084571 128 128 255 -0.000053 1.000000 0.000000
-0.476574 1.100064 -0.084560 128 128 255 -0.000053 1.000000 0.000000
-0.476574 1.100064 -0.084548 128 128 255 -0.000053 1.000000 0.000000
-0.476574 1.100064 -0.084535 128 128 255 -0.000053 1.000000 0.000000
-0.476574 1.100064 -0.084521 128 128 255 -0.000053 1.000000 0.000000
-0.476574 1.100064 -0.084506 128 128 255 -0.000053 1.000000 0.000000
-0.476574 1.100064 -0.084491 128 128 255 -0.000053 1.000000 0.000000
-0.476574 1.100064 -0.084475 128 128 255 -0.000053 1.000000 0.000000
-0.476574 1.100064 -0.084459 128 128 255 -0.000053 1.000000 0.000000
-0.476574 1.100064 -0.084443 128 128 255 -0.000006 1.000000 0.000037
0.523494 1.100072 -0.084426 128 128 255 -0.000010 1.000000 -0.000051
0.523494 1.100072 -0.084410 128 128 255 0.000048 1.000000 0.000000
0.523494 1.100072 -0.084394 128 128 255 0.000048 1.000000 0.000000
0.523494 1.100072 -0.084379 128 128 255 0.000048 1.000000 0.000000
0.523494 1.100072 -0.084364 128 128 255 0.000048 1.000000 0.000000
0.523494 1.100072 -0.084350 128 128 255 0.000048 1.000000 0.000000
0.523494 1.100072 -0.084337 128 128 255 0.000048 1.000000 0.000000
0.523494 1.100072 -0.084325 128 128 255 0.000048 1.000000 0.000000
0.523494 1.100072 -0.084314 128 128 255 0.000048 1.000000 0.000000
0.523494 1.100072 -0.084304 128 128 255 0.000048 1.000000 0.000000
0.523494 1.100072 -0.084296 128 128 255 0.000048 1.000000 0.000000
0.523494 1.100072 -0.084289 128 128 255 0.000048 1.000000 0.000000
0.523494 1.100072 -0.084283 128 128 255 0.000048 1.000000 0.000000
0.523494 1.100072 -0.084279 128 128 255 0.000048 1.000000 0.000000
0.523494 1.100072 -0.084277 128 128 255 0.000048 1.000000 0.000000
0.523494 1.100072 -0.084276 128 128 255 -0.000051 -1.000000 0.000000
0.523494 1.100072 -0.084277 128 128 255 -0.000048 -1.000000 0.000000
0.523494 1.100072 -0.084279 128 128 255 -0.000048 -1.000000 0.000000
0.523494 1.100072 -0.084283 128 128 255 -0.000048 -1.000000 0.000000
0.523494 1.100072 -0.084289 128 128 255 -0.000048 -1.000000 0.000000
0.523494 1.100072 -0.084296 128 128 255 -0.316868 -0.158490 -0.935134
0.023469 2.099863 -0.084304 128 128 255 -0.432652 -0.216387 -0.875208
-0.900079 0.100000 -0.099549 128 128 255 0.000000 -1.000000 0.000000
-0.900079 0.100000 -0.099561 128 128 255 0.000000 -1.000000 0.000000
-0.900079 0.100000 -0.099574 128 128 255 0.000000 -1.000000 0.000000
-0.900079 0.100000 -0.099588 128 128 255 0.000000 -1.000000 0.000000
-0.900079 0.100000 -0.099603 128 128 255 0.000000 -1.000000 0.000000
-0.900079 0.100000 -0.099618 128 128 255 0.000000 -1.000000 0.000000
-0.900079 0.100000 -0.099634 128 128 255 0.000000 -1.000000 0.000000
-0.900079 0.100000 -0.099650 128 128 255 0.000000 -1.000000 0.000000
-0.900079 0.100000 -0.099667 128 128 255 0.000000 -1.000000 0.000000
-0.900079 0.100000 -0.099683 128 128 255 0.000000 -1.000000 0.000000
-0.900079 0.100000 -0.099699 128 128 255 0.000000 -1.000000 0.000000
-0.900079 0.100000 -0.099715 128 128 255 0.000000 -1.000000 0.000000
-0.900079 0.100000 -0.099730 128 128 255 0.000000 -1.000000 0.000000
-0.900079 0.100000 -0.099745 128 128 255 0.000000 -1.000000 0.000000
-0.900079 0.100000 -0.099759 128 128 255 0.000000 -1.000000 0.000000
-0.900079 0.100000 -0.099772 128 128 255 0.000000 -1.000000 0.000000
-0.900079 0.100000 -0.099785 128 128 255 0.000000 -1.000000 0.000000
-0.900079 0.100000 -0.099796 128 128 255 0.000000 -1.000000 0.000000
-0.900079 0.100000 -0.099805 128 128 255 0.000000 -1.000000 0.000000
-0.900079 0.100000 -0.099814 128 128 255 0.000000 -1.000000 0.000000
-0.900079 0.100000 -0.099821 128 128 255 0.000000 -1.000000 0.000000
-0.900079 0.100000 -0.099826 128 128 255 0.066027 -0.033024 -0.997271
-0.400034 1.100068 -0.099830 128 128 255 -0.066231 0.033110 -0.997255
-0.400034 1.100068 -0.099833 128 128 255 0.000051 -1.000000 0.000000
-0.400034 1.100068 -0.099833 128 128 255 0.327401 0.944886 0.000000
-0.400034 1.100068 -0.099833 128 128 255 -0.000049 1.000000 0.000000
-0.400034 1.100068 -0.099830 128 128 255 -0.000049 1.000000 0.000000
-0.400034 1.100068 -0.099826 128 128 255 -0.000049 1.000000 0.000000
-0.400034 1.100068 -0.099821 128 128 255 -0.000050 1.000000 0.000000
-0.400034 1.100068 -0.099814 128 128 255 -0.000050 1.000000 0.000000
-0.400034 1.100068 -0.099805 128 128 255 -0.000050 1.000000 0.000000
-0.400034 1.100068 -0.099796 128 128 255 -0.000050 1.000000 0.000000
-0.400034 1.100068 -0.099785 128 128 255 -0.000050 1.000000 0.000000
-0.400034 1.100068 -0.099772 128 128 255 -0.000050 1.000000 0.000000
-0.400034 1.100068 -0.099759 128 128 255 -0.000050 1.000000 0.000000
-0.400034 1.100068 -0.099745 128 128 255 -0.000050 1.000000 0.000000
-0.400034 1.100068 -0.099730 128 128 255 -0.000050 1.000000 0.000000
-0.400034 1.100068 -0.099715 128 128 255 -0.000050 1.000000 0.000000
-0.400034 1.100068 -0.099699 128 128 255 -0.000050 1.000000 0.000000
-0.400034 1.100068 -0.099683 128 128 255 -0.000050 1.000000 0.000000
-0.400034 1.100068 -0.099667 128 128 255 -0.000050 1.000000 0.000000
-0.400034 1.100068 -0.099650 128 128 255 -0.000050 1.000000 0.000000
-0.400034 1.100068 -0.099634 128 128 255 -0.000008 -1.000000 0.000280
0.600034 1.100068 -0.099618 128 128 255 -0.000008 1.000000 -0.000283
0.600034 1.100068 -0.099603 128 128 255 0.000050 1.000000 0.000000
0.600034 1.100068 -0.099588 128 128 255 0.000050 1.000000 0.000000
0.600034 1.100068 -0.099574 128 128 255 0.000050 1.000000 0.000000
0.600034 1.100068 -0.099561 128 128 255 0.000050 1.000000 0.000000
0.600034 1.100068 -0.099549 128 128 255 0.000050 1.000000 0.000000
0.600034 1.100068 -0.099538 128 128 255 0.000050 1.000000 0.000000
0.600034 1.100068 -0.099528 128 128 255 0.000050 1.000000 0.000000
0.600034 1.100068 -0.099520 128 128 255 0.000050 1.000000 0.000000
0.600034 1.100068 -0.099513 128 128 255 0.000050 1.000000 0.000000
0.600034 1.100068 -0.099507 128 128 255 0.000049 1.000000 0.000000
0.600034 1.100068 -0.099503 128 128 255 0.000049 1.000000 0.000000
0.600034 1.100068 -0.099501 128 128 255 0.000049 1.000000 0.000000
0.600034 1.100068 -0.099500 128 128 255 -0.295253 0.955419 0.000000
0.600034 1.100068 -0.099501 128 128 255 -0.000051 -1.000000 0.000000
0.600034 1.100068 -0.099503 128 128 255 -0.000050 -1.000000 0.000000
0.600034 1.100068 -0.099507 128 128 255 -0.000050 -1.000000 0.000000
0.600034 1.100068 -0.099513 128 128 255 -0.000050 -1.000000 0.000000
0.600034 1.100068 -0.099520 128 128 255 -0.000050 -1.000000 0.000000
0.600034 1.100068 -0.099528 128 128 255 -0.000050 -1.000000 0.000000
0.600034 1.100068 -0.099538 128 128 255 0.065836 0.032907 -0.997288
0.100000 2.099863 -0.099549 128 128 255 -0.066402 -0.033220 -0.997240
-0.823541 0.100000 -0.084350 128 128 255 0.000000 -1.000000 0.000000
-0.823541 0.100000 -0.084364 128 128 255 0.000000 -1.000000 0.000000
-0.823541 0.100000 -0.084379 128 128 255 0.000000 -1.000000 0.000000
-0.823541 0.100000 -0.084394 128 128 255 0.000000 -1.000000 0.000000
-0.823541 0.100000 -0.084410 128 128 255 0.000000 -1.000000 0.000000
-0.823541 0.100000 -0.084426 128 128 255 0.000000 -1.000000 0.000000
-0.823541 0.100000 -0.084443 128 128 255 0.000000 -1.000000 0.000000
-0.823541 0.100000 -0.084459 128 128 255 0.000000 -1.000000 0.000000
-0.823541 0.100000 -0.084475 128 128 255 0.000000 -1.000000 0.000000
-0.823541 0.100000 -0.084491 128 128 255 0.000000 -1.000000 0.000000
-0.823541 0.100000 -0.084506 128 128 255 0.000000 -1.000000 0.000000
