ply
format ascii 1.0
element vertex 707
property float x
property float y
property float z
property uchar red
property uchar green
property uchar blue
property float nx
property float ny
property float nz
end_header
0.032069 0.794976 0.262956 128 128 255 0.146495 0.398368 0.905451
0.052146 0.794972 0.259351 128 128 255 0.104611 0.426895 0.898230
0.100000 0.794971 0.255050 128 128 255 0.085991 0.450173 0.888791
0.147854 0.794972 0.250091 128 128 255 0.135189 0.470134 0.872180
0.167931 0.794976 0.244515 128 128 255 0.244661 0.485792 0.839135
0.188008 0.794983 0.238370 128 128 255 0.261658 0.506285 0.821712
0.208086 0.794993 0.231707 128 128 255 0.275696 0.525745 0.804726
0.228164 0.795005 0.224583 128 128 255 0.286913 0.544020 0.788495
0.248244 0.795021 0.217057 128 128 255 0.444578 -0.504750 -0.739985
0.212770 0.795040 0.214705 128 128 255 0.252465 -0.584324 -0.771250
0.232853 0.795062 0.212003 128 128 255 0.120709 0.522638 0.843966
0.252939 0.795088 0.208942 128 128 255 0.138880 0.487086 0.862241
0.273027 0.795119 0.205517 128 128 255 0.157680 0.449240 0.879387
0.293118 0.795153 0.201725 128 128 255 0.176836 0.409644 0.894942
0.313212 0.795192 0.197567 128 128 255 0.083941 0.365750 0.926920
0.388866 0.795237 0.193046 128 128 255 0.091688 0.343999 0.934483
0.408969 0.795286 0.188170 128 128 255 0.233237 0.287730 0.928877
0.429078 0.795343 0.182949 128 128 255 0.250628 0.248845 0.935554
0.449192 0.795405 0.177398 128 128 255 0.266862 0.212215 0.940079
0.469314 0.795475 0.171534 128 128 255 0.281739 0.178550 0.942732
0.489443 0.795552 0.165378 128 128 255 0.632447 -0.091707 -0.769156
0.454025 0.795638 0.158956 128 128 255 0.646136 -0.128973 -0.752246
0.474173 0.795733 0.152295 128 128 255 0.316934 0.100450 0.943113
0.494331 0.795837 0.145427 128 128 255 0.325276 0.083055 0.941965
0.514501 0.795951 0.138386 128 128 255 0.331855 0.070174 0.940717
0.534685 0.796076 0.131208 128 128 255 0.336636 0.061773 0.939606
0.554883 0.796213 0.123933 128 128 255 0.150258 0.061112 0.986756
0.630652 0.796361 0.116603 128 128 255 0.150917 0.062688 0.986557
0.650883 0.796522 0.109260 128 128 255 0.339783 0.062076 0.938453
0.671133 0.796696 0.101948 128 128 255 0.336927 0.069942 0.938929
0.691404 0.796884 0.094713 128 128 255 0.332019 0.081203 0.939771
0.711696 0.797086 0.087601 128 128 255 0.325009 0.095497 0.940877
0.732011 0.797302 0.080657 128 128 255 0.315856 0.112421 0.942123
0.752352 0.797534 0.073927 128 128 255 0.656343 -0.128495 -0.743440
0.717163 0.797780 0.067455 128 128 255 0.643339 -0.117284 -0.756544
0.737558 0.798043 0.061284 128 128 255 0.138945 0.168209 0.975910
0.757982 0.798321 0.060970 128 128 255 0.006629 0.125753 0.992039
0.778438 0.798615 0.060964 128 128 255 -0.006526 0.066237 0.997783
0.798926 0.798926 0.061228 128 128 255 -0.017822 0.007993 0.999809
0.819448 0.799253 0.061723 128 128 255 -0.011518 -0.058696 0.998209
0.895562 0.799597 0.062412 128 128 255 -0.014640 -0.090668 0.995774
0.916157 0.799957 0.063255 128 128 255 -0.039563 -0.147908 0.988210
0.936791 0.800334 0.064214 128 128 255 -0.042856 -0.190949 0.980664
0.957464 0.800727 0.065253 128 128 255 -0.044381 -0.228790 0.972463
0.978178 0.801137 0.066336 128 128 255 -0.044323 -0.261287 0.964243
0.998935 0.801563 0.067431 128 128 255 0.059116 0.102758 -0.992948
0.964179 0.802005 0.068507 128 128 255 -0.490143 0.424092 -0.761516
0.985023 0.802463 0.069535 128 128 255 -0.045582 -0.145870 0.988253
1.005913 0.802937 0.070493 128 128 255 -0.040233 -0.151706 0.987606
1.026849 0.803426 0.071360 128 128 255 -0.034105 -0.155186 0.987296
1.047832 0.803929 0.072117 128 128 255 -0.030337 -0.193032 0.980723
-0.848351 0.880211 0.049017 128 128 255 -0.341337 -0.018602 0.939757
-0.827354 0.879690 0.056506 128 128 255 -0.332587 -0.024330 0.942759
-0.806403 0.879184 0.064120 128 128 255 -0.337692 -0.038243 0.940480
-0.785498 0.878693 0.071806 128 128 255 -0.340686 -0.051351 0.938774
-0.764638 0.878218 0.079511 128 128 255 -0.774381 0.035702 -0.631711
-0.799378 0.822203 0.087186 128 128 255 -0.777553 0.027315 -0.628224
-0.778605 0.821760 0.094780 128 128 255 -0.343835 -0.083836 0.935280
-0.757874 0.821334 0.102249 128 128 255 -0.337550 -0.091987 0.936802
-0.737184 0.820923 0.109548 128 128 255 -0.329471 -0.098501 0.939014
-0.716534 0.820530 0.116639 128 128 255 -0.319720 -0.103231 0.941872
-0.695922 0.820152 0.123485 128 128 255 -0.123560 -0.098360 0.987450
-0.619792 0.819792 0.130055 128 128 255 -0.146135 -0.123343 0.981545
-0.599253 0.819448 0.136323 128 128 255 -0.281813 -0.105415 0.953661
-0.578748 0.819121 0.142265 128 128 255 -0.266810 -0.101779 0.958360
-0.558276 0.818811 0.147863 128 128 255 -0.250910 -0.095828 0.963255
-0.537836 0.818516 0.153106 128 128 255 -0.234304 -0.087520 0.968216
-0.517425 0.818238 0.157985 128 128 255 -0.914472 0.115712 0.387752
-0.552598 0.817976 0.162496 128 128 255 -0.240591 0.156290 -0.957961
-0.532243 0.817729 0.166641 128 128 255 -0.182305 -0.048530 0.982044
-0.511912 0.817497 0.170425 128 128 255 -0.164966 -0.031065 0.985810
-0.491606 0.817281 0.173857 128 128 255 -0.147989 -0.011582 0.988921
-0.471321 0.817078 0.176951 128 128 255 -0.131588 0.009723 0.991257
-0.451058 0.816890 0.179723 128 128 255 -0.115964 0.032612 0.992718
-0.430814 0.816715 0.182193 128 128 255 -0.038591 0.055615 0.997706
-0.355032 0.816553 0.184381 128 128 255 -0.041703 0.087619 0.995281
-0.334822 0.816404 0.186311 128 128 255 -0.075456 0.107896 0.991295
-0.314627 0.816266 0.188009 128 128 255 -0.064504 0.134121 0.988863
-0.294446 0.816140 0.189501 128 128 255 -0.276158 0.148695 0.949540
-0.274277 0.816024 0.198048 128 128 255 -0.382424 0.141165 0.913140
-0.254120 0.815919 0.206344 128 128 255 -0.530551 -0.068048 -0.844917
-0.289529 0.815823 0.214316 128 128 255 -0.949455 -0.144667 -0.278581
-0.269392 0.815735 0.221896 128 128 255 -0.339931 0.124703 0.932146
-0.249263 0.815656 0.229016 128 128 255 -0.319339 0.120360 0.939966
-0.229141 0.815585 0.235612 128 128 255 -0.295473 0.116804 0.948184
-0.209026 0.815521 0.241624 128 128 255 -0.268361 0.114156 0.956531
-0.188917 0.815464 0.246996 128 128 255 -0.092309 0.103281 0.990360
-0.113257 0.815413 0.251679 128 128 255 -0.098277 0.128779 0.986792
-0.093157 0.815368 0.255627 128 128 255 -0.168858 0.112678 0.979179
-0.073062 0.815328 0.258802 128 128 255 -0.130503 0.114590 0.984803
-0.052969 0.815293 0.261175 128 128 255 -0.090228 0.117768 0.988934
-0.032880 0.815262 0.262721 128 128 255 -0.048574 0.122202 0.991316
-0.012792 0.815236 0.263424 128 128 255 -0.009522 -0.078598 -0.996861
-0.048263 0.815214 0.263276 128 128 255 0.279413 -0.377633 -0.882792
-0.028180 0.815196 0.262277 128 128 255 0.078347 0.142489 0.986691
-0.008098 0.815181 0.260435 128 128 255 0.119126 0.151250 0.981291
0.011983 0.815170 0.257766 128 128 255 0.158128 0.160791 0.974239
0.032063 0.815162 0.254293 128 128 255 0.194851 0.170967 0.965817
0.052143 0.815157 0.250049 128 128 255 0.128052 0.173041 0.976555
0.100000 0.815155 0.245071 128 128 255 0.112235 0.198228 0.973709
0.147857 0.815157 0.239405 128 128 255 0.188705 0.224724 0.955976
0.167937 0.815162 0.233101 128 128 255 0.312359 0.215097 0.925292
0.188017 0.815170 0.226219 128 128 255 0.333566 0.226320 0.915157
0.208098 0.815181 0.218819 128 128 255 0.351440 0.237386 0.905615
0.228180 0.815196 0.210968 128 128 255 0.366040 0.248192 0.896892
0.248263 0.815214 0.202736 128 128 255 0.274963 -0.152972 -0.949207
0.212792 0.815236 0.201433 128 128 255 0.367022 -0.659243 -0.656272
0.232880 0.815262 0.199798 128 128 255 0.079201 0.240367 0.967445
0.252969 0.815293 0.197811 128 128 255 0.097065 0.220005 0.970657
0.273062 0.815328 0.195454 128 128 255 0.115837 0.199444 0.973038
0.293157 0.815368 0.192711 128 128 255 0.135290 0.178967 0.974509
0.313257 0.815413 0.189572 128 128 255 0.059389 0.140773 0.988259
0.388917 0.815464 0.186029 128 128 255 0.083579 0.163307 0.983029
0.409026 0.815521 0.182078 128 128 255 0.195202 0.120875 0.973286
0.429141 0.815585 0.177721 128 128 255 0.214799 0.103504 0.971158
0.449263 0.815656 0.172964 128 128 255 0.233774 0.087507 0.968345
0.469392 0.815735 0.167817 128 128 255 0.251888 0.073060 0.964995
0.489529 0.815823 0.162294 128 128 255 0.397873 -0.026204 -0.917066
0.454120 0.815919 0.156417 128 128 255 0.932269 -0.080031 -0.352804
0.474277 0.816024 0.150209 128 128 255 0.298963 0.040207 0.953417
0.494446 0.816140 0.143700 128 128 255 0.311651 0.032958 0.949625
0.514627 0.816266 0.136923 128 128 255 0.322599 0.027576 0.946134
0.534822 0.816404 0.129916 128 128 255 0.331693 0.024028 0.943081
0.555032 0.816553 0.122720 128 128 255 0.135260 0.021447 0.990578
0.630814 0.816715 0.115379 128 128 255 0.171147 0.026975 0.984876
0.651058 0.816890 0.107942 128 128 255 0.346878 0.023727 0.937610
0.671321 0.817078 0.100458 128 128 255 0.347635 0.026763 0.937248
0.691606 0.817281 0.092979 128 128 255 0.346121 0.031175 0.937672
0.711912 0.817497 0.085560 128 128 255 0.342275 0.036829 0.938878
0.732243 0.817729 0.078254 128 128 255 0.766110 0.198681 0.611230
0.752598 0.817976 0.071117 128 128 255 0.901965 0.352700 0.249121
0.717425 0.818238 0.064203 128 128 255 0.956031 -0.063915 -0.286216
0.737836 0.818516 0.057565 128 128 255 0.085985 0.067486 0.994008
0.758276 0.818811 0.058492 128 128 255 -0.064500 0.049707 0.996679
0.778748 0.819121 0.059701 128 128 255 -0.075917 0.025432 0.996790
0.799253 0.819448 0.061140 128 128 255 -0.084716 0.001929 0.996403
0.819792 0.819792 0.062762 128 128 255 -0.034952 -0.022702 0.999131
0.895922 0.820152 0.064515 128 128 255 -0.045397 -0.043135 0.998037
0.916534 0.820530 0.066351 128 128 255 -0.095762 -0.061459 0.993505
0.937184 0.820923 0.068223 128 128 255 -0.094657 -0.079516 0.992329
0.957874 0.821334 0.070083 128 128 255 -0.091409 -0.095754 0.991199
0.978605 0.821760 0.071892 128 128 255 -0.086210 -0.110043 0.990181
0.999378 0.822203 0.073607 128 128 255 0.173453 0.160627 -0.971655
0.964638 0.878218 0.075195 128 128 255 0.225091 0.148194 -0.963002
0.985498 0.878693 0.076624 128 128 255 -0.056779 -0.140388 0.988467
1.006403 0.879184 0.077866 128 128 255 -0.048244 -0.146022 0.988104
1.027354 0.879690 0.078901 128 128 255 -0.038888 -0.149405 0.988011
1.048351 0.880211 0.079710 128 128 255 -0.034004 -0.127742 0.991224
-0.848888 0.900971 0.049382 128 128 255 -0.373298 -0.038178 0.926926
-0.827876 0.900434 0.057599 128 128 255 -0.366597 -0.058014 0.928569
-0.806910 0.899911 0.065915 128 128 255 -0.369566 -0.087702 0.925056
-0.785989 0.899403 0.074266 128 128 255 -0.369760 -0.115548 0.921914
-0.765114 0.898911 0.082586 128 128 255 -0.764983 0.094198 -0.637125
-0.799837 0.898435 0.090817 128 128 255 -0.782282 0.037924 -0.621769
-0.779048 0.897975 0.098898 128 128 255 -0.355787 -0.079888 0.931146
-0.758301 0.897531 0.106774 128 128 255 -0.347975 -0.087399 0.933421
-0.737595 0.897104 0.114394 128 128 255 -0.338130 -0.093394 0.936454
-0.716928 0.896693 0.121711 128 128 255 -0.326377 -0.097729 0.940174
-0.696299 0.896299 0.128683 128 128 255 -0.155493 -0.114913 0.981131
-0.620152 0.895922 0.135275 128 128 255 -0.118819 -0.094170 0.988440
-0.599597 0.895562 0.141454 128 128 255 -0.281107 -0.099493 0.954505
-0.579075 0.895218 0.147197 128 128 255 -0.263252 -0.095970 0.959942
-0.558587 0.894891 0.152484 128 128 255 -0.244348 -0.090256 0.965478
-0.538130 0.894581 0.157304 128 128 255 -0.224626 -0.082310 0.970963
-0.517703 0.894287 0.161649 128 128 255 -0.204334 -0.072121 0.976241
-0.497305 0.894008 0.165521 128 128 255 -0.222573 0.138081 -0.965088
-0.532489 0.893746 0.168924 128 128 255 -0.858700 0.178110 0.480532
-0.512144 0.893499 0.171871 128 128 255 -0.142737 -0.028554 0.989349
-0.491823 0.893267 0.174376 128 128 255 -0.122895 -0.010057 0.992369
-0.471524 0.893050 0.176463 128 128 255 -0.103857 0.010144 0.994541
-0.451246 0.892847 0.178156 128 128 255 -0.085878 0.031820 0.995797
-0.430989 0.892658 0.179486 128 128 255 -0.032852 0.066620 0.997237
-0.355194 0.892483 0.180484 128 128 255 -0.020512 0.066993 0.997543
-0.334972 0.892320 0.181187 128 128 255 -0.040412 0.102992 0.993861
-0.314765 0.892170 0.181631 128 128 255 -0.028607 0.127767 0.991392
-0.294573 0.892031 0.181856 128 128 255 -0.195388 0.144102 0.970082
-0.274394 0.891904 0.190761 128 128 255 -0.392831 0.133551 0.909862
-0.254227 0.891787 0.199404 128 128 255 -0.959154 -0.114133 -0.258838
-0.289626 0.891680 0.207707 128 128 255 -0.525894 -0.073752 -0.847347
-0.269480 0.891582 0.215592 128 128 255 -0.350928 0.118928 0.928819
-0.249342 0.891494 0.222982 128 128 255 -0.330162 0.115151 0.936874
-0.229213 0.891414 0.229807 128 128 255 -0.305911 0.112115 0.945436
-0.209091 0.891341 0.236001 128 128 255 -0.278188 0.109926 0.954216
-0.188975 0.891276 0.241500 128 128 255 -0.119496 0.124658 0.984978
-0.113309 0.891218 0.246251 128 128 255 -0.082043 0.100087 0.991590
-0.093203 0.891166 0.250205 128 128 255 -0.175414 0.109349 0.978403
-0.073102 0.891120 0.253321 128 128 255 -0.135508 0.111367 0.984497
-0.053004 0.891080 0.255567 128 128 255 -0.093494 0.114538 0.989009
-0.032910 0.891045 0.256917 128 128 255 -0.049957 0.118850 0.991655
-0.012818 0.891014 0.257356 128 128 255 -0.044326 -0.395505 -0.917393
-0.048285 0.890989 0.256877 128 128 255 0.060274 -0.073273 -0.995489
-0.028197 0.890967 0.255484 128 128 255 0.082877 0.138057 0.986951
-0.008112 0.890950 0.253187 128 128 255 0.125503 0.146231 0.981257
0.011973 0.890937 0.250008 128 128 255 0.166198 0.155090 0.973820
0.032056 0.890928 0.245976 128 128 255 0.204424 0.164498 0.964962
0.052139 0.890922 0.241129 128 128 255 0.156050 0.193236 0.968663
0.100000 0.890920 0.235513 128 128 255 0.117717 0.190320 0.974639
0.147861 0.890922 0.229181 128 128 255 0.170690 0.185940 0.967621
0.167944 0.890928 0.222193 128 128 255 0.325750 0.205068 0.922949
0.188027 0.890937 0.214617 128 128 255 0.347378 0.215374 0.912657
0.208112 0.890950 0.206525 128 128 255 0.365484 0.225548 0.903078
0.228197 0.890967 0.197992 128 128 255 0.380138 0.235504 0.894446
0.248285 0.890989 0.189099 128 128 255 0.860111 -0.331409 -0.387785
0.212818 0.891014 0.188789 128 128 255 0.047114 -0.167844 -0.984687
0.232910 0.891045 0.188166 128 128 255 0.046151 0.230078 0.972077
0.253004 0.891080 0.187197 128 128 255 0.063751 0.210858 0.975436
0.273102 0.891120 0.185853 128 128 255 0.082686 0.191439 0.978015
0.293203 0.891166 0.184106 128 128 255 0.102727 0.172079 0.979712
0.313309 0.891218 0.181934 128 128 255 0.058645 0.168229 0.984002
0.388975 0.891276 0.179320 128 128 255 0.055374 0.126006 0.990483
0.409091 0.891341 0.176249 128 128 255 0.166766 0.116979 0.979033
0.429213 0.891414 0.172714 128 128 255 0.188411 0.100433 0.976941
0.449342 0.891494 0.168713 128 128 255 0.209692 0.085158 0.974052
0.469480 0.891582 0.164249 128 128 255 0.230313 0.071325 0.970499
0.489626 0.891680 0.159332 128 128 255 0.913762 -0.065272 -0.400972
0.454227 0.891787 0.153977 128 128 255 0.397951 -0.034841 -0.916745
0.474394 0.891904 0.148204 128 128 255 0.285580 0.039649 0.957534
0.494573 0.892031 0.142042 128 128 255 0.301055 0.032570 0.953050
0.514765 0.892170 0.135522 128 128 255 0.314752 0.027249 0.948783
0.534972 0.892320 0.128684 128 128 255 0.326521 0.023656 0.944894
0.555194 0.892483 0.121569 128 128 255 0.166846 0.026235 0.985634
0.630989 0.892658 0.114227 128 128 255 0.137595 0.020916 0.990268
0.651246 0.892847 0.106708 128 128 255 0.349087 0.022590 0.936818
0.671524 0.893050 0.099068 128 128 255 0.352038 0.025175 0.935647
0.691823 0.893267 0.091367 128 128 255 0.352569 0.029047 0.935335
0.712144 0.893499 0.083665 128 128 255 0.350608 0.034081 0.935902
0.732489 0.893746 0.076024 128 128 255 0.961588 -0.054175 -0.269097
0.697305 0.894008 0.068509 128 128 255 0.902734 0.356334 0.241032
0.717703 0.894287 0.061184 128 128 255 0.753835 0.212760 0.621664
0.738130 0.894581 0.054111 128 128 255 0.152148 0.061993 0.986412
0.758587 0.894891 0.056214 128 128 255 -0.096618 0.046010 0.994258
0.779075 0.895218 0.058573 128 128 255 -0.107512 0.023229 0.993932
0.799597 0.895562 0.061127 128 128 255 -0.115465 0.001191 0.993311
0.820152 0.895922 0.063814 128 128 255 -0.057905 -0.027477 0.997944
0.896299 0.896299 0.066576 128 128 255 -0.047406 -0.033423 0.998316
0.916928 0.896693 0.069352 128 128 255 -0.122223 -0.058277 0.990790
0.937595 0.897104 0.072086 128 128 255 -0.119166 -0.075260 0.990018
0.958301 0.897531 0.074725 128 128 255 -0.113736 -0.090565 0.989375
0.979048 0.897975 0.077218 128 128 255 -0.106142 -0.104067 0.988890
0.999837 0.898435 0.079522 128 128 255 -0.728836 0.325713 -0.602253
0.965114 0.898911 0.081594 128 128 255 0.007097 0.088412 -0.996059
0.985989 0.899403 0.083400 128 128 255 -0.067430 -0.299217 0.951799
1.006910 0.899911 0.084911 128 128 255 -0.052738 -0.310395 0.949144
1.027876 0.900434 0.086104 128 128 255 -0.037462 -0.317085 0.947657
1.048888 0.900971 0.086963 128 128 255 -0.029772 -0.322290 0.946173
-0.849441 0.921768 0.049819 128 128 255 -0.397396 -0.040882 0.916736
-0.828414 0.921214 0.058709 128 128 255 -0.391207 -0.058688 0.918430
-0.807433 0.920674 0.067672 128 128 255 -0.392983 -0.085372 0.915574
-0.786498 0.920150 0.076634 128 128 255 -0.391732 -0.110415 0.913430
-0.765606 0.919641 0.085520 128 128 255 -0.785559 0.081062 -0.613455
-0.800314 0.919148 0.094260 128 128 255 -0.778676 0.067913 -0.623740
-0.779509 0.918671 0.102786 128 128 255 -0.371184 -0.172441 0.912407
-0.758745 0.918210 0.111033 128 128 255 -0.359255 -0.187758 0.914157
-0.738022 0.917766 0.118943 128 128 255 -0.345059 -0.199929 0.917040
-0.717339 0.917339 0.126462 128 128 255 -0.328762 -0.208687 0.921067
-0.696693 0.916928 0.133543 128 128 255 -0.138002 -0.217941 0.966156
-0.620530 0.916534 0.140145 128 128 255 -0.128198 -0.221897 0.966606
-0.599957 0.916157 0.146234 128 128 255 -0.268979 -0.211848 0.939559
-0.579419 0.915797 0.151782 128 128 255 -0.246027 -0.204348 0.947477
-0.558914 0.915454 0.156770 128 128 255 -0.221900 -0.192184 0.955942
-0.538441 0.915127 0.161187 128 128 255 -0.196833 -0.175172 0.964661
-0.517997 0.914816 0.165028 128 128 255 -0.171097 -0.153188 0.973272
-0.497583 0.914522 0.168295 128 128 255 -0.377088 0.066678 -0.923774
-0.532752 0.914244 0.170999 128 128 255 -0.311278 0.133521 -0.940892
-0.512391 0.913982 0.173156 128 128 255 -0.093149 -0.057656 0.993981
-0.492055 0.913735 0.174791 128 128 255 -0.068211 -0.016725 0.997531
-0.471741 0.913503 0.175931 128 128 255 -0.044514 0.027944 0.998618
-0.451449 0.913285 0.176611 128 128 255 -0.022495 0.075606 0.996884
-0.431178 0.913082 0.176871 128 128 255 -0.001077 0.134819 0.990870
-0.355370 0.912893 0.176753 128 128 255 0.006314 0.166978 0.985940
-0.335135 0.912716 0.176305 128 128 255 0.029777 0.227286 0.973373
-0.314916 0.912553 0.175574 128 128 255 0.041759 0.277452 0.959831
-0.294712 0.912401 0.174612 128 128 255 -0.199107 0.308935 0.930008
-0.274522 0.912262 0.183833 128 128 255 -0.391249 0.287603 0.874191
-0.254344 0.912133 0.192786 128 128 255 -0.739396 -0.193245 -0.644942
-0.289734 0.912015 0.201381 128 128 255 -0.719951 -0.220055 -0.658214
-0.269578 0.911907 0.209534 128 128 255 -0.350247 0.262007 0.899266
-0.249432 0.911809 0.217162 128 128 255 -0.328926 0.255607 0.909105
-0.229294 0.911719 0.224188 128 128 255 -0.303655 0.250657 0.919220
-0.209164 0.911638 0.230537 128 128 255 -0.274449 0.247367 0.929240
-0.189040 0.911565 0.236143 128 128 255 -0.103937 0.251615 0.962230
-0.113367 0.911499 0.240947 128 128 255 -0.087519 0.251541 0.963881
-0.093255 0.911440 0.244896 128 128 255 -0.164873 0.249127 0.954334
-0.073148 0.911388 0.247947 128 128 255 -0.122221 0.253932 0.959469
-0.053045 0.911342 0.250066 128 128 255 -0.077465 0.260877 0.962259
-0.032945 0.911301 0.251226 128 128 255 -0.031377 0.269880 0.962383
-0.012848 0.911267 0.251414 128 128 255 0.039483 -0.293588 -0.955116
-0.048310 0.911237 0.250624 128 128 255 0.159402 -0.274641 -0.948242
-0.028218 0.911213 0.248860 128 128 255 0.106074 0.307510 0.945614
-0.008128 0.911193 0.246138 128 128 255 0.148714 0.322794 0.934713
0.011961 0.911177 0.242484 128 128 255 0.188517 0.338992 0.921708
0.032048 0.911167 0.237931 128 128 255 0.224940 0.355833 0.907075
0.052135 0.911160 0.232524 128 128 255 0.155529 0.383547 0.910331
0.100000 0.911158 0.226317 128 128 255 0.124413 0.404342 0.906106
0.147865 0.911160 0.219369 128 128 255 0.190070 0.419297 0.887729
0.167952 0.911167 0.211750 128 128 255 0.331421 0.424947 0.842366
0.188039 0.911177 0.203536 128 128 255 0.348013 0.441737 0.826895
0.208128 0.911193 0.194806 128 128 255 0.360810 0.458049 0.812408
0.228218 0.911213 0.185646 128 128 255 0.370007 0.473773 0.799146
0.248310 0.911237 0.176147 128 128 255 0.424944 -0.455747 -0.782123
0.212848 0.911267 0.176763 128 128 255 -0.052200 -0.544787 -0.836949
0.232945 0.911301 0.177086 128 128 255 -0.007087 0.471062 0.882072
0.253045 0.911342 0.177069 128 128 255 0.008870 0.439184 0.898353
0.273148 0.911388 0.176672 128 128 255 0.027171 0.405548 0.913670
0.293255 0.911440 0.175858 128 128 255 0.047631 0.370589 0.927575
0.313367 0.911499 0.174594 128 128 255 0.029528 0.327759 0.944300
0.389040 0.911565 0.172851 128 128 255 0.039476 0.307720 0.950658
0.409164 0.911638 0.170607 128 128 255 0.118834 0.263528 0.957304
0.429294 0.911719 0.167847 128 128 255 0.144450 0.229320 0.962573
0.449432 0.911809 0.164560 128 128 255 0.170214 0.196968 0.965521
0.469578 0.911907 0.160742 128 128 255 0.195651 0.167064 0.966339
0.489734 0.912015 0.156399 128 128 255 0.513675 -0.102334 -0.851860
0.454344 0.912133 0.151541 128 128 255 0.553843 -0.124385 -0.823278
0.474522 0.912262 0.146186 128 128 255 0.265794 0.096425 0.959195
0.494712 0.912401 0.140359 128 128 255 0.285984 0.080116 0.954879
0.514916 0.912553 0.134092 128 128 255 0.304146 0.067589 0.950225
0.535135 0.912716 0.127423 128 128 255 0.320091 0.058803 0.945560
0.555370 0.912893 0.120399 128 128 255 0.147510 0.057972 0.987360
0.631178 0.913082 0.113068 128 128 255 0.153095 0.056262 0.986609
0.651449 0.913285 0.105488 128 128 255 0.353185 0.053547 0.934020
0.671741 0.913503 0.097718 128 128 255 0.358919 0.058158 0.931555
0.692055 0.913735 0.089823 128 128 255 0.361838 0.065541 0.929934
0.712391 0.913982 0.081872 128 128 255 0.361856 0.075411 0.929179
0.732752 0.914244 0.073934 128 128 255 0.724570 -0.087188 -0.683664
0.697583 0.914522 0.066081 128 128 255 0.722102 -0.078293 -0.687342
0.717997 0.914816 0.058386 128 128 255 0.343744 0.116852 0.931765
0.738441 0.915127 0.050922 128 128 255 0.089266 0.134268 0.986916
0.758914 0.915454 0.054124 128 128 255 -0.159822 0.099034 0.982166
0.779419 0.915797 0.057558 128 128 255 -0.168517 0.050156 0.984422
0.799957 0.916157 0.061153 128 128 255 -0.173427 0.002662 0.984843
0.820530 0.916534 0.064836 128 128 255 -0.075208 -0.053409 0.995736
0.896693 0.916928 0.068539 128 128 255 -0.074369 -0.081123 0.993926
0.917339 0.917339 0.072194 128 128 255 -0.166658 -0.124918 0.978070
0.938022 0.917766 0.075734 128 128 255 -0.158028 -0.160811 0.974252
0.958745 0.918210 0.079099 128 128 255 -0.146731 -0.192820 0.970201
0.979509 0.918671 0.082233 128 128 255 -0.133116 -0.220749 0.966204
1.000314 0.919148 0.085085 128 128 255 -0.330842 0.255985 -0.908304
0.965606 0.919641 0.087610 128 128 255 -0.291411 0.254415 -0.922146
0.986498 0.920150 0.089769 128 128 255 -0.081901 -0.279093 0.956765
1.007433 0.920674 0.091532 128 128 255 -0.062519 -0.289976 0.954990
1.028414 0.921214 0.092874 128 128 255 -0.042531 -0.296615 0.954050
1.049441 0.921768 0.093779 128 128 255 -0.032417 -0.302536 0.952586
-0.850011 0.942602 0.050326 128 128 255 -0.418189 -0.043256 0.907329
-0.828970 0.942031 0.059822 128 128 255 -0.412621 -0.058812 0.909002
-0.807974 0.941475 0.069367 128 128 255 -0.413368 -0.082164 0.906849
-0.787023 0.940934 0.078878 128 128 255 -0.410882 -0.104073 0.905729
-0.766116 0.940408 0.088271 128 128 255 -0.802202 0.067717 -0.593201
-0.800807 0.939898 0.097465 128 128 255 -0.793847 0.059661 -0.605184
-0.779986 0.939405 0.106385 128 128 255 -0.385169 -0.158344 0.909160
-0.759206 0.938927 0.114960 128 128 255 -0.370925 -0.171707 0.912651
-0.738466 0.938466 0.123123 128 128 255 -0.354068 -0.182255 0.917289
-0.717766 0.938022 0.130814 128 128 255 -0.334745 -0.189715 0.923014
-0.697104 0.937595 0.137982 128 128 255 -0.139314 -0.196577 0.970541
-0.620923 0.937184 0.144580 128 128 255 -0.127682 -0.200786 0.971279
-0.600334 0.936791 0.150572 128 128 255 -0.263677 -0.190863 0.945540
-0.579779 0.936414 0.155929 128 128 255 -0.236311 -0.183310 0.954230
-0.559257 0.936054 0.160631 128 128 255 -0.207535 -0.171419 0.963091
-0.538767 0.935711 0.164666 128 128 255 -0.177671 -0.155033 0.971801
-0.518308 0.935385 0.168032 128 128 255 -0.147093 -0.134069 0.979994
-0.497877 0.935075 0.170733 128 128 255 -0.309667 0.052310 -0.949405
-0.533030 0.934781 0.172785 128 128 255 -0.229433 0.121752 -0.965679
-0.512653 0.934503 0.174208 128 128 255 -0.055564 -0.044396 0.997468
-0.492302 0.934240 0.175033 128 128 255 -0.026816 -0.006452 0.999620
-0.471973 0.933993 0.175294 128 128 255 0.000165 0.034730 0.999397
-0.451667 0.933761 0.175036 128 128 255 0.024876 0.078482 0.996605
-0.431381 0.933544 0.174305 128 128 255 0.019772 0.132695 0.990960
-0.355559 0.933340 0.173155 128 128 255 0.027843 0.161944 0.986407
-0.335311 0.933150 0.171641 128 128 255 0.081415 0.217268 0.972711
-0.315080 0.932973 0.169824 128 128 255 0.093577 0.263328 0.960157
-0.294864 0.932809 0.167764 128 128 255 -0.180312 0.294282 0.938555
-0.274662 0.932657 0.177252 128 128 255 -0.402246 0.272285 0.874105
-0.254473 0.932516 0.186464 128 128 255 -0.750057 -0.184168 -0.635214
-0.289852 0.932387 0.195304 128 128 255 -0.731382 -0.207352 -0.649681
-0.269686 0.932268 0.203681 128 128 255 -0.358970 0.253007 0.898403
-0.249530 0.932159 0.211505 128 128 255 -0.336439 0.248611 0.908296
-0.229384 0.932060 0.218693 128 128 255 -0.309711 0.245538 0.918581
-0.209245 0.931970 0.225165 128 128 255 -0.278790 0.243947 0.928852
-0.189114 0.931888 0.230851 128 128 255 -0.105015 0.250334 0.962447
-0.113433 0.931814 0.235686 128 128 255 -0.087618 0.250328 0.964188
-0.093314 0.931748 0.239615 128 128 255 -0.162607 0.249250 0.954690
-0.073200 0.931689 0.242593 128 128 255 -0.117382 0.254566 0.959905
-0.053091 0.931637 0.244583 128 128 255 -0.069972 0.261626 0.962630
-0.032985 0.931592 0.245560 128 128 255 -0.021243 0.270332 0.962533
-0.012883 0.931552 0.245509 128 128 255 0.072374 -0.294119 -0.953025
-0.048339 0.931519 0.244426 128 128 255 0.197546 -0.270627 -0.942198
-0.028242 0.931490 0.242318 128 128 255 0.123186 0.304680 0.944455
-0.008147 0.931468 0.239204 128 128 255 0.167615 0.318188 0.933092
0.011947 0.931450 0.235113 128 128 255 0.208887 0.332367 0.919728
0.032039 0.931438 0.230085 128 128 255 0.246464 0.347015 0.904896
0.052131 0.931431 0.224169 128 128 255 0.169767 0.373602 0.911921
0.100000 0.931428 0.217425 128 128 255 0.135239 0.392824 0.909615
0.147869 0.931431 0.209920 128 128 255 0.205419 0.405380 0.890769
0.167961 0.931438 0.201731 128 128 255 0.354944 0.407059 0.841616
0.188053 0.931450 0.192941 128 128 255 0.371527 0.421800 0.827074
0.208147 0.931468 0.183639 128 128 255 0.384149 0.436234 0.813713
0.228242 0.931490 0.173918 128 128 255 0.393006 0.450275 0.801748
0.248339 0.931519 0.163877 128 128 255 0.418910 -0.437772 -0.795532
0.212883 0.931552 0.165345 128 128 255 -0.147031 -0.518147 -0.842559
0.232985 0.931592 0.166535 128 128 255 -0.045801 0.452297 0.890691
0.253091 0.931637 0.167395 128 128 255 -0.030478 0.422700 0.905757
0.273200 0.931689 0.167871 128 128 255 -0.012348 0.391595 0.920055
0.293314 0.931748 0.167918 128 128 255 0.008434 0.359349 0.933165
0.313433 0.931814 0.167492 128 128 255 0.013318 0.319457 0.947507
0.389114 0.931888 0.166556 128 128 255 0.023870 0.300585 0.953456
0.409245 0.931970 0.165081 128 128 255 0.083692 0.260607 0.961811
0.429384 0.932060 0.163041 128 128 255 0.111646 0.228903 0.967026
0.449530 0.932159 0.160420 128 128 255 0.140165 0.198774 0.969970
0.469686 0.932268 0.157209 128 128 255 0.168695 0.170752 0.970766
0.489852 0.932387 0.153406 128 128 255 0.470015 -0.112934 -0.875404
0.454473 0.932516 0.149020 128 128 255 0.519971 -0.129381 -0.844328
0.474662 0.932657 0.144064 128 128 255 0.249230 0.103404 0.962908
0.494864 0.932809 0.138562 128 128 255 0.272948 0.087386 0.958052
0.515080 0.932973 0.132545 128 128 255 0.294539 0.074761 0.952711
0.535311 0.933150 0.126052 128 128 255 0.313760 0.065508 0.947240
0.555560 0.933340 0.119130 128 128 255 0.145979 0.064361 0.987192
0.631381 0.933544 0.111831 128 128 255 0.152963 0.061301 0.986329
0.651667 0.933761 0.104215 128 128 255 0.355432 0.056817 0.932974
0.671973 0.933993 0.096347 128 128 255 0.363565 0.059680 0.929655
0.692302 0.934240 0.088297 128 128 255 0.368652 0.065055 0.927288
0.712653 0.934503 0.080139 128 128 255 0.370610 0.072694 0.925939
0.733030 0.934781 0.071950 128 128 255 0.736880 -0.081799 -0.671056
0.697877 0.935075 0.063809 128 128 255 0.736014 -0.074449 -0.672860
0.718308 0.935385 0.055796 128 128 255 0.356961 0.106499 0.928029
0.738767 0.935711 0.047994 128 128 255 0.074395 0.123286 0.989579
0.759257 0.936054 0.052209 128 128 255 -0.205903 0.091084 0.974324
0.779779 0.936414 0.056633 128 128 255 -0.213154 0.046895 0.975893
0.800334 0.936791 0.061186 128 128 255 -0.216267 0.004016 0.976326
0.820923 0.937184 0.065787 128 128 255 -0.093421 -0.047464 0.994495
0.897104 0.937595 0.070356 128 128 255 -0.091497 -0.073203 0.993111
0.917766 0.938022 0.074818 128 128 255 -0.202260 -0.111636 0.972948
0.938466 0.938466 0.079100 128 128 255 -0.190633 -0.144498 0.970968
0.959206 0.938927 0.083134 128 128 255 -0.176056 -0.174006 0.968879
0.979986 0.939405 0.086858 128 128 255 -0.158889 -0.199949 0.966838
1.000807 0.939898 0.090215 128 128 255 -0.386447 0.228435 -0.893575
0.966116 0.940408 0.093157 128 128 255 -0.338969 0.234341 -0.911144
0.987023 0.940934 0.095643 128 128 255 -0.095652 -0.255024 0.962192
1.007974 0.941475 0.097639 128 128 255 -0.071954 -0.265555 0.961407
1.028970 0.942031 0.099120 128 128 255 -0.047595 -0.272140 0.961080
1.050011 0.942602 0.100071 128 128 255 -0.035195 -0.278780 0.959710
-0.850597 0.963473 0.050900 128 128 255 -0.435602 -0.045313 0.898998
-0.829541 0.962886 0.060927 128 128 255 -0.430741 -0.058438 0.900581
-0.808531 0.962313 0.070980 128 128 255 -0.430605 -0.078181 0.899148
-0.787564 0.961756 0.080968 128 128 255 -0.427076 -0.096669 0.899033
-0.766642 0.961214 0.090799 128 128 255 -0.815395 0.054292 -0.576354
-0.801317 0.960688 0.100385 128 128 255 -0.805940 0.051116 -0.589787
-0.780480 0.960177 0.109643 128 128 255 -0.396966 -0.142237 0.906745
-0.759683 0.959683 0.118494 128 128 255 -0.380710 -0.153311 0.911897
-0.738927 0.959206 0.126866 128 128 255 -0.361508 -0.161902 0.918204
-0.718210 0.958745 0.134694 128 128 255 -0.339483 -0.167743 0.925534
-0.697531 0.958301 0.141922 128 128 255 -0.140179 -0.171693 0.975126
-0.621334 0.957874 0.148499 128 128 255 -0.126891 -0.175979 0.976181
-0.600727 0.957464 0.154388 128 128 255 -0.258130 -0.166099 0.951725
-0.580155 0.957071 0.159556 128 128 255 -0.226697 -0.158335 0.961009
-0.559617 0.956695 0.163983 128 128 255 -0.193639 -0.146626 0.970054
-0.539110 0.956335 0.167659 128 128 255 -0.159372 -0.130853 0.978508
-0.518634 0.955993 0.170581 128 128 255 -0.124384 -0.110974 0.986009
-0.498187 0.955667 0.172759 128 128 255 -0.242272 0.033877 -0.969617
-0.533324 0.955357 0.174209 128 128 255 -0.148708 0.104688 -0.983324
-0.512931 0.955064 0.174957 128 128 255 -0.020796 -0.027832 0.999396
-0.492564 0.954786 0.175040 128 128 255 0.011220 0.006773 0.999914
-0.472220 0.954524 0.174498 128 128 255 0.040969 0.044073 0.998188
-0.451899 0.954277 0.173382 128 128 255 0.067913 0.083487 0.994192
-0.431599 0.954045 0.171748 128 128 255 0.038759 0.132359 0.990444
-0.355763 0.953827 0.169656 128 128 255 0.047439 0.158458 0.986225
-0.335501 0.953623 0.167173 128 128 255 0.127996 0.207964 0.969726
-0.315257 0.953433 0.164366 128 128 255 0.140370 0.249398 0.958174
-0.295028 0.953256 0.161307 128 128 255 -0.161828 0.279624 0.946373
-0.274814 0.953091 0.171002 128 128 255 -0.410888 0.257820 0.874471
-0.254614 0.952939 0.180414 128 128 255 -0.758080 -0.176989 -0.627686
-0.289982 0.952798 0.189443 128 128 255 -0.740106 -0.196277 -0.643210
-0.269805 0.952668 0.197990 128 128 255 -0.365454 0.245903 0.897761
-0.249640 0.952549 0.205961 128 128 255 -0.341828 0.243824 0.907581
-0.229483 0.952439 0.213265 128 128 255 -0.313799 0.242920 0.917889
-0.209335 0.952340 0.219821 128 128 255 -0.281367 0.243298 0.928245
-0.189196 0.952249 0.225553 128 128 255 -0.105409 0.252084 0.961947
-0.113507 0.952167 0.230392 128 128 255 -0.087180 0.252317 0.963709
-0.093380 0.952094 0.234283 128 128 255 -0.159471 0.252753 0.954298
-0.073259 0.952028 0.237176 128 128 255 -0.112059 0.258696 0.959437
-0.053142 0.951970 0.239034 128 128 255 -0.062421 0.265939 0.961967
-0.033030 0.951918 0.239831 128 128 255 -0.011499 0.274363 0.961557
-0.012922 0.951874 0.239554 128 128 255 0.102924 -0.297717 -0.949090
-0.048372 0.951836 0.238199 128 128 255 0.231857 -0.270133 -0.934489
-0.028269 0.951804 0.235776 128 128 255 0.138561 0.305179 0.942161
-0.008168 0.951779 0.232306 128 128 255 0.184385 0.316749 0.930415
0.011931 0.951759 0.227822 128 128 255 0.226785 0.328715 0.916796
0.032029 0.951745 0.222367 128 128 255 0.265239 0.340950 0.901888
0.052126 0.951737 0.215998 128 128 255 0.182284 0.366018 0.912581
0.100000 0.951734 0.208778 128 128 255 0.144780 0.383345 0.912187
0.147874 0.951737 0.200783 128 128 255 0.218885 0.393231 0.893005
0.167971 0.951745 0.192093 128 128 255 0.375282 0.390781 0.840508
0.188069 0.951759 0.182800 128 128 255 0.391898 0.403121 0.826988
0.208168 0.951779 0.172999 128 128 255 0.404439 0.415299 0.814835
0.228269 0.951804 0.162793 128 128 255 0.413095 0.427255 0.804242
0.248372 0.951836 0.152285 128 128 255 0.413110 -0.419219 -0.808452
0.212922 0.951874 0.154517 128 128 255 -0.232032 -0.487556 -0.841695
0.233030 0.951918 0.156490 128 128 255 -0.081265 0.433372 0.897544
0.253142 0.951970 0.158140 128 128 255 -0.066498 0.406545 0.911208
0.273259 0.952028 0.159407 128 128 255 -0.048541 0.378456 0.924346
0.293380 0.952094 0.160234 128 128 255 -0.027522 0.349398 0.936570
0.313507 0.952167 0.160571 128 128 255 -0.001547 0.313379 0.949627
0.389196 0.952249 0.160372 128 128 255 0.009514 0.295929 0.955162
0.409335 0.952340 0.159599 128 128 255 0.051075 0.260264 0.964186
0.429483 0.952439 0.158221 128 128 255 0.081014 0.231419 0.969475
0.449640 0.952549 0.156215 128 128 255 0.111906 0.203815 0.972593
0.469805 0.952668 0.153567 128 128 255 0.143138 0.177914 0.973580
0.489982 0.952798 0.150270 128 128 255 0.425332 -0.126914 -0.896095
0.454614 0.952939 0.146328 128 128 255 0.485026 -0.137722 -0.863587
0.474814 0.953091 0.141753 128 128 255 0.232936 0.114151 0.965769
0.495028 0.953256 0.136567 128 128 255 0.259838 0.098380 0.960628
0.515257 0.953433 0.130800 128 128 255 0.284533 0.085553 0.954841
0.535501 0.953623 0.124492 128 128 255 0.306720 0.075671 0.948787
0.555763 0.953827 0.117689 128 128 255 0.143968 0.074041 0.986808
0.631599 0.954045 0.110447 128 128 255 0.152200 0.069545 0.985900
0.651899 0.954277 0.102828 128 128 255 0.356134 0.062829 0.932320
0.672220 0.954524 0.094901 128 128 255 0.366418 0.063653 0.928271
0.692564 0.954786 0.086741 128 128 255 0.373444 0.066717 0.925250
0.712931 0.955064 0.078427 128 128 255 0.377136 0.071806 0.923370
0.733324 0.955357 0.070041 128 128 255 0.746279 -0.077443 -0.661113
0.698187 0.955667 0.061670 128 128 255 0.746690 -0.072060 -0.661258
0.718634 0.955993 0.053402 128 128 255 0.367512 0.096952 0.924951
0.739110 0.956335 0.045323 128 128 255 0.060391 0.112590 0.991805
0.759617 0.956695 0.050456 128 128 255 -0.246446 0.083780 0.965529
0.780155 0.957071 0.055777 128 128 255 -0.252371 0.044638 0.966600
0.800727 0.957464 0.061196 128 128 255 -0.253930 0.006697 0.967199
0.821334 0.957874 0.066626 128 128 255 -0.109836 -0.039716 0.993156
0.897531 0.958301 0.071979 128 128 255 -0.106965 -0.063235 0.992250
0.918210 0.958745 0.077171 128 128 255 -0.233950 -0.096111 0.967487
0.938927 0.959206 0.082124 128 128 255 -0.219852 -0.125637 0.967409
0.959683 0.959683 0.086763 128 128 255 -0.202537 -0.152347 0.967352
0.980480 0.960177 0.091020 128 128 255 -0.182357 -0.176027 0.967347
1.001317 0.960688 0.094836 128 128 255 -0.434963 0.198575 -0.878280
0.966642 0.961214 0.098157 128 128 255 -0.381410 0.211344 -0.899922
0.987564 0.961756 0.100940 128 128 255 -0.108579 -0.227241 0.967767
1.008530 0.962313 0.103150 128 128 255 -0.080997 -0.237332 0.968046
1.029541 0.962886 0.104761 128 128 255 -0.052668 -0.243840 0.968384
1.050597 0.963473 0.105757 128 128 255 -0.038149 -0.251185 0.967187
-0.851199 0.984383 0.051539 128 128 255 0.451254 -0.060925 -0.890314
-0.830129 0.983780 0.062012 128 128 255 0.452285 -0.171492 -0.875231
-0.809104 0.983191 0.072491 128 128 255 0.443275 -0.216997 -0.869724
-0.788122 0.982618 0.082876 128 128 255 0.430437 -0.258284 -0.864878
-0.767184 0.982059 0.093070 128 128 255 -0.233413 0.655439 -0.718274
-0.801844 0.981517 0.102977 128 128 255 -0.815253 0.042366 -0.577553
-0.780990 0.980990 0.112508 128 128 255 -0.406375 -0.124353 0.905205
-0.760177 0.980480 0.121579 128 128 255 -0.388384 -0.132821 0.911875
-0.739405 0.979986 0.130112 128 128 255 -0.367138 -0.139134 0.919702
-0.718671 0.979509 0.138037 128 128 255 -0.342731 -0.143042 0.928480
-0.697975 0.979048 0.145294 128 128 255 -0.140478 -0.143601 0.979615
-0.621760 0.978605 0.151831 128 128 255 -0.125730 -0.147780 0.980996
-0.601137 0.978178 0.157605 128 128 255 -0.252173 -0.137855 0.957812
-0.580548 0.977769 0.162586 128 128 255 -0.217084 -0.129738 0.967493
-0.559993 0.977377 0.166751 128 128 255 -0.180186 -0.118145 0.976512
-0.539469 0.977001 0.170090 128 128 255 -0.141999 -0.102995 0.984494
-0.518976 0.976642 0.172603 128 128 255 -0.103125 -0.084295 0.991090
-0.498513 0.976300 0.174301 128 128 255 -0.176871 0.011894 -0.984162
-0.533633 0.975975 0.175203 128 128 255 -0.071875 0.082914 -0.993961
-0.513224 0.975666 0.175341 128 128 255 0.010758 -0.008366 0.999907
-0.492841 0.975373 0.174753 128 128 255 0.045451 0.022585 0.998711
-0.472482 0.975096 0.173489 128 128 255 0.077419 0.055677 0.995443
-0.452146 0.974834 0.171604 128 128 255 0.106123 0.090422 0.990233
-0.431831 0.974587 0.169160 128 128 255 0.055718 0.133693 0.989455
-0.355981 0.974355 0.166225 128 128 255 0.064925 0.156459 0.985548
-0.335705 0.974138 0.162875 128 128 255 0.169006 0.199554 0.965202
-0.315447 0.973934 0.159184 128 128 255 0.181607 0.235972 0.954639
-0.295205 0.973744 0.155233 128 128 255 -0.143728 0.265093 0.953451
-0.274979 0.973567 0.165066 128 128 255 -0.416926 0.244300 0.875494
-0.254766 0.973402 0.174612 128 128 255 -0.763464 -0.171632 -0.622628
-0.290123 0.973249 0.183765 128 128 255 -0.746091 -0.186812 -0.639100
-0.269935 0.973108 0.192420 128 128 255 -0.369460 0.240660 0.897542
-0.249759 0.972978 0.200480 128 128 255 -0.344855 0.241167 0.907146
-0.229592 0.972859 0.207850 128 128 255 -0.315689 0.242679 0.917304
-0.209435 0.972750 0.214444 128 128 255 -0.281958 0.245250 0.927552
-0.189286 0.972650 0.220183 128 128 255 -0.105025 0.256618 0.960790
-0.113589 0.972560 0.224996 128 128 255 -0.086128 0.257254 0.962498
-0.093453 0.972479 0.228824 128 128 255 -0.155322 0.259350 0.953212
-0.073324 0.972406 0.231617 128 128 255 -0.106156 0.266013 0.958106
-0.053200 0.972341 0.233338 128 128 255 -0.054764 0.273490 0.960315
-0.033081 0.972284 0.233959 128 128 255 -0.002150 0.281643 0.959517
-0.012965 0.972235 0.233468 128 128 255 0.130980 -0.304064 -0.943604
-0.048408 0.972192 0.231863 128 128 255 0.262200 -0.272932 -0.925613
-0.028299 0.972157 0.229155 128 128 255 0.152074 0.308752 0.938907
-0.008192 0.972128 0.225367 128 128 255 0.198883 0.318268 0.926904
0.011913 0.972106 0.220537 128 128 255 0.242064 0.327880 0.913181
0.032017 0.972090 0.214712 128 128 255 0.281115 0.337540 0.898354
0.052120 0.972081 0.207950 128 128 255 0.192929 0.360739 0.912494
0.100000 0.972078 0.200323 128 128 255 0.152902 0.375899 0.913959
0.147880 0.972081 0.191908 128 128 255 0.230288 0.382905 0.894624
0.167983 0.972090 0.182794 128 128 255 0.392271 0.376249 0.839381
0.188087 0.972106 0.173078 128 128 255 0.408950 0.385885 0.826954
0.208192 0.972128 0.162861 128 128 255 0.421481 0.395469 0.816062
0.228299 0.972157 0.152250 128 128 255 0.430046 0.404969 0.806883
0.248408 0.972192 0.141358 128 128 255 0.407527 -0.400243 -0.820809
0.212965 0.972235 0.144262 128 128 255 -0.305178 -0.455071 -0.836527
0.233081 0.972284 0.146924 128 128 255 -0.112875 0.414653 0.902952
0.253200 0.972341 0.149272 128 128 255 -0.098591 0.391028 0.915083
0.273324 0.972406 0.151239 128 128 255 -0.080817 0.366366 0.926954
0.293453 0.972479 0.152760 128 128 255 -0.059664 0.340885 0.938210
0.313589 0.972560 0.153777 128 128 255 -0.014885 0.309441 0.950802
0.389286 0.972650 0.154238 128 128 255 -0.003426 0.293639 0.955910
0.409435 0.972750 0.154097 128 128 255 0.021449 0.262365 0.964730
0.429592 0.972859 0.153318 128 128 255 0.052962 0.236652 0.970150
0.449759 0.972978 0.151872 128 128 255 0.085776 0.211810 0.973539
0.469935 0.973108 0.149740 128 128 255 0.119237 0.188223 0.974861
0.490123 0.973249 0.146912 128 128 255 0.380378 -0.143957 -0.913559
0.454766 0.973402 0.143387 128 128 255 0.449343 -0.149276 -0.880799
0.474979 0.973567 0.139176 128 128 255 0.216914 0.128294 0.967724
0.495205 0.973744 0.134298 128 128 255 0.246585 0.112736 0.962542
0.515447 0.973934 0.128783 128 128 255 0.274000 0.099615 0.956557
0.535705 0.974138 0.122670 128 128 255 0.298798 0.088965 0.950161
0.555981 0.974355 0.116007 128 128 255 0.141382 0.086669 0.986154
0.631831 0.974587 0.108852 128 128 255 0.150697 0.080681 0.985282
0.652146 0.974834 0.101268 128 128 255 0.355054 0.071339 0.932120
0.672482 0.975096 0.093327 128 128 255 0.367240 0.069870 0.927498
0.692841 0.975373 0.085109 128 128 255 0.375979 0.070354 0.923953
0.713224 0.975666 0.076697 128 128 255 0.381204 0.072617 0.921635
0.733633 0.975975 0.068178 128 128 255 0.752793 -0.074021 -0.654083
0.698513 0.976300 0.059645 128 128 255 0.754220 -0.070989 -0.652774
0.718976 0.976642 0.051189 128 128 255 0.375172 0.088220 0.922747
0.739469 0.977001 0.042905 128 128 255 0.047251 0.102231 0.993638
0.759993 0.977377 0.048852 128 128 255 -0.281307 0.077157 0.956511
0.780548 0.977769 0.054967 128 128 255 -0.286056 0.043308 0.957234
0.801137 0.978178 0.061154 128 128 255 -0.286309 0.010529 0.958079
0.821760 0.978605 0.067318 128 128 255 -0.124320 -0.030379 0.991777
0.897975 0.979048 0.073365 128 128 255 -0.120643 -0.051453 0.991362
0.918671 0.979509 0.079204 128 128 255 -0.261554 -0.078712 0.961974
0.939405 0.979986 0.084750 128 128 255 -0.245489 -0.104622 0.963737
0.960177 0.980480 0.089925 128 128 255 -0.225964 -0.128243 0.965657
0.980990 0.980990 0.094657 128 128 255 -0.203311 -0.149374 0.967653
1.001844 0.981517 0.098880 128 128 255 -0.388847 0.140506 0.910525
0.967184 0.982059 0.102539 128 128 255 0.117508 0.140132 -0.983135
0.988122 0.982618 0.105589 128 128 255 0.117853 -0.515160 -0.848953
1.009104 0.983191 0.107992 128 128 255 0.086900 -0.535406 -0.840112
1.030129 0.983780 0.109723 128 128 255 0.056119 -0.548998 -0.833938
1.051199 0.984383 0.110766 128 128 255 0.005924 -0.892987 0.450042
-0.851817 0.949776 0.052240 128 128 255 -0.452903 -0.379786 0.806624
-0.830733 0.949157 0.063067 128 128 255 0.432184 -0.171998 -0.885231
-0.809693 0.948553 0.073882 128 128 255 0.430485 -0.206150 -0.878741
-0.788696 0.947964 0.084579 128 128 255 0.425370 -0.236678 -0.873524
-0.767742 0.947390 0.095053 128 128 255 0.681857 0.294358 -0.669645
-0.802387 1.002387 0.105205 128 128 255 0.666322 0.715231 -0.210853
-0.781517 1.001844 0.114940 128 128 255 0.382184 -0.305242 -0.872217
-0.760688 1.001317 0.124168 128 128 255 0.357389 -0.319634 -0.877558
-0.739898 1.000807 0.132808 128 128 255 0.329823 -0.328924 -0.884888
-0.719148 1.000314 0.140786 128 128 255 0.299606 -0.332672 -0.894185
-0.698435 0.999837 0.148039 128 128 255 0.132324 -0.486115 -0.863818
-0.622203 0.999378 0.154512 128 128 255 0.075615 -0.515327 -0.853651
-0.601563 0.998935 0.160161 128 128 255 0.194154 -0.305410 -0.932217
-0.580957 0.998509 0.164954 128 128 255 0.154589 -0.281529 -0.947018
-0.560385 0.998101 0.168868 128 128 255 0.113267 -0.249292 -0.961782
-0.539844 0.997709 0.171894 128 128 255 0.070665 -0.208288 -0.975511
-0.519334 0.997335 0.174033 128 128 255 0.027461 -0.158377 -0.986997
-0.498854 0.996977 0.175296 128 128 255 -0.007292 -0.006403 0.999953
-0.533958 0.996636 0.175709 128 128 255 -0.040295 0.042361 -0.998289
-0.513533 0.996312 0.175303 128 128 255 -0.095786 0.039131 -0.994632
-0.493134 0.996003 0.174122 128 128 255 -0.130712 0.116104 -0.984598
-0.472759 0.995711 0.172221 128 128 255 -0.160617 0.194985 -0.967565
-0.452407 0.995434 0.169659 128 128 255 -0.184706 0.273274 -0.944037
-0.432077 0.995173 0.166504 128 128 255 -0.052202 0.221539 -0.973753
-0.356213 0.994927 0.162832 128 128 255 -0.193339 0.854691 -0.481792
-0.335923 0.994696 0.158723 128 128 255 -0.220220 0.484310 -0.846727
-0.315650 0.994479 0.154260 128 128 255 -0.220970 0.542681 -0.810351
-0.295395 0.994275 0.149530 128 128 255 0.421053 0.540959 -0.728064
-0.275156 0.994085 0.159426 128 128 255 0.358594 0.559811 -0.747009
-0.254931 0.993908 0.169032 128 128 255 0.209197 -0.130749 0.969093
-0.290275 0.993744 0.178237 128 128 255 0.293429 -0.201393 -0.934527
-0.270076 0.993592 0.186933 128 128 255 0.306057 0.568533 -0.763609
-0.249889 0.993451 0.195019 128 128 255 0.280198 0.573880 -0.769513
-0.229712 0.993321 0.202397 128 128 255 0.250203 0.580438 -0.774913
-0.209544 0.993203 0.208978 128 128 255 0.216269 0.588110 -0.779329
-0.189385 0.993094 0.214680 128 128 255 0.050610 0.405189 -0.912831
-0.113678 0.992995 0.219432 128 128 255 0.090603 0.940825 -0.326558
-0.093534 0.992906 0.223171 128 128 255 0.095230 0.615994 -0.781974
-0.073396 0.992826 0.225848 128 128 255 0.050794 0.626122 -0.778069
-0.053264 0.992755 0.227423 128 128 255 0.005821 0.636264 -0.771450
-0.033137 0.992692 0.227871 128 128 255 -0.038692 0.646221 -0.762169
-0.013013 0.992638 0.227178 128 128 255 -0.050713 -0.164340 0.985099
-0.048449 0.992591 0.225345 128 128 255 -0.118576 -0.228824 -0.966219
-0.028333 0.992551 0.222383 128 128 255 -0.160344 0.673898 -0.721215
-0.008219 0.992520 0.218320 128 128 255 -0.194597 0.682325 -0.704673
0.011893 0.992495 0.213194 128 128 255 -0.224977 0.690430 -0.687526
0.032004 0.992478 0.207056 128 128 255 -0.251308 0.698292 -0.670248
0.052113 0.992467 0.199968 128 128 255 -0.131864 0.578110 -0.805234
0.100000 0.992464 0.192004 128 128 255 -0.127080 0.740097 -0.660384
0.147887 0.992467 0.183249 128 128 255 -0.226142 0.897716 -0.378109
0.167996 0.992478 0.173794 128 128 255 -0.316832 0.728706 -0.607128
0.188107 0.992495 0.163740 128 128 255 -0.324048 0.736252 -0.594075
0.208219 0.992520 0.153195 128 128 255 -0.328014 0.743784 -0.582402
0.228333 0.992551 0.142271 128 128 255 -0.328944 0.751273 -0.572175
0.248449 0.992591 0.131084 128 128 255 0.125775 -0.221352 0.967049
0.213013 0.992638 0.134559 128 128 255 0.128460 -0.365283 -0.921990
0.233137 0.992692 0.137809 128 128 255 0.109929 0.767234 -0.631876
0.253264 0.992755 0.140757 128 128 255 0.101641 0.748089 -0.655769
0.273396 0.992826 0.143327 128 128 255 0.090092 0.726503 -0.681232
0.293534 0.992906 0.145449 128 128 255 0.075064 0.702275 -0.707937
0.313678 0.992995 0.147059 128 128 255 0.016510 0.462400 -0.886518
0.389385 0.993094 0.148097 128 128 255 0.020869 0.954662 -0.296959
0.409544 0.993203 0.148515 128 128 255 0.008142 0.612600 -0.790351
0.429712 0.993321 0.148268 128 128 255 -0.021080 0.577270 -0.816281
0.449889 0.993451 0.147325 128 128 255 -0.053125 0.539785 -0.840125
0.470076 0.993592 0.145661 128 128 255 -0.087312 0.500799 -0.861149
0.490275 0.993744 0.143262 128 128 255 -0.065466 -0.087593 0.994003
0.454931 0.993908 0.140127 128 128 255 -0.126668 -0.137541 -0.982363
0.475156 0.994085 0.136262 128 128 255 -0.193909 0.383964 -0.902757
0.495395 0.994275 0.131686 128 128 255 -0.227670 0.348432 -0.909264
0.515651 0.994479 0.126427 128 128 255 -0.259165 0.316138 -0.912628
0.535923 0.994696 0.120524 128 128 255 -0.287778 0.287754 -0.913445
0.556213 0.994927 0.114025 128 128 255 -0.081753 0.166970 -0.982567
0.632078 0.995173 0.106990 128 128 255 -0.382582 0.676727 -0.629025
