ply
format ascii 1.0
element vertex 693
property float x
property float y
property float z
property uchar red
property uchar green
property uchar blue
property float nx
property float ny
property float nz
end_header
-0.731546 0.265405 0.948714 128 128 255 -0.694071 0.137073 -0.706736
-0.740583 0.210665 0.948781 128 128 255 -0.701603 0.091360 -0.706687
-0.746021 0.155451 0.948851 128 128 255 -0.706125 0.045253 -0.706640
-0.747836 0.100000 0.948922 128 128 255 -0.707616 -0.001051 -0.706596
-0.746021 0.044549 0.948996 128 128 255 -0.706071 -0.047352 -0.706556
-0.740583 -0.010665 0.949071 128 128 255 -0.701497 -0.093450 -0.706519
-0.731546 -0.065405 0.949147 128 128 255 -0.693912 -0.139149 -0.706486
-0.718947 -0.119436 0.949223 128 128 255 -0.683353 -0.184250 -0.706457
-0.702842 -0.172528 0.949301 128 128 255 -0.669861 -0.228561 -0.706432
-0.683299 -0.224453 0.949378 128 128 255 -0.653499 -0.271891 -0.706410
-0.660401 -0.274988 0.949455 128 128 255 -0.634334 -0.314053 -0.706393
-0.634248 -0.323918 0.949532 128 128 255 -0.612450 -0.354867 -0.706381
-0.604950 -0.371033 0.949608 128 128 255 -0.587944 -0.394158 -0.706372
-0.572634 -0.416130 0.949683 128 128 255 -0.560918 -0.431757 -0.706369
-0.537437 -0.459017 0.949756 128 128 255 -0.531491 -0.467502 -0.706370
-0.499511 -0.499511 0.949828 128 128 255 -0.499790 -0.501241 -0.706376
-0.459017 -0.537437 0.949898 128 128 255 -0.465950 -0.532830 -0.706387
-0.416130 -0.572634 0.949965 128 128 255 -0.430119 -0.562132 -0.706403
-0.371033 -0.604950 0.950030 128 128 255 -0.392451 -0.589023 -0.706423
-0.323918 -0.634248 0.950092 128 128 255 -0.353107 -0.613389 -0.706449
-0.274988 -0.660401 0.950151 128 128 255 -0.312257 -0.635125 -0.706478
-0.224453 -0.683299 0.950207 128 128 255 -0.270077 -0.654139 -0.706513
-0.172528 -0.702842 0.950259 128 128 255 -0.226748 -0.670350 -0.706552
-0.119436 -0.718947 0.950307 128 128 255 -0.182457 -0.683691 -0.706595
-0.065405 -0.731546 0.950351 128 128 255 -0.137393 -0.694104 -0.706642
-0.010665 -0.740583 0.950391 128 128 255 -0.091750 -0.701545 -0.706694
0.044549 -0.746021 0.950427 128 128 255 -0.045724 -0.705985 -0.706749
0.100000 -0.747836 0.950457 128 128 255 0.000489 -0.707406 -0.706807
0.155451 -0.746021 0.950484 128 128 255 0.046690 -0.705802 -0.706869
0.210665 -0.740583 0.950505 128 128 255 0.092682 -0.701181 -0.706933
0.265405 -0.731546 0.950522 128 128 255 0.138268 -0.693565 -0.707000
0.319436 -0.718947 0.950533 128 128 255 0.183253 -0.682987 -0.707069
0.372528 -0.702842 0.950540 128 128 255 0.227446 -0.669493 -0.707141
0.424453 -0.683299 0.950541 128 128 255 0.270657 -0.653142 -0.707213
0.474988 -0.660401 0.950537 128 128 255 0.312704 -0.634005 -0.707287
0.523918 -0.634248 0.950528 128 128 255 0.353406 -0.612164 -0.707361
0.571033 -0.604950 0.950514 128 128 255 0.392591 -0.587713 -0.707436
0.616130 -0.572634 0.950495 128 128 255 0.430092 -0.560758 -0.707511
0.659017 -0.537437 0.950471 128 128 255 0.465749 -0.531415 -0.707585
0.699511 -0.499511 0.950441 128 128 255 0.499413 -0.499808 -0.707657
0.737437 -0.459017 0.950407 128 128 255 0.530937 -0.466073 -0.707730
0.772634 -0.416130 0.950368 128 128 255 0.560191 -0.430354 -0.707801
0.804950 -0.371033 0.950325 128 128 255 0.587048 -0.392804 -0.707869
0.834248 -0.323918 0.950277 128 128 255 0.611396 -0.353583 -0.707936
0.860401 -0.274988 0.950225 128 128 255 0.633132 -0.312858 -0.708000
0.883299 -0.224453 0.950169 128 128 255 0.652163 -0.270803 -0.708060
0.902842 -0.172528 0.950109 128 128 255 0.668407 -0.227595 -0.708119
0.918947 -0.119436 0.950045 128 128 255 0.681798 -0.183421 -0.708173
0.931545 -0.065405 0.949978 128 128 255 0.692277 -0.138467 -0.708222
0.940583 -0.010665 0.949908 128 128 255 0.699801 -0.092925 -0.708268
0.946021 0.044549 0.949835 128 128 255 0.704337 -0.046989 -0.708309
0.947836 0.100000 0.949759 128 128 255 0.705661 -0.024065 -0.708141
0.961717 0.100000 0.963591 128 128 255 0.705695 0.022205 -0.708168
0.959872 0.156359 0.963520 128 128 255 0.704370 0.045383 -0.708381
0.954345 0.212477 0.963447 128 128 255 0.699858 0.091329 -0.708419
0.945159 0.268113 0.963372 128 128 255 0.692356 0.136885 -0.708453
0.932355 0.323029 0.963297 128 128 255 0.681897 0.181857 -0.708481
0.915986 0.376990 0.963221 128 128 255 0.668524 0.226053 -0.708503
0.896123 0.429765 0.963144 128 128 255 0.652294 0.269284 -0.708519
0.872850 0.481128 0.963068 128 128 255 0.633274 0.311366 -0.708530
0.846269 0.530858 0.962992 128 128 255 0.611545 0.352121 -0.708536
0.816491 0.578744 0.962916 128 128 255 0.587200 0.391373 -0.708536
0.783646 0.624580 0.962842 128 128 255 0.560340 0.428955 -0.708531
0.747873 0.668169 0.962769 128 128 255 0.531079 0.464706 -0.708522
0.709326 0.709326 0.962698 128 128 255 0.499544 0.498473 -0.708506
0.668169 0.747873 0.962628 128 128 255 0.465866 0.530112 -0.708485
0.624580 0.783646 0.962562 128 128 255 0.430187 0.559486 -0.708459
0.578744 0.816491 0.962497 128 128 255 0.392662 0.586468 -0.708429
0.530858 0.846269 0.962436 128 128 255 0.353447 0.610943 -0.708395
0.481128 0.872850 0.962378 128 128 255 0.312711 0.632806 -0.708356
0.429765 0.896123 0.962324 128 128 255 0.270629 0.651962 -0.708312
0.376990 0.915986 0.962273 128 128 255 0.227378 0.668326 -0.708265
0.323029 0.932355 0.962226 128 128 255 0.183143 0.681828 -0.708215
0.268113 0.945159 0.962184 128 128 255 0.138115 0.692410 -0.708161
0.212477 0.954345 0.962146 128 128 255 0.092484 0.700025 -0.708104
0.156359 0.959872 0.962113 128 128 255 0.046448 0.704639 -0.708045
0.100000 0.961717 0.962084 128 128 255 0.000202 0.706231 -0.707982
0.043641 0.959872 0.962060 128 128 255 -0.046054 0.704793 -0.707917
-0.012477 0.954345 0.962041 128 128 255 -0.092123 0.700328 -0.707851
-0.068113 0.945159 0.962028 128 128 255 -0.137805 0.692858 -0.707783
-0.123029 0.932355 0.962019 128 128 255 -0.182906 0.682411 -0.707715
-0.176990 0.915986 0.962016 128 128 255 -0.227231 0.669033 -0.707644
-0.229765 0.896123 0.962018 128 128 255 -0.270589 0.652780 -0.707573
-0.281128 0.872850 0.962025 128 128 255 -0.312793 0.633721 -0.707502
-0.330858 0.846269 0.962037 128 128 255 -0.353662 0.611936 -0.707430
-0.378744 0.816491 0.962054 128 128 255 -0.393020 0.587519 -0.707359
-0.424580 0.783646 0.962077 128 128 255 -0.430696 0.560574 -0.707289
-0.468169 0.747873 0.962104 128 128 255 -0.466529 0.531217 -0.707220
-0.509326 0.709326 0.962136 128 128 255 -0.500364 0.499573 -0.707151
-0.547873 0.668169 0.962173 128 128 255 -0.532055 0.465781 -0.707083
-0.583646 0.624580 0.962214 128 128 255 -0.561465 0.429981 -0.707017
-0.616491 0.578744 0.962260 128 128 255 -0.588468 0.392331 -0.706952
-0.646269 0.530858 0.962310 128 128 255 -0.612947 0.352991 -0.706890
-0.672850 0.481128 0.962363 128 128 255 -0.634796 0.312132 -0.706829
-0.696123 0.429765 0.962421 128 128 255 -0.653921 0.269928 -0.706772
-0.715986 0.376990 0.962481 128 128 255 -0.670241 0.226561 -0.706716
-0.732355 0.323029 0.962545 128 128 255 -0.683684 0.182217 -0.706663
-0.745159 0.268113 0.962611 128 128 255 -0.694193 0.137089 -0.706613
-0.754345 0.212477 0.962680 128 128 255 -0.701723 0.091369 -0.706566
-0.759872 0.156359 0.962752 128 128 255 -0.706241 0.045256 -0.706523
-0.761717 0.100000 0.962825 128 128 255 -0.707729 -0.001054 -0.706483
-0.759872 0.043641 0.962900 128 128 255 -0.706180 -0.047360 -0.706447
-0.754345 -0.012477 0.962976 128 128 255 -0.701602 -0.093463 -0.706413
-0.745159 -0.068113 0.963053 128 128 255 -0.694013 -0.139165 -0.706384
-0.732355 -0.123029 0.963131 128 128 255 -0.683448 -0.184270 -0.706360
-0.715986 -0.176990 0.963209 128 128 255 -0.669951 -0.228583 -0.706340
-0.696123 -0.229765 0.963288 128 128 255 -0.653582 -0.271915 -0.706324
-0.672850 -0.281128 0.963365 128 128 255 -0.634413 -0.314078 -0.706311
-0.646269 -0.330858 0.963443 128 128 255 -0.612524 -0.354893 -0.706304
-0.616491 -0.378744 0.963519 128 128 255 -0.588011 -0.394184 -0.706301
-0.583646 -0.424580 0.963594 128 128 255 -0.560981 -0.431782 -0.706303
-0.547873 -0.468169 0.963667 128 128 255 -0.531549 -0.467526 -0.706310
-0.509326 -0.509326 0.963738 128 128 255 -0.499844 -0.501264 -0.706322
-0.468169 -0.547873 0.963808 128 128 255 -0.466001 -0.532851 -0.706338
-0.424580 -0.583646 0.963874 128 128 255 -0.430166 -0.562151 -0.706359
-0.378744 -0.616491 0.963938 128 128 255 -0.392495 -0.589040 -0.706385
-0.330858 -0.646269 0.963999 128 128 255 -0.353149 -0.613403 -0.706416
-0.281128 -0.672850 0.964057 128 128 255 -0.312297 -0.635136 -0.706451
-0.229765 -0.696123 0.964111 128 128 255 -0.270116 -0.654147 -0.706491
-0.176990 -0.715986 0.964161 128 128 255 -0.226786 -0.670356 -0.706535
-0.123029 -0.732355 0.964208 128 128 255 -0.182494 -0.683694 -0.706582
-0.068113 -0.745159 0.964250 128 128 255 -0.137431 -0.694106 -0.706632
-0.012477 -0.754345 0.964288 128 128 255 -0.091788 -0.701546 -0.706688
0.043641 -0.759872 0.964321 128 128 255 -0.045761 -0.705984 -0.706748
0.100000 -0.761717 0.964350 128 128 255 0.000450 -0.707404 -0.706809
0.156359 -0.759872 0.964373 128 128 255 0.046651 -0.705800 -0.706874
0.212477 -0.754345 0.964392 128 128 255 0.092642 -0.701179 -0.706941
0.268113 -0.745159 0.964406 128 128 255 0.138227 -0.693563 -0.707010
0.323029 -0.732355 0.964415 128 128 255 0.183212 -0.682985 -0.707082
0.376990 -0.715986 0.964419 128 128 255 0.227404 -0.669492 -0.707154
0.429765 -0.696123 0.964417 128 128 255 0.270616 -0.653142 -0.707228
0.481128 -0.672850 0.964410 128 128 255 0.312663 -0.634007 -0.707302
0.530858 -0.646269 0.964398 128 128 255 0.353366 -0.612167 -0.707378
0.578744 -0.616491 0.964381 128 128 255 0.392552 -0.587719 -0.707453
0.624580 -0.583646 0.964359 128 128 255 0.430054 -0.560765 -0.707528
0.668169 -0.547873 0.964332 128 128 255 0.465713 -0.531423 -0.707602
0.709326 -0.509326 0.964300 128 128 255 0.499378 -0.499817 -0.707676
0.747873 -0.468169 0.964263 128 128 255 0.530905 -0.466084 -0.707747
0.783646 -0.424580 0.964221 128 128 255 0.560161 -0.430366 -0.707816
0.816491 -0.378744 0.964175 128 128 255 0.587022 -0.392818 -0.707884
0.846269 -0.330858 0.964125 128 128 255 0.611374 -0.353597 -0.707948
0.872850 -0.281128 0.964070 128 128 255 0.633113 -0.312872 -0.708010
0.896123 -0.229765 0.964012 128 128 255 0.652148 -0.270817 -0.708069
0.915986 -0.176990 0.963949 128 128 255 0.668397 -0.227610 -0.708124
0.932355 -0.123029 0.963883 128 128 255 0.681791 -0.183434 -0.708176
0.945159 -0.068113 0.963814 128 128 255 0.692274 -0.138478 -0.708223
0.954345 -0.012477 0.963743 128 128 255 0.699802 -0.092933 -0.708266
0.959872 0.043641 0.963668 128 128 255 0.704341 -0.046994 -0.708305
0.961717 0.100000 0.963591 128 128 255 0.705667 -0.024067 -0.708135
0.975596 0.100000 0.977422 128 128 255 0.705708 0.022200 -0.708155
0.973721 0.157267 0.977349 128 128 255 0.704384 0.045378 -0.708367
0.968105 0.214288 0.977275 128 128 255 0.699877 0.091329 -0.708401
0.958772 0.270820 0.977199 128 128 255 0.692380 0.136889 -0.708429
0.945761 0.326621 0.977123 128 128 255 0.681924 0.181866 -0.708453
0.929128 0.381451 0.977046 128 128 255 0.668553 0.226068 -0.708471
0.908945 0.435076 0.976969 128 128 255 0.652324 0.269305 -0.708483
0.885298 0.487266 0.976892 128 128 255 0.633306 0.311394 -0.708490
0.858289 0.537798 0.976816 128 128 255 0.611578 0.352155 -0.708491
0.828032 0.586455 0.976740 128 128 255 0.587232 0.391413 -0.708487
0.794657 0.633029 0.976666 128 128 255 0.560372 0.429002 -0.708477
0.758308 0.677321 0.976594 128 128 255 0.531111 0.464760 -0.708463
0.719140 0.719140 0.976523 128 128 255 0.499573 0.498533 -0.708443
0.677321 0.758308 0.976455 128 128 255 0.465891 0.530178 -0.708418
0.633029 0.794657 0.976389 128 128 255 0.430210 0.559558 -0.708388
0.586455 0.828032 0.976326 128 128 255 0.392681 0.586547 -0.708354
0.537798 0.858289 0.976266 128 128 255 0.353463 0.611028 -0.708315
0.487266 0.885298 0.976210 128 128 255 0.312722 0.632895 -0.708272
0.435076 0.908945 0.976157 128 128 255 0.270633 0.652054 -0.708226
0.381451 0.929128 0.976109 128 128 255 0.227377 0.668423 -0.708175
0.326621 0.945761 0.976064 128 128 255 0.183136 0.681929 -0.708120
0.270820 0.958772 0.976024 128 128 255 0.138101 0.692513 -0.708063
0.214288 0.968105 0.975988 128 128 255 0.092464 0.700131 -0.708002
0.157267 0.973721 0.975957 128 128 255 0.046420 0.704746 -0.707939
0.100000 0.975596 0.975931 128 128 255 0.000167 0.706339 -0.707874
0.042733 0.973721 0.975910 128 128 255 -0.046096 0.704900 -0.707807
-0.014288 0.968105 0.975894 128 128 255 -0.092172 0.700437 -0.707738
-0.070820 0.958772 0.975883 128 128 255 -0.137861 0.692965 -0.707667
-0.126621 0.945761 0.975877 128 128 255 -0.182969 0.682518 -0.707596
-0.181451 0.929128 0.975876 128 128 255 -0.227301 0.669137 -0.707524
-0.235076 0.908945 0.975881 128 128 255 -0.270665 0.652881 -0.707451
-0.287266 0.885298 0.975891 128 128 255 -0.312876 0.633818 -0.707378
-0.337798 0.858289 0.975906 128 128 255 -0.353751 0.612029 -0.707305
-0.386455 0.828032 0.975926 128 128 255 -0.393114 0.587608 -0.707233
-0.433029 0.794657 0.975951 128 128 255 -0.430796 0.560658 -0.707162
-0.477321 0.758308 0.975982 128 128 255 -0.466633 0.531296 -0.707091
-0.519140 0.719140 0.976016 128 128 255 -0.500472 0.499647 -0.707022
-0.558308 0.677321 0.976056 128 128 255 -0.532166 0.465848 -0.706955
-0.594657 0.633029 0.976100 128 128 255 -0.561580 0.430043 -0.706888
-0.628032 0.586455 0.976148 128 128 255 -0.588585 0.392387 -0.706824
-0.658289 0.537798 0.976200 128 128 255 -0.613065 0.353040 -0.706763
-0.685298 0.487266 0.976256 128 128 255 -0.634915 0.312173 -0.706704
-0.708945 0.435076 0.976315 128 128 255 -0.654041 0.269963 -0.706647
-0.729128 0.381451 0.976378 128 128 255 -0.670361 0.226589 -0.706593
-0.745761 0.326621 0.976444 128 128 255 -0.683803 0.182239 -0.706543
-0.758772 0.270820 0.976512 128 128 255 -0.694310 0.137105 -0.706496
-0.768105 0.214288 0.976583 128 128 255 -0.701838 0.091380 -0.706451
-0.773721 0.157267 0.976656 128 128 255 -0.706353 0.045260 -0.706411
-0.775596 0.100000 0.976731 128 128 255 -0.707838 -0.001054 -0.706374
-0.773721 0.042733 0.976807 128 128 255 -0.706284 -0.047365 -0.706342
-0.768105 -0.014288 0.976885 128 128 255 -0.701701 -0.093472 -0.706313
-0.758772 -0.070820 0.976963 128 128 255 -0.694108 -0.139178 -0.706289
-0.745761 -0.126621 0.977042 128 128 255 -0.683538 -0.184286 -0.706268
-0.729128 -0.181451 0.977121 128 128 255 -0.670037 -0.228601 -0.706252
-0.708945 -0.235076 0.977199 128 128 255 -0.653662 -0.271935 -0.706242
-0.685298 -0.287266 0.977278 128 128 255 -0.634486 -0.314099 -0.706235
-0.658289 -0.337798 0.977355 128 128 255 -0.612594 -0.354915 -0.706232
-0.628032 -0.386455 0.977431 128 128 255 -0.588077 -0.394205 -0.706235
-0.594657 -0.433029 0.977506 128 128 255 -0.561042 -0.431803 -0.706243
-0.558308 -0.477321 0.977579 128 128 255 -0.531606 -0.467546 -0.706255
-0.519140 -0.519140 0.977650 128 128 255 -0.499896 -0.501282 -0.706272
-0.477321 -0.558308 0.977718 128 128 255 -0.466050 -0.532867 -0.706294
-0.433029 -0.594657 0.977784 128 128 255 -0.430213 -0.562165 -0.706320
-0.386455 -0.628032 0.977847 128 128 255 -0.392539 -0.589052 -0.706350
-0.337798 -0.658289 0.977906 128 128 255 -0.353190 -0.613413 -0.706386
-0.287266 -0.685298 0.977963 128 128 255 -0.312337 -0.635144 -0.706426
-0.235076 -0.708945 0.978015 128 128 255 -0.270155 -0.654153 -0.706470
-0.181451 -0.729128 0.978064 128 128 255 -0.226825 -0.670361 -0.706517
-0.126621 -0.745761 0.978108 128 128 255 -0.182532 -0.683696 -0.706571
-0.070820 -0.758772 0.978148 128 128 255 -0.137467 -0.694105 -0.706627
-0.014288 -0.768105 0.978184 128 128 255 -0.091825 -0.701545 -0.706685
0.042733 -0.773721 0.978215 128 128 255 -0.045800 -0.705982 -0.706747
0.100000 -0.775596 0.978241 128 128 255 0.000412 -0.707401 -0.706812
0.157267 -0.773721 0.978262 128 128 255 0.046612 -0.705797 -0.706879
0.214288 -0.768105 0.978278 128 128 255 0.092603 -0.701176 -0.706949
0.270820 -0.758772 0.978289 128 128 255 0.138187 -0.693561 -0.707020
0.326621 -0.745761 0.978295 128 128 255 0.183172 -0.682984 -0.707094
0.381451 -0.729128 0.978296 128 128 255 0.227364 -0.669492 -0.707168
0.435076 -0.708945 0.978291 128 128 255 0.270576 -0.653142 -0.707244
0.487266 -0.685298 0.978282 128 128 255 0.312623 -0.634008 -0.707319
0.537798 -0.658289 0.978267 128 128 255 0.353327 -0.612171 -0.707394
0.586455 -0.628032 0.978247 128 128 255 0.392514 -0.587724 -0.707470
0.633029 -0.594657 0.978222 128 128 255 0.430017 -0.560772 -0.707545
0.677321 -0.558308 0.978191 128 128 255 0.465679 -0.531431 -0.707619
0.719140 -0.519140 0.978157 128 128 255 0.499345 -0.499828 -0.707691
0.758308 -0.477321 0.978117 128 128 255 0.530875 -0.466095 -0.707762
0.794657 -0.433029 0.978072 128 128 255 0.560134 -0.430378 -0.707831
0.828032 -0.386455 0.978024 128 128 255 0.586998 -0.392830 -0.707897
0.858289 -0.337798 0.977971 128 128 255 0.611353 -0.353611 -0.707959
0.885298 -0.287266 0.977914 128 128 255 0.633096 -0.312886 -0.708019
0.908945 -0.235076 0.977853 128 128 255 0.652134 -0.270829 -0.708076
0.929128 -0.181451 0.977788 128 128 255 0.668387 -0.227621 -0.708129
0.945761 -0.126621 0.977721 128 128 255 0.681787 -0.183444 -0.708177
0.958772 -0.070820 0.977650 128 128 255 0.692274 -0.138487 -0.708221
0.968105 -0.014288 0.977576 128 128 255 0.699805 -0.092940 -0.708262
0.973721 0.042733 0.977500 128 128 255 0.704349 -0.046998 -0.708296
0.975596 0.100000 0.977422 128 128 255 0.705676 -0.024068 -0.708126
0.989474 0.100000 0.991253 128 128 255 0.705724 0.022197 -0.708139
0.987570 0.158174 0.991178 128 128 255 0.704403 0.045375 -0.708349
0.981865 0.216100 0.991103 128 128 255 0.699898 0.091330 -0.708379
0.972383 0.273528 0.991026 128 128 255 0.692404 0.136896 -0.708404
0.959166 0.330213 0.990949 128 128 255 0.681952 0.181878 -0.708422
0.942270 0.385912 0.990871 128 128 255 0.668584 0.226085 -0.708436
0.921767 0.440387 0.990794 128 128 255 0.652357 0.269329 -0.708444
0.897745 0.493404 0.990717 128 128 255 0.633340 0.311424 -0.708446
0.870307 0.544737 0.990641 128 128 255 0.611612 0.352191 -0.708444
0.839571 0.594165 0.990565 128 128 255 0.587267 0.391456 -0.708435
0.805667 0.641478 0.990492 128 128 255 0.560405 0.429051 -0.708422
0.768742 0.686471 0.990420 128 128 255 0.531142 0.464816 -0.708403
0.728953 0.728953 0.990350 128 128 255 0.499603 0.498596 -0.708378
0.686471 0.768742 0.990283 128 128 255 0.465919 0.530247 -0.708349
0.641478 0.805667 0.990218 128 128 255 0.430233 0.559632 -0.708316
0.594165 0.839571 0.990157 128 128 255 0.392700 0.586627 -0.708277
0.544737 0.870307 0.990099 128 128 255 0.353477 0.611113 -0.708233
0.493404 0.897745 0.990044 128 128 255 0.312732 0.632986 -0.708186
0.440387 0.921767 0.989993 128 128 255 0.270638 0.652149 -0.708136
0.385912 0.942270 0.989947 128 128 255 0.227375 0.668521 -0.708082
0.330213 0.959166 0.989904 128 128 255 0.183128 0.682032 -0.708023
0.273528 0.972383 0.989866 128 128 255 0.138087 0.692619 -0.707962
0.216100 0.981865 0.989833 128 128 255 0.092443 0.700237 -0.707900
0.158174 0.987570 0.989805 128 128 255 0.046392 0.704854 -0.707834
0.100000 0.989474 0.989781 128 128 255 0.000133 0.706448 -0.707765
0.041826 0.987570 0.989763 128 128 255 -0.046138 0.705009 -0.707696
-0.016100 0.981865 0.989749 128 128 255 -0.092221 0.700545 -0.707624
-0.073528 0.972383 0.989741 128 128 255 -0.137918 0.693072 -0.707552
-0.130213 0.959166 0.989738 128 128 255 -0.183032 0.682623 -0.707478
-0.185912 0.942270 0.989741 128 128 255 -0.227371 0.669241 -0.707403
-0.240387 0.921767 0.989748 128 128 255 -0.270741 0.652982 -0.707329
-0.293404 0.897745 0.989761 128 128 255 -0.312957 0.633914 -0.707255
-0.344737 0.870307 0.989779 128 128 255 -0.353838 0.612121 -0.707182
-0.394165 0.839571 0.989802 128 128 255 -0.393206 0.587696 -0.707108
-0.441478 0.805667 0.989830 128 128 255 -0.430893 0.560741 -0.707037
-0.486471 0.768742 0.989863 128 128 255 -0.466734 0.531373 -0.706966
-0.528953 0.728953 0.989900 128 128 255 -0.500578 0.499720 -0.706896
-0.568742 0.686471 0.989942 128 128 255 -0.532275 0.465914 -0.706829
-0.605667 0.641478 0.989989 128 128 255 -0.561690 0.430103 -0.706764
-0.639571 0.594165 0.990040 128 128 255 -0.588698 0.392440 -0.706700
-0.670307 0.544737 0.990094 128 128 255 -0.613180 0.353088 -0.706639
-0.697745 0.493404 0.990152 128 128 255 -0.635030 0.312214 -0.706583
-0.721767 0.440387 0.990214 128 128 255 -0.654156 0.269997 -0.706528
-0.742270 0.385912 0.990279 128 128 255 -0.670475 0.226618 -0.706475
-0.759166 0.330213 0.990347 128 128 255 -0.683916 0.182262 -0.706427
-0.772383 0.273528 0.990417 128 128 255 -0.694421 0.137121 -0.706383
-0.781865 0.216100 0.990489 128 128 255 -0.701946 0.091390 -0.706343
-0.787570 0.158174 0.990564 128 128 255 -0.706459 0.045266 -0.706305
-0.789474 0.100000 0.990640 128 128 255 -0.707940 -0.001053 -0.706272
-0.787570 0.041826 0.990718 128 128 255 -0.706383 -0.047368 -0.706243
-0.781865 -0.016100 0.990796 128 128 255 -0.701796 -0.093479 -0.706218
-0.772383 -0.073528 0.990875 128 128 255 -0.694198 -0.139188 -0.706198
-0.759166 -0.130213 0.990955 128 128 255 -0.683623 -0.184299 -0.706182
-0.742270 -0.185912 0.991034 128 128 255 -0.670117 -0.228616 -0.706171
-0.721767 -0.240387 0.991113 128 128 255 -0.653739 -0.271951 -0.706164
-0.697745 -0.293404 0.991191 128 128 255 -0.634558 -0.314117 -0.706163
-0.670307 -0.344737 0.991269 128 128 255 -0.612660 -0.354932 -0.706166
-0.639571 -0.394165 0.991345 128 128 255 -0.588139 -0.394222 -0.706174
-0.605667 -0.441478 0.991419 128 128 255 -0.561100 -0.431819 -0.706186
-0.568742 -0.486471 0.991491 128 128 255 -0.531660 -0.467561 -0.706204
-0.528953 -0.528953 0.991562 128 128 255 -0.499947 -0.501297 -0.706226
-0.486471 -0.568742 0.991629 128 128 255 -0.466098 -0.532879 -0.706252
-0.441478 -0.605667 0.991694 128 128 255 -0.430257 -0.562176 -0.706284
-0.394165 -0.639571 0.991755 128 128 255 -0.392581 -0.589061 -0.706320
-0.344737 -0.670307 0.991813 128 128 255 -0.353231 -0.613419 -0.706360
-0.293404 -0.697745 0.991868 128 128 255 -0.312377 -0.635148 -0.706405
-0.240387 -0.721767 0.991919 128 128 255 -0.270193 -0.654155 -0.706454
-0.185912 -0.742270 0.991965 128 128 255 -0.226862 -0.670361 -0.706505
-0.130213 -0.759166 0.992007 128 128 255 -0.182571 -0.683697 -0.706560
-0.073528 -0.772383 0.992045 128 128 255 -0.137506 -0.694104 -0.706620
-0.016100 -0.781865 0.992078 128 128 255 -0.091863 -0.701541 -0.706683
0.041826 -0.787570 0.992107 128 128 255 -0.045838 -0.705979 -0.706748
0.100000 -0.789474 0.992130 128 128 255 0.000373 -0.707397 -0.706816
0.158174 -0.787570 0.992149 128 128 255 0.046573 -0.705793 -0.706886
0.216100 -0.781865 0.992162 128 128 255 0.092563 -0.701173 -0.706958
0.273528 -0.772383 0.992170 128 128 255 0.138147 -0.693557 -0.707032
0.330213 -0.759166 0.992173 128 128 255 0.183132 -0.682981 -0.707107
0.385912 -0.742270 0.992171 128 128 255 0.227324 -0.669491 -0.707182
0.440387 -0.721767 0.992164 128 128 255 0.270536 -0.653144 -0.707258
0.493404 -0.697745 0.992151 128 128 255 0.312584 -0.634010 -0.707335
0.544737 -0.670307 0.992133 128 128 255 0.353289 -0.612174 -0.707411
0.594165 -0.639571 0.992110 128 128 255 0.392477 -0.587729 -0.707487
0.641478 -0.605667 0.992082 128 128 255 0.429982 -0.560779 -0.707561
0.686471 -0.568742 0.992049 128 128 255 0.465646 -0.531440 -0.707634
0.728953 -0.528953 0.992011 128 128 255 0.499315 -0.499837 -0.707706
0.768742 -0.486471 0.991969 128 128 255 0.530847 -0.466106 -0.707775
0.805667 -0.441478 0.991922 128 128 255 0.560110 -0.430391 -0.707842
0.839571 -0.394165 0.991871 128 128 255 0.586977 -0.392843 -0.707907
0.870307 -0.344737 0.991815 128 128 255 0.611336 -0.353623 -0.707968
0.897745 -0.293404 0.991756 128 128 255 0.633083 -0.312899 -0.708026
0.921767 -0.240387 0.991693 128 128 255 0.652125 -0.270842 -0.708080
0.942270 -0.185912 0.991626 128 128 255 0.668382 -0.227633 -0.708131
0.959166 -0.130213 0.991557 128 128 255 0.681784 -0.183454 -0.708177
0.972383 -0.073528 0.991484 128 128 255 0.692275 -0.138495 -0.708219
0.981865 -0.016100 0.991409 128 128 255 0.699811 -0.092945 -0.708256
0.987570 0.041826 0.991332 128 128 255 0.704358 -0.047000 -0.708287
0.989474 0.100000 0.991253 128 128 255 0.705688 -0.024068 -0.708114
1.003351 0.100000 1.005082 128 128 255 0.705742 0.022196 -0.708121
1.001417 0.159082 1.005007 128 128 255 0.704423 0.045374 -0.708329
0.995623 0.217911 1.004930 128 128 255 0.699924 0.091334 -0.708354
0.985994 0.276235 1.004853 128 128 255 0.692432 0.136905 -0.708375
0.972570 0.333805 1.004775 128 128 255 0.681982 0.181893 -0.708389
0.955411 0.390373 1.004697 128 128 255 0.668616 0.226106 -0.708399
0.934588 0.445698 1.004619 128 128 255 0.652391 0.269355 -0.708402
0.910191 0.499542 1.004542 128 128 255 0.633376 0.311457 -0.708399
0.882325 0.551676 1.004466 128 128 255 0.611648 0.352231 -0.708393
0.851109 0.601875 1.004391 128 128 255 0.587302 0.391502 -0.708380
0.816677 0.649925 1.004318 128 128 255 0.560440 0.429104 -0.708362
0.779175 0.695621 1.004247 128 128 255 0.531176 0.464875 -0.708338
0.738766 0.738766 1.004179 128 128 255 0.499633 0.498662 -0.708310
0.695621 0.779175 1.004112 128 128 255 0.465947 0.530319 -0.708277
0.649925 0.816677 1.004049 128 128 255 0.430258 0.559711 -0.708239
0.601875 0.851109 1.003989 128 128 255 0.392720 0.586710 -0.708196
0.551676 0.882325 1.003933 128 128 255 0.353492 0.611201 -0.708150
0.499542 0.910191 1.003880 128 128 255 0.312742 0.633078 -0.708099
0.445698 0.934588 1.003832 128 128 255 0.270643 0.652247 -0.708044
0.390373 0.955411 1.003787 128 128 255 0.227374 0.668623 -0.707987
0.333805 0.972570 1.003747 128 128 255 0.183120 0.682135 -0.707926
0.276235 0.985994 1.003712 128 128 255 0.138072 0.692725 -0.707862
0.217911 0.995623 1.003681 128 128 255 0.092422 0.700346 -0.707795
0.159082 1.001417 1.003655 128 128 255 0.046363 0.704963 -0.707727
0.100000 1.003351 1.003634 128 128 255 0.000097 0.706558 -0.707655
0.040918 1.001417 1.003619 128 128 255 -0.046180 0.705119 -0.707583
-0.017911 0.995623 1.003608 128 128 255 -0.092270 0.700654 -0.707510
-0.076235 0.985994 1.003603 128 128 255 -0.137974 0.693181 -0.707435
-0.133805 0.972570 1.003603 128 128 255 -0.183095 0.682729 -0.707360
-0.190373 0.955411 1.003608 128 128 255 -0.227440 0.669343 -0.707285
-0.245698 0.934588 1.003619 128 128 255 -0.270816 0.653081 -0.707208
-0.299542 0.910191 1.003634 128 128 255 -0.313038 0.634010 -0.707133
-0.351676 0.882325 1.003655 128 128 255 -0.353924 0.612212 -0.707060
-0.401875 0.851109 1.003681 128 128 255 -0.393298 0.587783 -0.706986
-0.449925 0.816677 1.003712 128 128 255 -0.430988 0.560824 -0.706913
-0.495621 0.779175 1.003748 128 128 255 -0.466834 0.531450 -0.706843
-0.538766 0.738766 1.003788 128 128 255 -0.500680 0.499790 -0.706774
-0.579175 0.695621 1.003833 128 128 255 -0.532381 0.465979 -0.706707
-0.616677 0.649925 1.003882 128 128 255 -0.561799 0.430163 -0.706641
-0.651109 0.601875 1.003935 128 128 255 -0.588807 0.392492 -0.706581
-0.682325 0.551676 1.003992 128 128 255 -0.613290 0.353134 -0.706521
-0.710191 0.499542 1.004052 128 128 255 -0.635141 0.312255 -0.706465
-0.734588 0.445698 1.004116 128 128 255 -0.654267 0.270031 -0.706412
-0.755411 0.390373 1.004183 128 128 255 -0.670585 0.226646 -0.706362
-0.772570 0.333805 1.004252 128 128 255 -0.684024 0.182284 -0.706317
-0.785994 0.276235 1.004324 128 128 255 -0.694528 0.137139 -0.706275
-0.795623 0.217911 1.004398 128 128 255 -0.702049 0.091402 -0.706238
-0.801417 0.159082 1.004474 128 128 255 -0.706559 0.045273 -0.706204
-0.803351 0.100000 1.004552 128 128 255 -0.708037 -0.001051 -0.706175
-0.801417 0.040918 1.004630 128 128 255 -0.706477 -0.047369 -0.706149
-0.795623 -0.017911 1.004710 128 128 255 -0.701884 -0.093484 -0.706130
-0.785994 -0.076235 1.004790 128 128 255 -0.694283 -0.139195 -0.706113
-0.772570 -0.133805 1.004870 128 128 255 -0.683703 -0.184308 -0.706102
-0.755411 -0.190373 1.004949 128 128 255 -0.670194 -0.228627 -0.706095
-0.734588 -0.245698 1.005028 128 128 255 -0.653811 -0.271964 -0.706093
-0.710191 -0.299542 1.005107 128 128 255 -0.634627 -0.314130 -0.706096
-0.682325 -0.351676 1.005184 128 128 255 -0.612723 -0.354945 -0.706105
-0.651109 -0.401875 1.005260 128 128 255 -0.588198 -0.394235 -0.706118
-0.616677 -0.449925 1.005333 128 128 255 -0.561155 -0.431832 -0.706134
-0.579175 -0.495621 1.005405 128 128 255 -0.531713 -0.467573 -0.706156
-0.538766 -0.538766 1.005474 128 128 255 -0.499996 -0.501307 -0.706184
-0.495621 -0.579175 1.005540 128 128 255 -0.466144 -0.532888 -0.706215
-0.449925 -0.616677 1.005604 128 128 255 -0.430302 -0.562183 -0.706251
-0.401875 -0.651109 1.005664 128 128 255 -0.392623 -0.589065 -0.706293
-0.351676 -0.682325 1.005720 128 128 255 -0.353272 -0.613423 -0.706337
-0.299542 -0.710191 1.005773 128 128 255 -0.312417 -0.635151 -0.706385
-0.245698 -0.734588 1.005821 128 128 255 -0.270232 -0.654156 -0.706438
-0.190373 -0.755411 1.005866 128 128 255 -0.226900 -0.670359 -0.706495
-0.133805 -0.772570 1.005906 128 128 255 -0.182608 -0.683692 -0.706554
-0.076235 -0.785994 1.005941 128 128 255 -0.137544 -0.694100 -0.706617
-0.017911 -0.795623 1.005972 128 128 255 -0.091902 -0.701538 -0.706681
0.040918 -0.801417 1.005998 128 128 255 -0.045876 -0.705974 -0.706750
0.100000 -0.803351 1.006019 128 128 255 0.000334 -0.707393 -0.706820
0.159082 -0.801417 1.006034 128 128 255 0.046534 -0.705788 -0.706893
0.217911 -0.795623 1.006045 128 128 255 0.092523 -0.701168 -0.706967
0.276235 -0.785994 1.006050 128 128 255 0.138107 -0.693554 -0.707042
0.333805 -0.772570 1.006050 128 128 255 0.183092 -0.682979 -0.707119
0.390373 -0.755411 1.006045 128 128 255 0.227285 -0.669489 -0.707196
0.445698 -0.734588 1.006034 128 128 255 0.270497 -0.653143 -0.707273
0.499542 -0.710191 1.006019 128 128 255 0.312546 -0.634012 -0.707350
0.551676 -0.682325 1.005998 128 128 255 0.353252 -0.612177 -0.707426
0.601875 -0.651109 1.005972 128 128 255 0.392441 -0.587734 -0.707501
0.649925 -0.616677 1.005941 128 128 255 0.429949 -0.560785 -0.707576
0.695621 -0.579175 1.005905 128 128 255 0.465614 -0.531447 -0.707649
0.738766 -0.538766 1.005865 128 128 255 0.499286 -0.499847 -0.707719
0.779175 -0.495621 1.005819 128 128 255 0.530822 -0.466117 -0.707788
0.816677 -0.449925 1.005770 128 128 255 0.560087 -0.430402 -0.707853
0.851109 -0.401875 1.005716 128 128 255 0.586958 -0.392856 -0.707916
0.882325 -0.351676 1.005658 128 128 255 0.611321 -0.353636 -0.707975
0.910191 -0.299542 1.005597 128 128 255 0.633071 -0.312911 -0.708031
0.934588 -0.245698 1.005531 128 128 255 0.652118 -0.270854 -0.708082
0.955411 -0.190373 1.005463 128 128 255 0.668379 -0.227644 -0.708130
0.972570 -0.133805 1.005392 128 128 255 0.681786 -0.183464 -0.708173
0.985994 -0.076235 1.005318 128 128 255 0.692282 -0.138502 -0.708212
0.995623 -0.017911 1.005241 128 128 255 0.699820 -0.092950 -0.708245
1.001417 0.040918 1.005163 128 128 255 0.704371 -0.047001 -0.708274
1.003351 0.100000 1.005082 128 128 255 0.705703 -0.024065 -0.708099
1.017227 0.100000 1.018912 128 128 255 0.705762 0.022197 -0.708101
1.015263 0.159990 1.018835 128 128 255 0.704446 0.045375 -0.708306
1.009380 0.219722 1.018757 128 128 255 0.699949 0.091340 -0.708328
0.999603 0.278942 1.018679 128 128 255 0.692462 0.136917 -0.708344
0.985973 0.337396 1.018601 128 128 255 0.682015 0.181910 -0.708353
0.968550 0.394833 1.018523 128 128 255 0.668652 0.226128 -0.708358
0.947407 0.451008 1.018445 128 128 255 0.652427 0.269385 -0.708358
0.922636 0.505679 1.018368 128 128 255 0.633413 0.311493 -0.708351
0.894342 0.558614 1.018292 128 128 255 0.611687 0.352273 -0.708339
0.862646 0.609584 1.018218 128 128 255 0.587339 0.391551 -0.708322
0.827685 0.658372 1.018146 128 128 255 0.560476 0.429159 -0.708300
0.789608 0.704770 1.018076 128 128 255 0.531210 0.464937 -0.708273
0.748577 0.748577 1.018008 128 128 255 0.499665 0.498730 -0.708240
0.704770 0.789608 1.017944 128 128 255 0.465975 0.530393 -0.708202
0.658372 0.827685 1.017882 128 128 255 0.430283 0.559791 -0.708160
0.609584 0.862646 1.017824 128 128 255 0.392741 0.586796 -0.708114
0.558614 0.894342 1.017770 128 128 255 0.353509 0.611292 -0.708064
0.505679 0.922636 1.017719 128 128 255 0.312752 0.633173 -0.708010
0.451008 0.947407 1.017672 128 128 255 0.270647 0.652345 -0.707952
0.394833 0.968550 1.017630 128 128 255 0.227372 0.668725 -0.707891
0.337396 0.985973 1.017593 128 128 255 0.183113 0.682240 -0.707827
0.278942 0.999603 1.017560 128 128 255 0.138057 0.692831 -0.707760
0.219722 1.009380 1.017532 128 128 255 0.092400 0.700454 -0.707691
0.159990 1.015263 1.017509 128 128 255 0.046335 0.705073 -0.707619
0.100000 1.017227 1.017491 128 128 255 0.000061 0.706667 -0.707546
0.040010 1.015263 1.017478 128 128 255 -0.046222 0.705230 -0.707471
-0.019722 1.009380 1.017470 128 128 255 -0.092320 0.700763 -0.707396
-0.078942 0.999603 1.017468 128 128 255 -0.138030 0.693287 -0.707319
-0.137396 0.985973 1.017471 128 128 255 -0.183157 0.682834 -0.707242
-0.194833 0.968550 1.017479 128 128 255 -0.227508 0.669444 -0.707166
-0.251008 0.947407 1.017493 128 128 255 -0.270890 0.653178 -0.707090
-0.305679 0.922636 1.017512 128 128 255 -0.313118 0.634105 -0.707013
-0.358614 0.894342 1.017535 128 128 255 -0.354010 0.612305 -0.706937
-0.409584 0.862646 1.017564 128 128 255 -0.393387 0.587868 -0.706865
-0.458372 0.827685 1.017598 128 128 255 -0.431082 0.560904 -0.706792
-0.504770 0.789608 1.017636 128 128 255 -0.466932 0.531526 -0.706721
-0.548577 0.748577 1.017679 128 128 255 -0.500781 0.499860 -0.706653
-0.589608 0.704770 1.017727 128 128 255 -0.532483 0.466043 -0.706587
-0.627685 0.658372 1.017778 128 128 255 -0.561903 0.430220 -0.706524
-0.662646 0.609584 1.017834 128 128 255 -0.588913 0.392545 -0.706463
-0.694342 0.558614 1.017893 128 128 255 -0.613395 0.353179 -0.706407
-0.722636 0.505679 1.017956 128 128 255 -0.635246 0.312295 -0.706353
-0.747407 0.451008 1.018021 128 128 255 -0.654371 0.270065 -0.706302
-0.768550 0.394833 1.018090 128 128 255 -0.670688 0.226673 -0.706256
-0.785973 0.337396 1.018161 128 128 255 -0.684126 0.182307 -0.706212
-0.799603 0.278942 1.018235 128 128 255 -0.694628 0.137156 -0.706173
-0.809380 0.219722 1.018310 128 128 255 -0.702148 0.091415 -0.706139
-0.815263 0.159990 1.018388 128 128 255 -0.706654 0.045281 -0.706108
-0.817227 0.100000 1.018466 128 128 255 -0.708128 -0.001046 -0.706084
-0.815263 0.040010 1.018546 128 128 255 -0.706565 -0.047368 -0.706061
-0.809380 -0.019722 1.018626 128 128 255 -0.701970 -0.093486 -0.706045
-0.799603 -0.078942 1.018706 128 128 255 -0.694363 -0.139200 -0.706033
-0.785973 -0.137396 1.018786 128 128 255 -0.683780 -0.184315 -0.706027
-0.768550 -0.194833 1.018866 128 128 255 -0.670264 -0.228636 -0.706025
-0.747407 -0.251008 1.018945 128 128 255 -0.653878 -0.271973 -0.706027
-0.722636 -0.305679 1.019024 128 128 255 -0.634690 -0.314139 -0.706035
-0.694342 -0.358614 1.019100 128 128 255 -0.612784 -0.354955 -0.706047
-0.662646 -0.409584 1.019175 128 128 255 -0.588255 -0.394245 -0.706065
-0.627685 -0.458372 1.019248 128 128 255 -0.561208 -0.431840 -0.706087
-0.589608 -0.504770 1.019319 128 128 255 -0.531762 -0.467580 -0.706115
-0.548577 -0.548577 1.019387 128 128 255 -0.500043 -0.501313 -0.706146
-0.504770 -0.589608 1.019452 128 128 255 -0.466188 -0.532893 -0.706182
-0.458372 -0.627685 1.019514 128 128 255 -0.430345 -0.562186 -0.706223
-0.409584 -0.662646 1.019572 128 128 255 -0.392664 -0.589067 -0.706268
-0.358614 -0.694342 1.019627 128 128 255 -0.353311 -0.613423 -0.706317
-0.305679 -0.722636 1.019677 128 128 255 -0.312455 -0.635149 -0.706370
-0.251008 -0.747407 1.019724 128 128 255 -0.270271 -0.654153 -0.706425
-0.194833 -0.768550 1.019766 128 128 255 -0.226938 -0.670356 -0.706486
-0.137396 -0.785973 1.019804 128 128 255 -0.182646 -0.683688 -0.706549
-0.078942 -0.799603 1.019836 128 128 255 -0.137582 -0.694094 -0.706615
-0.019722 -0.809380 1.019865 128 128 255 -0.091939 -0.701531 -0.706683
0.040010 -0.815263 1.019888 128 128 255 -0.045915 -0.705967 -0.706754
0.100000 -0.817227 1.019906 128 128 255 0.000296 -0.707386 -0.706828
0.159990 -0.815263 1.019918 128 128 255 0.046494 -0.705782 -0.706901
0.219722 -0.809380 1.019926 128 128 255 0.092484 -0.701162 -0.706978
0.278942 -0.799603 1.019928 128 128 255 0.138068 -0.693550 -0.707055
0.337396 -0.785973 1.019925 128 128 255 0.183053 -0.682976 -0.707132
0.394833 -0.768550 1.019917 128 128 255 0.227246 -0.669487 -0.707210
0.451008 -0.747407 1.019903 128 128 255 0.270459 -0.653143 -0.707288
0.505679 -0.722636 1.019885 128 128 255 0.312509 -0.634013 -0.707366
0.558614 -0.694342 1.019861 128 128 255 0.353216 -0.612181 -0.707441
0.609584 -0.662646 1.019832 128 128 255 0.392407 -0.587739 -0.707516
0.658372 -0.627685 1.019798 128 128 255 0.429917 -0.560793 -0.707590
0.704770 -0.589608 1.019759 128 128 255 0.465584 -0.531456 -0.707662
0.748577 -0.548577 1.019716 128 128 255 0.499259 -0.499856 -0.707732
0.789608 -0.504770 1.019668 128 128 255 0.530798 -0.466129 -0.707798
0.827685 -0.458372 1.019616 128 128 255 0.560067 -0.430414 -0.707862
0.862646 -0.409584 1.019560 128 128 255 0.586941 -0.392868 -0.707923
0.894342 -0.358614 1.019500 128 128 255 0.611308 -0.353648 -0.707980
0.922636 -0.305679 1.019436 128 128 255 0.633062 -0.312923 -0.708033
0.947407 -0.251008 1.019369 128 128 255 0.652113 -0.270865 -0.708082
0.968550 -0.194833 1.019299 128 128 255 0.668379 -0.227653 -0.708127
0.985973 -0.137396 1.019226 128 128 255 0.681790 -0.183472 -0.708167
0.999603 -0.078942 1.019150 128 128 255 0.692290 -0.138507 -0.708202
1.009380 -0.019722 1.019073 128 128 255 0.699833 -0.092953 -0.708233
1.015263 0.040010 1.018993 128 128 255 0.704386 -0.047001 -0.708259
1.017227 0.100000 1.018912 128 128 255 0.705720 -0.024061 -0.708082
1.031102 0.100000 1.032741 128 128 255 0.705785 0.022201 -0.708078
1.029108 0.160897 1.032663 128 128 255 0.704471 0.045378 -0.708281
1.023136 0.221533 1.032585 128 128 255 0.699978 0.091348 -0.708298
1.013211 0.281649 1.032506 128 128 255 0.692494 0.136931 -0.708309
0.999375 0.340987 1.032427 128 128 255 0.682049 0.181930 -0.708315
0.981688 0.399293 1.032349 128 128 255 0.668688 0.226154 -0.708316
0.960226 0.456317 1.032271 128 128 255 0.652465 0.269416 -0.708311
0.935080 0.511816 1.032195 128 128 255 0.633451 0.311531 -0.708300
0.906358 0.565551 1.032120 128 128 255 0.611725 0.352317 -0.708283
0.874183 0.617292 1.032046 128 128 255 0.587377 0.391602 -0.708263
0.838693 0.666819 1.031975 128 128 255 0.560513 0.429217 -0.708236
0.800039 0.713918 1.031906 128 128 255 0.531245 0.465001 -0.708204
0.758388 0.758388 1.031840 128 128 255 0.499697 0.498800 -0.708168
0.713918 0.800039 1.031777 128 128 255 0.466004 0.530470 -0.708126
0.666819 0.838693 1.031717 128 128 255 0.430308 0.559873 -0.708080
0.617292 0.874183 1.031661 128 128 255 0.392761 0.586883 -0.708031
0.565551 0.906358 1.031608 128 128 255 0.353524 0.611384 -0.707976
0.511816 0.935080 1.031560 128 128 255 0.312763 0.633270 -0.707919
0.456317 0.960226 1.031516 128 128 255 0.270652 0.652446 -0.707857
0.399293 0.981688 1.031476 128 128 255 0.227371 0.668829 -0.707793
0.340987 0.999375 1.031441 128 128 255 0.183105 0.682346 -0.707726
0.281649 1.013211 1.031411 128 128 255 0.138043 0.692940 -0.707657
0.221533 1.023136 1.031386 128 128 255 0.092379 0.700564 -0.707585
0.160897 1.029108 1.031365 128 128 255 0.046307 0.705184 -0.707511
0.100000 1.031102 1.031350 128 128 255 0.000026 0.706777 -0.707436
0.039103 1.029108 1.031340 128 128 255 -0.046264 0.705339 -0.707359
-0.021533 1.023136 1.031336 128 128 255 -0.092368 0.700872 -0.707282
-0.081649 1.013211 1.031337 128 128 255 -0.138085 0.693393 -0.707204
-0.140987 0.999375 1.031343 128 128 255 -0.183218 0.682937 -0.707126
-0.199293 0.981688 1.031354 128 128 255 -0.227575 0.669546 -0.707048
-0.256317 0.960226 1.031371 128 128 255 -0.270963 0.653276 -0.706972
-0.311816 0.935080 1.031392 128 128 255 -0.313196 0.634197 -0.706896
-0.365551 0.906358 1.031419 128 128 255 -0.354092 0.612393 -0.706819
-0.417292 0.874183 1.031451 128 128 255 -0.393474 0.587953 -0.706746
-0.466819 0.838693 1.031487 128 128 255 -0.431173 0.560982 -0.706675
-0.513918 0.800039 1.031528 128 128 255 -0.467026 0.531599 -0.706604
-0.558388 0.758388 1.031574 128 128 255 -0.500877 0.499928 -0.706537
-0.600039 0.713918 1.031624 128 128 255 -0.532582 0.466105 -0.706472
-0.638693 0.666819 1.031678 128 128 255 -0.562003 0.430276 -0.706410
-0.674183 0.617292 1.031736 128 128 255 -0.589014 0.392595 -0.706351
-0.706358 0.565551 1.031797 128 128 255 -0.613497 0.353224 -0.706296
-0.735080 0.511816 1.031862 128 128 255 -0.635348 0.312333 -0.706245
-0.760226 0.456317 1.031930 128 128 255 -0.654473 0.270098 -0.706196
-0.781688 0.399293 1.032000 128 128 255 -0.670788 0.226701 -0.706152
-0.799375 0.340987 1.032073 128 128 255 -0.684223 0.182329 -0.706112
-0.813211 0.281649 1.032148 128 128 255 -0.694723 0.137174 -0.706076
-0.823136 0.221533 1.032225 128 128 255 -0.702241 0.091429 -0.706044
-0.829108 0.160897 1.032303 128 128 255 -0.706744 0.045291 -0.706018
-0.831102 0.100000 1.032383 128 128 255 -0.708215 -0.001040 -0.705996
-0.829108 0.039103 1.032463 128 128 255 -0.706647 -0.047366 -0.705979
-0.823136 -0.021533 1.032544 128 128 255 -0.702049 -0.093485 -0.705966
-0.813211 -0.081649 1.032624 128 128 255 -0.694438 -0.139202 -0.705959
-0.799375 -0.140987 1.032705 128 128 255 -0.683851 -0.184318 -0.705957
-0.781688 -0.199293 1.032785 128 128 255 -0.670332 -0.228640 -0.705959
-0.760226 -0.256317 1.032864 128 128 255 -0.653942 -0.271978 -0.705966
-0.735080 -0.311816 1.032942 128 128 255 -0.634749 -0.314145 -0.705979
-0.706358 -0.365551 1.033018 128 128 255 -0.612840 -0.354961 -0.705996
-0.674183 -0.417292 1.033092 128 128 255 -0.588307 -0.394251 -0.706018
-0.638693 -0.466819 1.033164 128 128 255 -0.561258 -0.431845 -0.706045
-0.600039 -0.513918 1.033233 128 128 255 -0.531809 -0.467584 -0.706077
-0.558388 -0.558388 1.033300 128 128 255 -0.500088 -0.501315 -0.706113
-0.513918 -0.600039 1.033363 128 128 255 -0.466230 -0.532893 -0.706154
-0.466819 -0.638693 1.033424 128 128 255 -0.430385 -0.562185 -0.706199
-0.417292 -0.674183 1.033480 128 128 255 -0.392704 -0.589065 -0.706247
-0.365551 -0.706358 1.033533 128 128 255 -0.353351 -0.613420 -0.706300
-0.311816 -0.735080 1.033581 128 128 255 -0.312492 -0.635143 -0.706358
-0.256317 -0.760226 1.033625 128 128 255 -0.270308 -0.654147 -0.706417
-0.199293 -0.781688 1.033665 128 128 255 -0.226976 -0.670349 -0.706480
-0.140987 -0.799375 1.033700 128 128 255 -0.182682 -0.683680 -0.706547
-0.081649 -0.813211 1.033731 128 128 255 -0.137619 -0.694087 -0.706615
-0.021533 -0.823136 1.033756 128 128 255 -0.091977 -0.701523 -0.706686
0.039103 -0.829108 1.033776 128 128 255 -0.045954 -0.705960 -0.706760
0.100000 -0.831102 1.033791 128 128 255 0.000257 -0.707378 -0.706836
0.160897 -0.829108 1.033801 128 128 255 0.046456 -0.705774 -0.706912
0.221533 -0.823136 1.033805 128 128 255 0.092445 -0.701156 -0.706990
0.281649 -0.813211 1.033805 128 128 255 0.138029 -0.693544 -0.707068
0.340987 -0.799375 1.033799 128 128 255 0.183014 -0.682971 -0.707146
0.399293 -0.781688 1.033787 128 128 255 0.227207 -0.669484 -0.707226
0.456317 -0.760226 1.033771 128 128 255 0.270421 -0.653142 -0.707303
0.511816 -0.735080 1.033749 128 128 255 0.312473 -0.634014 -0.707380
0.565551 -0.706358 1.033722 128 128 255 0.353181 -0.612183 -0.707456
0.617292 -0.674183 1.033690 128 128 255 0.392375 -0.587744 -0.707531
0.666819 -0.638693 1.033653 128 128 255 0.429886 -0.560799 -0.707603
0.713918 -0.600039 1.033612 128 128 255 0.465557 -0.531465 -0.707673
0.758388 -0.558388 1.033566 128 128 255 0.499234 -0.499866 -0.707742
0.800039 -0.513918 1.033515 128 128 255 0.530776 -0.466139 -0.707807
0.838693 -0.466819 1.033461 128 128 255 0.560049 -0.430426 -0.707869
0.874183 -0.417292 1.033402 128 128 255 0.586927 -0.392879 -0.707928
0.906358 -0.365551 1.033340 128 128 255 0.611298 -0.353660 -0.707983
0.935080 -0.311816 1.033274 128 128 255 0.633056 -0.312934 -0.708034
0.960226 -0.256317 1.033205 128 128 255 0.652111 -0.270875 -0.708080
0.981688 -0.199293 1.033133 128 128 255 0.668381 -0.227662 -0.708122
0.999375 -0.140987 1.033059 128 128 255 0.681796 -0.183479 -0.708159
1.013211 -0.081649 1.032982 128 128 255 0.692299 -0.138512 -0.708193
1.023136 -0.021533 1.032903 128 128 255 0.699846 -0.092955 -0.708219
1.029108 0.039103 1.032823 128 128 255 0.704405 -0.046999 -0.708241
1.031102 0.100000 1.032741 128 128 255 0.705740 -0.024056 -0.708063
1.044975 0.100000 1.046570 128 128 255 0.705811 0.022206 -0.708053
1.042952 0.161804 1.046491 128 128 255 0.704500 0.045384 -0.708251
1.036891 0.223344 1.046412 128 128 255 0.700010 0.091359 -0.708265
1.026818 0.284356 1.046333 128 128 255 0.692528 0.136947 -0.708273
1.012776 0.344578 1.046254 128 128 255 0.682086 0.181951 -0.708274
0.994825 0.403752 1.046176 128 128 255 0.668727 0.226181 -0.708270
0.973043 0.461626 1.046098 128 128 255 0.652504 0.269450 -0.708262
0.947523 0.517952 1.046022 128 128 255 0.633490 0.311571 -0.708247
0.918373 0.572488 1.045948 128 128 255 0.611764 0.352364 -0.708226
0.885718 0.625000 1.045876 128 128 255 0.587417 0.391655 -0.708200
0.849699 0.675264 1.045805 128 128 255 0.560551 0.429277 -0.708169
0.810470 0.723065 1.045738 128 128 255 0.531281 0.465068 -0.708133
0.768198 0.768198 1.045673 128 128 255 0.499731 0.498873 -0.708092
0.723065 0.810470 1.045612 128 128 255 0.466033 0.530548 -0.708048
0.675264 0.849699 1.045554 128 128 255 0.430333 0.559956 -0.707999
0.625000 0.885718 1.045500 128 128 255 0.392782 0.586971 -0.707945
0.572488 0.918373 1.045449 128 128 255 0.353540 0.611476 -0.707889
0.517952 0.947523 1.045403 128 128 255 0.312773 0.633367 -0.707827
0.461626 0.973043 1.045362 128 128 255 0.270656 0.652547 -0.707762
0.403752 0.994825 1.045325 128 128 255 0.227370 0.668934 -0.707694
0.344578 1.012776 1.045292 128 128 255 0.183097 0.682454 -0.707624
0.284356 1.026818 1.045265 128 128 255 0.138029 0.693049 -0.707553
0.223344 1.036891 1.045242 128 128 255 0.092357 0.700674 -0.707479
0.161804 1.042952 1.045225 128 128 255 0.046279 0.705293 -0.707403
0.100000 1.044975 1.045213 128 128 255 -0.000008 0.706888 -0.707325
0.038196 1.042952 1.045206 128 128 255 -0.046306 0.705447 -0.707248
-0.023344 1.036891 1.045205 128 128 255 -0.092416 0.700978 -0.707170
-0.084356 1.026818 1.045209 128 128 255 -0.138139 0.693498 -0.707091
-0.144578 1.012776 1.045218 128 128 255 -0.183279 0.683040 -0.707011
-0.203752 0.994825 1.045232 128 128 255 -0.227642 0.669647 -0.706932
-0.261626 0.973043 1.045252 128 128 255 -0.271035 0.653373 -0.706855
-0.317952 0.947523 1.045276 128 128 255 -0.313273 0.634289 -0.706780
-0.372488 0.918373 1.045306 128 128 255 -0.354173 0.612478 -0.706705
-0.425000 0.885718 1.045341 128 128 255 -0.393559 0.588034 -0.706631
-0.475264 0.849699 1.045380 128 128 255 -0.431261 0.561059 -0.706560
-0.523065 0.810470 1.045424 128 128 255 -0.467116 0.531669 -0.706491
-0.568198 0.768198 1.045472 128 128 255 -0.500970 0.499994 -0.706424
-0.610470 0.723065 1.045525 128 128 255 -0.532677 0.466165 -0.706360
-0.649699 0.675264 1.045581 128 128 255 -0.562099 0.430330 -0.706300
-0.685718 0.625000 1.045641 128 128 255 -0.589111 0.392644 -0.706243
-0.718373 0.572488 1.045705 128 128 255 -0.613595 0.353268 -0.706189
-0.747523 0.517952 1.045771 128 128 255 -0.635446 0.312372 -0.706139
-0.773043 0.461626 1.045841 128 128 255 -0.654569 0.270131 -0.706094
-0.794825 0.403752 1.045913 128 128 255 -0.670883 0.226729 -0.706052
-0.812776 0.344578 1.045988 128 128 255 -0.684317 0.182353 -0.706015
-0.826818 0.284356 1.046064 128 128 255 -0.694813 0.137192 -0.705984
-0.836891 0.223344 1.046142 128 128 255 -0.702327 0.091443 -0.705956
-0.842952 0.161804 1.046221 128 128 255 -0.706828 0.045302 -0.705933
-0.844975 0.100000 1.046302 128 128 255 -0.708297 -0.001032 -0.705914
-0.842952 0.038196 1.046382 128 128 255 -0.706725 -0.047361 -0.705902
-0.836891 -0.023344 1.046463 128 128 255 -0.702121 -0.093483 -0.705894
-0.826818 -0.084356 1.046544 128 128 255 -0.694509 -0.139201 -0.705889
-0.812776 -0.144578 1.046625 128 128 255 -0.683918 -0.184319 -0.705892
-0.794825 -0.203752 1.046705 128 128 255 -0.670395 -0.228642 -0.705899
-0.773043 -0.261626 1.046783 128 128 255 -0.654001 -0.271980 -0.705910
-0.747523 -0.317952 1.046860 128 128 255 -0.634805 -0.314147 -0.705927
-0.718373 -0.372488 1.046936 128 128 255 -0.612892 -0.354963 -0.705949
-0.685718 -0.425000 1.047009 128 128 255 -0.588357 -0.394252 -0.705976
-0.649699 -0.475264 1.047080 128 128 255 -0.561305 -0.431845 -0.706007
