ply
format ascii 1.0
element vertex 700
property float x
property float y
property float z
property uchar red
property uchar green
property uchar blue
property float nx
property float ny
property float nz
end_header
-0.731806 -0.455795 0.101348 128 128 255 -0.832583 -0.553901 0.000000
-0.731806 -0.455795 0.101274 128 128 255 -0.832902 -0.553420 0.000000
-0.731806 -0.455795 0.101204 128 128 255 -0.833262 -0.552879 0.000000
-0.731806 -0.455795 0.101138 128 128 255 -0.833669 -0.552265 0.000000
-0.731806 -0.455795 0.101077 128 128 255 -0.834150 -0.551538 0.000000
-0.731806 -0.455795 0.101022 128 128 255 -0.834731 -0.550658 0.000000
-0.731806 -0.455795 0.100974 128 128 255 -0.835471 -0.549535 0.000000
-0.731806 -0.455795 0.100932 128 128 255 -0.836463 -0.548023 0.000000
-0.731806 -0.455795 0.100897 128 128 255 -0.837902 -0.545820 0.000000
-0.731806 -0.455795 0.100869 128 128 255 -0.840223 -0.542241 0.000000
-0.731806 -0.455795 0.100849 128 128 255 -0.844737 -0.535182 0.000000
-0.731806 -0.455795 0.100837 128 128 255 -0.857723 -0.514113 0.000000
-0.731806 -0.455795 0.100833 128 128 255 -0.555571 0.831469 0.000000
-0.731806 -0.455795 0.100837 128 128 255 0.803214 0.595690 0.000000
-0.731806 -0.455795 0.100849 128 128 255 0.425044 0.782138 -0.455629
0.655646 -0.731583 1.100869 128 128 255 -0.093209 0.885518 0.455158
0.655646 -0.731583 1.100897 128 128 255 -0.565246 0.824922 0.000000
0.655646 -0.731583 1.100932 128 128 255 -0.563092 0.826394 0.000000
0.655646 -0.731583 1.100974 128 128 255 -0.561562 0.827435 0.000000
0.655646 -0.731583 1.101022 128 128 255 -0.560474 0.828172 0.000000
0.655646 -0.731583 1.101077 128 128 255 -0.559576 0.828779 0.000000
0.655646 -0.731583 1.101138 128 128 255 -0.558875 0.829252 0.000000
0.655646 -0.731583 1.101204 128 128 255 -0.558259 0.829667 0.000000
0.655646 -0.731583 1.101274 128 128 255 -0.557720 0.830029 0.000000
0.655646 -0.731583 1.101348 128 128 255 -0.557213 0.830370 0.000000
0.655646 -0.731583 1.101425 128 128 255 -0.556802 0.830645 0.000000
0.655646 -0.731583 1.101504 128 128 255 -0.556365 0.830938 0.000000
0.655646 -0.731583 1.101585 128 128 255 -0.555972 0.831201 0.000000
0.655646 -0.731583 1.101667 128 128 255 -0.555570 0.831470 0.000000
0.655646 -0.731583 1.101748 128 128 255 -0.555169 0.831738 0.000000
0.655646 -0.731583 1.101829 128 128 255 -0.554775 0.832000 0.000000
0.655646 -0.731583 1.101909 128 128 255 -0.554337 0.832292 0.000000
0.655646 -0.731583 1.101986 128 128 255 -0.553925 0.832566 0.000000
0.655646 -0.731583 1.102059 128 128 255 -0.553416 0.832905 0.000000
0.655646 -0.731583 1.102130 128 128 255 -0.552876 0.833264 0.000000
0.655646 -0.731583 1.102195 128 128 255 -0.552257 0.833674 0.000000
0.655646 -0.731583 1.102256 128 128 255 -0.551521 0.834161 0.000000
0.655646 -0.731583 1.102311 128 128 255 -0.550677 0.834719 0.000000
0.655646 -0.731583 1.102360 128 128 255 -0.549511 0.835487 0.000000
0.655646 -0.731583 1.102402 128 128 255 -0.548041 0.836451 0.000000
0.655646 -0.731583 1.102437 128 128 255 -0.545819 0.837903 0.000000
0.655646 -0.731583 1.102464 128 128 255 -0.542289 0.840192 0.000000
0.655646 -0.731583 1.102484 128 128 255 -0.535143 0.844762 0.000000
0.655646 -0.731583 1.102496 128 128 255 -0.514211 0.857664 0.000000
0.655646 -0.731583 1.102500 128 128 255 0.831469 0.555570 0.000000
0.655646 -0.731583 1.102496 128 128 255 0.595598 -0.803282 0.000000
0.655646 -0.731583 1.102484 128 128 255 0.575668 -0.817684 0.000000
0.655646 -0.731583 1.102464 128 128 255 0.536416 -0.843954 0.000000
-0.607393 -0.607393 0.102437 128 128 255 -0.680492 -0.732755 0.000000
-0.607393 -0.607393 0.102402 128 128 255 -0.700679 -0.713477 0.000000
-0.607393 -0.607393 0.102360 128 128 255 -0.701968 -0.712208 0.000000
-0.607393 -0.607393 0.102311 128 128 255 -0.702925 -0.711264 0.000000
-0.607393 -0.607393 0.102256 128 128 255 -0.703675 -0.710522 0.000000
-0.607393 -0.607393 0.102195 128 128 255 -0.704294 -0.709908 0.000000
-0.607393 -0.607393 0.102130 128 128 255 -0.704816 -0.709390 0.000000
-0.607393 -0.607393 0.102059 128 128 255 -0.705277 -0.708932 0.000000
-0.607393 -0.607393 0.101986 128 128 255 -0.705687 -0.708524 0.000000
-0.607393 -0.607393 0.101909 128 128 255 -0.706069 -0.708143 0.000000
-0.607393 -0.607393 0.101829 128 128 255 -0.706425 -0.707788 0.000000
-0.607393 -0.607393 0.101748 128 128 255 -0.706770 -0.707443 0.000000
-0.607393 -0.607393 0.101667 128 128 255 -0.707107 -0.707107 0.000000
-0.607393 -0.607393 0.101585 128 128 255 -0.707443 -0.706770 0.000000
-0.607393 -0.607393 0.101504 128 128 255 -0.707788 -0.706425 0.000000
-0.607393 -0.607393 0.101425 128 128 255 -0.708143 -0.706069 0.000000
-0.607393 -0.607393 0.101348 128 128 255 -0.708524 -0.705687 0.000000
-0.607393 -0.607393 0.101274 128 128 255 -0.708932 -0.705277 0.000000
-0.607393 -0.607393 0.101204 128 128 255 -0.709390 -0.704816 0.000000
-0.607393 -0.607393 0.101138 128 128 255 -0.709908 -0.704294 0.000000
-0.607393 -0.607393 0.101077 128 128 255 -0.710522 -0.703675 0.000000
-0.607393 -0.607393 0.101022 128 128 255 -0.711264 -0.702925 0.000000
-0.607393 -0.607393 0.100974 128 128 255 -0.712208 -0.701968 0.000000
-0.607393 -0.607393 0.100932 128 128 255 -0.713477 -0.700679 0.000000
-0.607393 -0.607393 0.100897 128 128 255 -0.715318 -0.698799 0.000000
-0.607393 -0.607393 0.100869 128 128 255 -0.718292 -0.695742 0.000000
-0.607393 -0.607393 0.100849 128 128 255 -0.724097 -0.689699 0.000000
-0.607393 -0.607393 0.100837 128 128 255 -0.740944 -0.671567 0.000000
-0.607393 -0.607393 0.100833 128 128 255 -0.707106 0.707107 0.000000
-0.607393 -0.607393 0.100837 128 128 255 0.671567 0.740944 0.000000
-0.607393 -0.607393 0.100849 128 128 255 0.689699 0.724097 0.000000
-0.607393 -0.607393 0.100869 128 128 255 0.264315 0.850013 -0.455649
0.807204 -0.607204 1.100897 128 128 255 -0.264199 0.850301 0.455179
0.807204 -0.607204 1.100932 128 128 255 -0.713494 0.700661 0.000000
0.807204 -0.607204 1.100974 128 128 255 -0.712196 0.701981 0.000000
0.807204 -0.607204 1.101022 128 128 255 -0.711273 0.702916 0.000000
0.807204 -0.607204 1.101077 128 128 255 -0.710511 0.703686 0.000000
0.807204 -0.607204 1.101138 128 128 255 -0.709915 0.704287 0.000000
0.807204 -0.607204 1.101204 128 128 255 -0.709392 0.704814 0.000000
0.807204 -0.607204 1.101274 128 128 255 -0.708935 0.705274 0.000000
0.807204 -0.607204 1.101348 128 128 255 -0.708503 0.705707 0.000000
0.807204 -0.607204 1.101425 128 128 255 -0.708154 0.706058 0.000000
0.807204 -0.607204 1.101504 128 128 255 -0.707782 0.706431 0.000000
0.807204 -0.607204 1.101585 128 128 255 -0.707448 0.706765 0.000000
0.807204 -0.607204 1.101667 128 128 255 -0.707107 0.707107 0.000000
0.807204 -0.607204 1.101748 128 128 255 -0.706765 0.707448 0.000000
0.807204 -0.607204 1.101829 128 128 255 -0.706431 0.707782 0.000000
0.807204 -0.607204 1.101909 128 128 255 -0.706058 0.708154 0.000000
0.807204 -0.607204 1.101986 128 128 255 -0.705707 0.708503 0.000000
0.807204 -0.607204 1.102059 128 128 255 -0.705274 0.708935 0.000000
0.807204 -0.607204 1.102130 128 128 255 -0.704814 0.709392 0.000000
0.807204 -0.607204 1.102195 128 128 255 -0.704287 0.709915 0.000000
0.807204 -0.607204 1.102256 128 128 255 -0.703661 0.710536 0.000000
0.807204 -0.607204 1.102311 128 128 255 -0.702941 0.711248 0.000000
0.807204 -0.607204 1.102360 128 128 255 -0.701948 0.712229 0.000000
0.807204 -0.607204 1.102402 128 128 255 -0.700695 0.713461 0.000000
0.807204 -0.607204 1.102437 128 128 255 -0.698798 0.715319 0.000000
0.807204 -0.607204 1.102464 128 128 255 -0.695782 0.718253 0.000000
0.807204 -0.607204 1.102484 128 128 255 -0.689665 0.724128 0.000000
0.807204 -0.607204 1.102496 128 128 255 -0.671652 0.740867 0.000000
0.807204 -0.607204 1.102500 128 128 255 0.707107 0.707106 0.000000
0.807204 -0.607204 1.102496 128 128 255 0.740867 -0.671652 0.000000
0.807204 -0.607204 1.102484 128 128 255 0.724129 -0.689665 0.000000
0.807204 -0.607204 1.102464 128 128 255 0.718253 -0.695782 0.000000
0.807204 -0.607204 1.102437 128 128 255 0.688381 -0.725349 0.000000
-0.455795 -0.731806 0.102402 128 128 255 -0.525189 -0.850986 0.000000
-0.455795 -0.731806 0.102360 128 128 255 -0.549535 -0.835471 0.000000
-0.455795 -0.731806 0.102311 128 128 255 -0.550658 -0.834731 0.000000
-0.455795 -0.731806 0.102256 128 128 255 -0.551538 -0.834150 0.000000
-0.455795 -0.731806 0.102195 128 128 255 -0.552265 -0.833669 0.000000
-0.455795 -0.731806 0.102130 128 128 255 -0.552878 -0.833262 0.000000
-0.455795 -0.731806 0.102059 128 128 255 -0.553420 -0.832902 0.000000
-0.455795 -0.731806 0.101986 128 128 255 -0.553901 -0.832583 0.000000
-0.455795 -0.731806 0.101909 128 128 255 -0.554351 -0.832283 0.000000
-0.455795 -0.731806 0.101829 128 128 255 -0.554769 -0.832004 0.000000
-0.455795 -0.731806 0.101748 128 128 255 -0.555175 -0.831734 0.000000
-0.455795 -0.731806 0.101667 128 128 255 -0.555570 -0.831470 0.000000
-0.455795 -0.731806 0.101585 128 128 255 -0.555965 -0.831205 0.000000
-0.455795 -0.731806 0.101504 128 128 255 -0.556371 -0.830934 0.000000
-0.455795 -0.731806 0.101425 128 128 255 -0.556789 -0.830654 0.000000
-0.455795 -0.731806 0.101348 128 128 255 -0.557237 -0.830353 0.000000
-0.455795 -0.731806 0.101274 128 128 255 -0.557717 -0.830031 0.000000
-0.455795 -0.731806 0.101204 128 128 255 -0.558256 -0.829669 0.000000
-0.455795 -0.731806 0.101138 128 128 255 -0.558867 -0.829258 0.000000
-0.455795 -0.731806 0.101077 128 128 255 -0.559589 -0.828770 0.000000
-0.455795 -0.731806 0.101022 128 128 255 -0.560463 -0.828180 0.000000
-0.455795 -0.731806 0.100974 128 128 255 -0.561576 -0.827425 0.000000
-0.455795 -0.731806 0.100932 128 128 255 -0.563072 -0.826408 0.000000
-0.455795 -0.731806 0.100897 128 128 255 -0.565244 -0.824924 0.000000
-0.455795 -0.731806 0.100869 128 128 255 -0.568758 -0.822505 0.000000
-0.455795 -0.731806 0.100849 128 128 255 -0.575630 -0.817710 0.000000
-0.455795 -0.731806 0.100837 128 128 255 -0.595690 -0.803214 0.000000
-0.455795 -0.731806 0.100833 128 128 255 -0.831469 0.555571 0.000000
-0.455795 -0.731806 0.100837 128 128 255 0.514112 0.857723 0.000000
-0.455795 -0.731806 0.100849 128 128 255 0.535182 0.844737 0.000000
-0.455795 -0.731806 0.100869 128 128 255 0.542241 0.840223 0.000000
-0.455795 -0.731806 0.100897 128 128 255 0.093434 0.885233 -0.455668
0.931583 -0.455646 1.100932 128 128 255 -0.425028 0.782398 0.455198
0.931583 -0.455646 1.100974 128 128 255 -0.835461 0.549550 0.000000
0.931583 -0.455646 1.101022 128 128 255 -0.834738 0.550647 0.000000
0.931583 -0.455646 1.101077 128 128 255 -0.834141 0.551551 0.000000
0.931583 -0.455646 1.101138 128 128 255 -0.833674 0.552257 0.000000
0.931583 -0.455646 1.101204 128 128 255 -0.833264 0.552876 0.000000
0.931583 -0.455646 1.101274 128 128 255 -0.832905 0.553416 0.000000
0.931583 -0.455646 1.101348 128 128 255 -0.832566 0.553925 0.000000
0.931583 -0.455646 1.101425 128 128 255 -0.832292 0.554337 0.000000
0.931583 -0.455646 1.101504 128 128 255 -0.832000 0.554775 0.000000
0.931583 -0.455646 1.101585 128 128 255 -0.831738 0.555169 0.000000
0.931583 -0.455646 1.101667 128 128 255 -0.831470 0.555570 0.000000
0.931583 -0.455646 1.101748 128 128 255 -0.831201 0.555972 0.000000
0.931583 -0.455646 1.101829 128 128 255 -0.830938 0.556365 0.000000
0.931583 -0.455646 1.101909 128 128 255 -0.830645 0.556802 0.000000
0.931583 -0.455646 1.101986 128 128 255 -0.830370 0.557213 0.000000
0.931583 -0.455646 1.102059 128 128 255 -0.830029 0.557720 0.000000
0.931583 -0.455646 1.102130 128 128 255 -0.829667 0.558259 0.000000
0.931583 -0.455646 1.102195 128 128 255 -0.829252 0.558875 0.000000
0.931583 -0.455646 1.102256 128 128 255 -0.828759 0.559606 0.000000
0.931583 -0.455646 1.102311 128 128 255 -0.828192 0.560444 0.000000
0.931583 -0.455646 1.102360 128 128 255 -0.827409 0.561600 0.000000
0.931583 -0.455646 1.102402 128 128 255 -0.826420 0.563054 0.000000
0.931583 -0.455646 1.102437 128 128 255 -0.824922 0.565246 0.000000
0.931583 -0.455646 1.102464 128 128 255 -0.822537 0.568711 0.000000
0.931583 -0.455646 1.102484 128 128 255 -0.817684 0.575668 0.000000
0.931583 -0.455646 1.102496 128 128 255 -0.803282 0.595598 0.000000
0.931583 -0.455646 1.102500 128 128 255 0.555570 0.831470 0.000000
0.931583 -0.455646 1.102496 128 128 255 0.857664 -0.514211 0.000000
0.931583 -0.455646 1.102484 128 128 255 0.844762 -0.535143 0.000000
0.931583 -0.455646 1.102464 128 128 255 0.840192 -0.542289 0.000000
0.931583 -0.455646 1.102437 128 128 255 0.837903 -0.545819 0.000000
0.931583 -0.455646 1.102402 128 128 255 0.815682 -0.578500 0.000000
-0.282838 -0.824253 0.102360 128 128 255 -0.349660 -0.936877 0.000000
-0.282838 -0.824253 0.102311 128 128 255 -0.377230 -0.926120 0.000000
-0.282838 -0.824253 0.102256 128 128 255 -0.378206 -0.925721 0.000000
-0.282838 -0.824253 0.102195 128 128 255 -0.379013 -0.925391 0.000000
-0.282838 -0.824253 0.102130 128 128 255 -0.379694 -0.925112 0.000000
-0.282838 -0.824253 0.102059 128 128 255 -0.380295 -0.924865 0.000000
-0.282838 -0.824253 0.101986 128 128 255 -0.380829 -0.924645 0.000000
-0.282838 -0.824253 0.101909 128 128 255 -0.381329 -0.924440 0.000000
-0.282838 -0.824253 0.101829 128 128 255 -0.381793 -0.924248 0.000000
-0.282838 -0.824253 0.101748 128 128 255 -0.382244 -0.924061 0.000000
-0.282838 -0.824253 0.101667 128 128 255 -0.382683 -0.923880 0.000000
-0.282838 -0.824253 0.101585 128 128 255 -0.383123 -0.923697 0.000000
-0.282838 -0.824253 0.101504 128 128 255 -0.383573 -0.923510 0.000000
-0.282838 -0.824253 0.101425 128 128 255 -0.384038 -0.923317 0.000000
-0.282838 -0.824253 0.101348 128 128 255 -0.384536 -0.923110 0.000000
-0.282838 -0.824253 0.101274 128 128 255 -0.385069 -0.922888 0.000000
-0.282838 -0.824253 0.101204 128 128 255 -0.385669 -0.922637 0.000000
-0.282838 -0.824253 0.101138 128 128 255 -0.386348 -0.922353 0.000000
-0.282838 -0.824253 0.101077 128 128 255 -0.387152 -0.922016 0.000000
-0.282838 -0.824253 0.101022 128 128 255 -0.388124 -0.921607 0.000000
-0.282838 -0.824253 0.100974 128 128 255 -0.389363 -0.921084 0.000000
-0.282838 -0.824253 0.100932 128 128 255 -0.391029 -0.920379 0.000000
-0.282838 -0.824253 0.100897 128 128 255 -0.393449 -0.919347 0.000000
-0.282838 -0.824253 0.100869 128 128 255 -0.397367 -0.917660 0.000000
-0.282838 -0.824253 0.100849 128 128 255 -0.405042 -0.914298 0.000000
-0.282838 -0.824253 0.100837 128 128 255 -0.427545 -0.903994 0.000000
-0.282838 -0.824253 0.100833 128 128 255 -0.923880 0.382683 0.000000
-0.282838 -0.824253 0.100837 128 128 255 0.336901 0.941540 0.000000
-0.282838 -0.824253 0.100849 128 128 255 0.360099 0.932914 0.000000
-0.282838 -0.824253 0.100869 128 128 255 0.367903 0.929864 0.000000
-0.282838 -0.824253 0.100897 128 128 255 0.371866 0.928286 0.000000
-0.282838 -0.824253 0.100932 128 128 255 -0.081034 0.886444 -0.455686
1.024006 -0.282736 1.100974 128 128 255 -0.569514 0.684421 0.455216
1.024006 -0.282736 1.101022 128 128 255 -0.926125 0.377217 0.000000
1.024006 -0.282736 1.101077 128 128 255 -0.925716 0.378220 0.000000
1.024006 -0.282736 1.101138 128 128 255 -0.925395 0.379004 0.000000
1.024006 -0.282736 1.101204 128 128 255 -0.925113 0.379691 0.000000
1.024006 -0.282736 1.101274 128 128 255 -0.924867 0.380291 0.000000
1.024006 -0.282736 1.101348 128 128 255 -0.924634 0.380856 0.000000
1.024006 -0.282736 1.101425 128 128 255 -0.924446 0.381314 0.000000
1.024006 -0.282736 1.101504 128 128 255 -0.924245 0.381800 0.000000
1.024006 -0.282736 1.101585 128 128 255 -0.924064 0.382237 0.000000
1.024006 -0.282736 1.101667 128 128 255 -0.923880 0.382684 0.000000
1.024006 -0.282736 1.101748 128 128 255 -0.923695 0.383130 0.000000
1.024006 -0.282736 1.101829 128 128 255 -0.923513 0.383566 0.000000
1.024006 -0.282736 1.101909 128 128 255 -0.923311 0.384052 0.000000
1.024006 -0.282736 1.101986 128 128 255 -0.923121 0.384509 0.000000
1.024006 -0.282736 1.102059 128 128 255 -0.922886 0.385074 0.000000
1.024006 -0.282736 1.102130 128 128 255 -0.922636 0.385672 0.000000
1.024006 -0.282736 1.102195 128 128 255 -0.922349 0.386357 0.000000
1.024006 -0.282736 1.102256 128 128 255 -0.922008 0.387171 0.000000
1.024006 -0.282736 1.102311 128 128 255 -0.921616 0.388104 0.000000
1.024006 -0.282736 1.102360 128 128 255 -0.921073 0.389390 0.000000
1.024006 -0.282736 1.102402 128 128 255 -0.920387 0.391008 0.000000
1.024006 -0.282736 1.102437 128 128 255 -0.919346 0.393451 0.000000
1.024006 -0.282736 1.102464 128 128 255 -0.917682 0.397315 0.000000
1.024006 -0.282736 1.102484 128 128 255 -0.914279 0.405084 0.000000
1.024006 -0.282736 1.102496 128 128 255 -0.904043 0.427441 0.000000
1.024006 -0.282736 1.102500 128 128 255 0.382684 0.923879 0.000000
1.024006 -0.282736 1.102496 128 128 255 0.941502 -0.337009 0.000000
1.024006 -0.282736 1.102484 128 128 255 0.932931 -0.360056 0.000000
1.024006 -0.282736 1.102464 128 128 255 0.929843 -0.367956 0.000000
1.024006 -0.282736 1.102437 128 128 255 0.928287 -0.371864 0.000000
1.024006 -0.282736 1.102402 128 128 255 0.927297 -0.374328 0.000000
1.024006 -0.282736 1.102360 128 128 255 0.912444 -0.409201 0.000000
-0.095169 -0.881182 0.102311 128 128 255 -0.160647 -0.987012 0.000000
-0.095169 -0.881182 0.102256 128 128 255 -0.190340 -0.981718 0.000000
-0.095169 -0.881182 0.102195 128 128 255 -0.191195 -0.981552 0.000000
-0.095169 -0.881182 0.102130 128 128 255 -0.191918 -0.981411 0.000000
-0.095169 -0.881182 0.102059 128 128 255 -0.192556 -0.981286 0.000000
-0.095169 -0.881182 0.101986 128 128 255 -0.193122 -0.981175 0.000000
-0.095169 -0.881182 0.101909 128 128 255 -0.193652 -0.981070 0.000000
-0.095169 -0.881182 0.101829 128 128 255 -0.194145 -0.980973 0.000000
-0.095169 -0.881182 0.101748 128 128 255 -0.194624 -0.980878 0.000000
-0.095169 -0.881182 0.101667 128 128 255 -0.195090 -0.980785 0.000000
-0.095169 -0.881182 0.101585 128 128 255 -0.195557 -0.980692 0.000000
-0.095169 -0.881182 0.101504 128 128 255 -0.196035 -0.980597 0.000000
-0.095169 -0.881182 0.101425 128 128 255 -0.196528 -0.980498 0.000000
-0.095169 -0.881182 0.101348 128 128 255 -0.197058 -0.980392 0.000000
-0.095169 -0.881182 0.101274 128 128 255 -0.197624 -0.980278 0.000000
-0.095169 -0.881182 0.101204 128 128 255 -0.198261 -0.980149 0.000000
-0.095169 -0.881182 0.101138 128 128 255 -0.198983 -0.980003 0.000000
-0.095169 -0.881182 0.101077 128 128 255 -0.199836 -0.979829 0.000000
-0.095169 -0.881182 0.101022 128 128 255 -0.200870 -0.979618 0.000000
-0.095169 -0.881182 0.100974 128 128 255 -0.202187 -0.979347 0.000000
-0.095169 -0.881182 0.100932 128 128 255 -0.203958 -0.978980 0.000000
-0.095169 -0.881182 0.100897 128 128 255 -0.206533 -0.978440 0.000000
-0.095169 -0.881182 0.100869 128 128 255 -0.210705 -0.977550 0.000000
-0.095169 -0.881182 0.100849 128 128 255 -0.218888 -0.975750 0.000000
-0.095169 -0.881182 0.100837 128 128 255 -0.242969 -0.970034 0.000000
-0.095169 -0.881182 0.100833 128 128 255 -0.980785 0.195091 0.000000
-0.095169 -0.881182 0.100837 128 128 255 0.146742 0.989175 0.000000
-0.095169 -0.881182 0.100849 128 128 255 0.171177 0.985240 0.000000
-0.095169 -0.881182 0.100869 128 128 255 0.179426 0.983771 0.000000
-0.095169 -0.881182 0.100897 128 128 255 0.183621 0.982997 0.000000
-0.095169 -0.881182 0.100932 128 128 255 0.186207 0.982511 0.000000
-0.095169 -0.881182 0.100974 128 128 255 -0.252386 0.853602 -0.455703
1.080920 -0.095117 1.101022 128 128 255 -0.692104 0.560138 0.455234
1.080920 -0.095117 1.101077 128 128 255 -0.981715 0.190355 0.000000
1.080920 -0.095117 1.101138 128 128 255 -0.981554 0.191186 0.000000
1.080920 -0.095117 1.101204 128 128 255 -0.981412 0.191915 0.000000
1.080920 -0.095117 1.101274 128 128 255 -0.981287 0.192551 0.000000
1.080920 -0.095117 1.101348 128 128 255 -0.981169 0.193151 0.000000
1.080920 -0.095117 1.101425 128 128 255 -0.981073 0.193637 0.000000
1.080920 -0.095117 1.101504 128 128 255 -0.980971 0.194153 0.000000
1.080920 -0.095117 1.101585 128 128 255 -0.980879 0.194616 0.000000
1.080920 -0.095117 1.101667 128 128 255 -0.980785 0.195090 0.000000
1.080920 -0.095117 1.101748 128 128 255 -0.980691 0.195564 0.000000
1.080920 -0.095117 1.101829 128 128 255 -0.980598 0.196028 0.000000
1.080920 -0.095117 1.101909 128 128 255 -0.980495 0.196544 0.000000
1.080920 -0.095117 1.101986 128 128 255 -0.980398 0.197029 0.000000
1.080920 -0.095117 1.102059 128 128 255 -0.980277 0.197628 0.000000
1.080920 -0.095117 1.102130 128 128 255 -0.980149 0.198264 0.000000
1.080920 -0.095117 1.102195 128 128 255 -0.980001 0.198992 0.000000
1.080920 -0.095117 1.102256 128 128 255 -0.979825 0.199856 0.000000
1.080920 -0.095117 1.102311 128 128 255 -0.979622 0.200848 0.000000
1.080920 -0.095117 1.102360 128 128 255 -0.979341 0.202215 0.000000
1.080920 -0.095117 1.102402 128 128 255 -0.978984 0.203936 0.000000
1.080920 -0.095117 1.102437 128 128 255 -0.978439 0.206535 0.000000
1.080920 -0.095117 1.102464 128 128 255 -0.977562 0.210649 0.000000
1.080920 -0.095117 1.102484 128 128 255 -0.975740 0.218934 0.000000
1.080920 -0.095117 1.102496 128 128 255 -0.970062 0.242858 0.000000
1.080920 -0.095117 1.102500 128 128 255 0.195090 0.980785 0.000000
1.080920 -0.095117 1.102496 128 128 255 0.989158 -0.146855 0.000000
1.080920 -0.095117 1.102484 128 128 255 0.985248 -0.171131 0.000000
1.080920 -0.095117 1.102464 128 128 255 0.983761 -0.179482 0.000000
1.080920 -0.095117 1.102437 128 128 255 0.982998 -0.183619 0.000000
1.080920 -0.095117 1.102402 128 128 255 0.982507 -0.186228 0.000000
1.080920 -0.095117 1.102360 128 128 255 0.982178 -0.187955 0.000000
1.080920 -0.095117 1.102311 128 128 255 0.974552 -0.224161 0.000000
0.100000 -0.900404 0.102256 128 128 255 0.034600 -0.999401 0.000000
0.100000 -0.900404 0.102195 128 128 255 0.003970 -0.999992 0.000000
0.100000 -0.900404 0.102130 128 128 255 0.003234 -0.999995 0.000000
0.100000 -0.900404 0.102059 128 128 255 0.002584 -0.999997 0.000000
0.100000 -0.900404 0.101986 128 128 255 0.002006 -0.999998 0.000000
0.100000 -0.900404 0.101909 128 128 255 0.001466 -0.999999 0.000000
0.100000 -0.900404 0.101829 128 128 255 0.000963 -1.000000 0.000000
0.100000 -0.900404 0.101748 128 128 255 0.000475 -1.000000 0.000000
0.100000 -0.900404 0.101667 128 128 255 0.000000 -1.000000 0.000000
0.100000 -0.900404 0.101585 128 128 255 -0.000475 -1.000000 0.000000
0.100000 -0.900404 0.101504 128 128 255 -0.000963 -1.000000 0.000000
0.100000 -0.900404 0.101425 128 128 255 -0.001466 -0.999999 0.000000
0.100000 -0.900404 0.101348 128 128 255 -0.002006 -0.999998 0.000000
0.100000 -0.900404 0.101274 128 128 255 -0.002584 -0.999997 0.000000
0.100000 -0.900404 0.101204 128 128 255 -0.003234 -0.999995 0.000000
0.100000 -0.900404 0.101138 128 128 255 -0.003970 -0.999992 0.000000
0.100000 -0.900404 0.101077 128 128 255 -0.004841 -0.999988 0.000000
0.100000 -0.900404 0.101022 128 128 255 -0.005896 -0.999983 0.000000
0.100000 -0.900404 0.100974 128 128 255 -0.007241 -0.999974 0.000000
0.100000 -0.900404 0.100932 128 128 255 -0.009050 -0.999959 0.000000
0.100000 -0.900404 0.100897 128 128 255 -0.011681 -0.999932 0.000000
0.100000 -0.900404 0.100869 128 128 255 -0.015946 -0.999873 0.000000
0.100000 -0.900404 0.100849 128 128 255 -0.024323 -0.999704 0.000000
0.100000 -0.900404 0.100837 128 128 255 -0.049056 -0.998796 0.000000
0.100000 -0.900404 0.100833 128 128 255 -1.000000 0.000000 0.000000
0.100000 -0.900404 0.100837 128 128 255 -0.049056 0.998796 0.000000
0.100000 -0.900404 0.100849 128 128 255 -0.024323 0.999704 0.000000
0.100000 -0.900404 0.100869 128 128 255 -0.015946 0.999873 0.000000
0.100000 -0.900404 0.100897 128 128 255 -0.011681 0.999932 0.000000
0.100000 -0.900404 0.100932 128 128 255 -0.009050 0.999959 0.000000
0.100000 -0.900404 0.100974 128 128 255 -0.007241 0.999974 0.000000
0.100000 -0.900404 0.101022 128 128 255 -0.414041 0.787966 -0.455719
1.100137 0.100000 1.101077 128 128 255 -0.788086 0.414328 0.455250
1.100137 0.100000 1.101138 128 128 255 -0.999992 -0.003979 0.000000
1.100137 0.100000 1.101204 128 128 255 -0.999995 -0.003237 0.000000
1.100137 0.100000 1.101274 128 128 255 -0.999997 -0.002588 0.000000
1.100137 0.100000 1.101348 128 128 255 -0.999998 -0.001977 0.000000
1.100137 0.100000 1.101425 128 128 255 -0.999999 -0.001482 0.000000
1.100137 0.100000 1.101504 128 128 255 -1.000000 -0.000956 0.000000
1.100137 0.100000 1.101585 128 128 255 -1.000000 -0.000483 0.000000
1.100137 0.100000 1.101667 128 128 255 -1.000000 -0.000000 0.000000
1.100137 0.100000 1.101748 128 128 255 -1.000000 0.000483 0.000000
1.100137 0.100000 1.101829 128 128 255 -1.000000 0.000956 0.000000
1.100137 0.100000 1.101909 128 128 255 -0.999999 0.001482 0.000000
1.100137 0.100000 1.101986 128 128 255 -0.999998 0.001977 0.000000
1.100137 0.100000 1.102059 128 128 255 -0.999997 0.002588 0.000000
1.100137 0.100000 1.102130 128 128 255 -0.999995 0.003237 0.000000
1.100137 0.100000 1.102195 128 128 255 -0.999992 0.003979 0.000000
1.100137 0.100000 1.102256 128 128 255 -0.999988 0.004862 0.000000
1.100137 0.100000 1.102311 128 128 255 -0.999983 0.005874 0.000000
1.100137 0.100000 1.102360 128 128 255 -0.999974 0.007270 0.000000
1.100137 0.100000 1.102402 128 128 255 -0.999959 0.009028 0.000000
1.100137 0.100000 1.102437 128 128 255 -0.999932 0.011682 0.000000
1.100137 0.100000 1.102464 128 128 255 -0.999874 0.015889 0.000000
1.100137 0.100000 1.102484 128 128 255 -0.999703 0.024369 0.000000
1.100137 0.100000 1.102496 128 128 255 -0.998802 0.048942 0.000000
1.100137 0.100000 1.102500 128 128 255 -0.000000 1.000000 0.000000
1.100137 0.100000 1.102496 128 128 255 0.998802 0.048942 0.000000
1.100137 0.100000 1.102484 128 128 255 0.999703 0.024369 0.000000
1.100137 0.100000 1.102464 128 128 255 0.999874 0.015889 0.000000
1.100137 0.100000 1.102437 128 128 255 0.999932 0.011682 0.000000
1.100137 0.100000 1.102402 128 128 255 0.999959 0.009028 0.000000
1.100137 0.100000 1.102360 128 128 255 0.999974 0.007270 0.000000
1.100137 0.100000 1.102311 128 128 255 0.999983 0.005874 0.000000
1.100137 0.100000 1.102256 128 128 255 0.999544 -0.030200 0.000000
0.295169 -0.881182 0.102195 128 128 255 0.228577 -0.973526 0.000000
0.295169 -0.881182 0.102130 128 128 255 0.198261 -0.980149 0.000000
0.295169 -0.881182 0.102059 128 128 255 0.197624 -0.980278 0.000000
0.295169 -0.881182 0.101986 128 128 255 0.197058 -0.980392 0.000000
0.295169 -0.881182 0.101909 128 128 255 0.196528 -0.980498 0.000000
0.295169 -0.881182 0.101829 128 128 255 0.196035 -0.980597 0.000000
0.295169 -0.881182 0.101748 128 128 255 0.195557 -0.980692 0.000000
0.295169 -0.881182 0.101667 128 128 255 0.195090 -0.980785 0.000000
0.295169 -0.881182 0.101585 128 128 255 0.194624 -0.980878 0.000000
0.295169 -0.881182 0.101504 128 128 255 0.194145 -0.980973 0.000000
0.295169 -0.881182 0.101425 128 128 255 0.193652 -0.981070 0.000000
0.295169 -0.881182 0.101348 128 128 255 0.193122 -0.981175 0.000000
0.295169 -0.881182 0.101274 128 128 255 0.192556 -0.981286 0.000000
0.295169 -0.881182 0.101204 128 128 255 0.191918 -0.981411 0.000000
0.295169 -0.881182 0.101138 128 128 255 0.191195 -0.981552 0.000000
0.295169 -0.881182 0.101077 128 128 255 0.190340 -0.981718 0.000000
0.295169 -0.881182 0.101022 128 128 255 0.189304 -0.981918 0.000000
0.295169 -0.881182 0.100974 128 128 255 0.187984 -0.982172 0.000000
0.295169 -0.881182 0.100932 128 128 255 0.186207 -0.982511 0.000000
0.295169 -0.881182 0.100897 128 128 255 0.183621 -0.982997 0.000000
0.295169 -0.881182 0.100869 128 128 255 0.179426 -0.983771 0.000000
0.295169 -0.881182 0.100849 128 128 255 0.171177 -0.985240 0.000000
0.295169 -0.881182 0.100837 128 128 255 0.146742 -0.989175 0.000000
0.295169 -0.881182 0.100833 128 128 255 -0.980785 -0.195091 0.000000
0.295169 -0.881182 0.100837 128 128 255 -0.242969 0.970034 0.000000
0.295169 -0.881182 0.100849 128 128 255 -0.218888 0.975750 0.000000
0.295169 -0.881182 0.100869 128 128 255 -0.210705 0.977550 0.000000
0.295169 -0.881182 0.100897 128 128 255 -0.206533 0.978440 0.000000
0.295169 -0.881182 0.100932 128 128 255 -0.203958 0.978980 0.000000
0.295169 -0.881182 0.100974 128 128 255 -0.202187 0.979347 0.000000
0.295169 -0.881182 0.101022 128 128 255 -0.200870 0.979618 0.000000
0.295169 -0.881182 0.101077 128 128 255 -0.559788 0.692058 -0.455734
1.080920 0.295117 1.101138 128 128 255 -0.853773 0.252596 0.455265
1.080920 0.295117 1.101204 128 128 255 -0.980149 -0.198264 0.000000
1.080920 0.295117 1.101274 128 128 255 -0.980277 -0.197628 0.000000
1.080920 0.295117 1.101348 128 128 255 -0.980398 -0.197029 0.000000
1.080920 0.295117 1.101425 128 128 255 -0.980495 -0.196544 0.000000
1.080920 0.295117 1.101504 128 128 255 -0.980598 -0.196028 0.000000
1.080920 0.295117 1.101585 128 128 255 -0.980691 -0.195564 0.000000
1.080920 0.295117 1.101667 128 128 255 -0.980785 -0.195090 0.000000
1.080920 0.295117 1.101748 128 128 255 -0.980879 -0.194616 0.000000
1.080920 0.295117 1.101829 128 128 255 -0.980971 -0.194153 0.000000
1.080920 0.295117 1.101909 128 128 255 -0.981073 -0.193637 0.000000
1.080920 0.295117 1.101986 128 128 255 -0.981169 -0.193151 0.000000
1.080920 0.295117 1.102059 128 128 255 -0.981287 -0.192551 0.000000
1.080920 0.295117 1.102130 128 128 255 -0.981412 -0.191915 0.000000
1.080920 0.295117 1.102195 128 128 255 -0.981554 -0.191186 0.000000
1.080920 0.295117 1.102256 128 128 255 -0.981722 -0.190320 0.000000
1.080920 0.295117 1.102311 128 128 255 -0.981914 -0.189326 0.000000
1.080920 0.295117 1.102360 128 128 255 -0.982178 -0.187955 0.000000
1.080920 0.295117 1.102402 128 128 255 -0.982507 -0.186228 0.000000
1.080920 0.295117 1.102437 128 128 255 -0.982998 -0.183619 0.000000
1.080920 0.295117 1.102464 128 128 255 -0.983761 -0.179482 0.000000
1.080920 0.295117 1.102484 128 128 255 -0.985248 -0.171131 0.000000
1.080920 0.295117 1.102496 128 128 255 -0.989158 -0.146855 0.000000
1.080920 0.295117 1.102500 128 128 255 -0.195089 0.980786 0.000000
1.080920 0.295117 1.102496 128 128 255 0.970062 0.242858 0.000000
1.080920 0.295117 1.102484 128 128 255 0.975740 0.218934 0.000000
1.080920 0.295117 1.102464 128 128 255 0.977562 0.210649 0.000000
1.080920 0.295117 1.102437 128 128 255 0.978439 0.206535 0.000000
1.080920 0.295117 1.102402 128 128 255 0.978984 0.203936 0.000000
1.080920 0.295117 1.102360 128 128 255 0.979341 0.202215 0.000000
1.080920 0.295117 1.102311 128 128 255 0.979622 0.200848 0.000000
1.080920 0.295117 1.102256 128 128 255 0.979825 0.199856 0.000000
1.080920 0.295117 1.102195 128 128 255 0.986317 0.164862 0.000000
0.482838 -0.824253 0.102130 128 128 255 0.413850 -0.910345 0.000000
0.482838 -0.824253 0.102059 128 128 255 0.385069 -0.922888 0.000000
0.482838 -0.824253 0.101986 128 128 255 0.384536 -0.923110 0.000000
0.482838 -0.824253 0.101909 128 128 255 0.384038 -0.923317 0.000000
0.482838 -0.824253 0.101829 128 128 255 0.383573 -0.923510 0.000000
0.482838 -0.824253 0.101748 128 128 255 0.383123 -0.923697 0.000000
0.482838 -0.824253 0.101667 128 128 255 0.382684 -0.923880 0.000000
0.482838 -0.824253 0.101585 128 128 255 0.382244 -0.924061 0.000000
0.482838 -0.824253 0.101504 128 128 255 0.381793 -0.924248 0.000000
0.482838 -0.824253 0.101425 128 128 255 0.381329 -0.924440 0.000000
0.482838 -0.824253 0.101348 128 128 255 0.380829 -0.924645 0.000000
0.482838 -0.824253 0.101274 128 128 255 0.380295 -0.924865 0.000000
0.482838 -0.824253 0.101204 128 128 255 0.379694 -0.925112 0.000000
0.482838 -0.824253 0.101138 128 128 255 0.379013 -0.925391 0.000000
0.482838 -0.824253 0.101077 128 128 255 0.378206 -0.925721 0.000000
0.482838 -0.824253 0.101022 128 128 255 0.377230 -0.926120 0.000000
0.482838 -0.824253 0.100974 128 128 255 0.375984 -0.926626 0.000000
0.482838 -0.824253 0.100932 128 128 255 0.374307 -0.927305 0.000000
0.482838 -0.824253 0.100897 128 128 255 0.371866 -0.928286 0.000000
0.482838 -0.824253 0.100869 128 128 255 0.367903 -0.929864 0.000000
0.482838 -0.824253 0.100849 128 128 255 0.360099 -0.932914 0.000000
0.482838 -0.824253 0.100837 128 128 255 0.336901 -0.941540 0.000000
0.482838 -0.824253 0.100833 128 128 255 -0.923879 -0.382684 0.000000
0.482838 -0.824253 0.100837 128 128 255 -0.427545 0.903994 0.000000
0.482838 -0.824253 0.100849 128 128 255 -0.405042 0.914298 0.000000
0.482838 -0.824253 0.100869 128 128 255 -0.397367 0.917660 0.000000
0.482838 -0.824253 0.100897 128 128 255 -0.393449 0.919347 0.000000
0.482838 -0.824253 0.100932 128 128 255 -0.391029 0.920379 0.000000
0.482838 -0.824253 0.100974 128 128 255 -0.389363 0.921084 0.000000
0.482838 -0.824253 0.101022 128 128 255 -0.388124 0.921607 0.000000
0.482838 -0.824253 0.101077 128 128 255 -0.387152 0.922016 0.000000
0.482838 -0.824253 0.101138 128 128 255 -0.684028 0.569562 -0.455747
1.024006 0.482736 1.101204 128 128 255 -0.886642 0.081160 0.455279
1.024006 0.482736 1.101274 128 128 255 -0.922886 -0.385073 0.000000
1.024006 0.482736 1.101348 128 128 255 -0.923121 -0.384509 0.000000
1.024006 0.482736 1.101425 128 128 255 -0.923311 -0.384052 0.000000
1.024006 0.482736 1.101504 128 128 255 -0.923513 -0.383566 0.000000
1.024006 0.482736 1.101585 128 128 255 -0.923695 -0.383130 0.000000
1.024006 0.482736 1.101667 128 128 255 -0.923880 -0.382684 0.000000
1.024006 0.482736 1.101748 128 128 255 -0.924064 -0.382237 0.000000
1.024006 0.482736 1.101829 128 128 255 -0.924245 -0.381800 0.000000
1.024006 0.482736 1.101909 128 128 255 -0.924446 -0.381314 0.000000
1.024006 0.482736 1.101986 128 128 255 -0.924634 -0.380856 0.000000
1.024006 0.482736 1.102059 128 128 255 -0.924867 -0.380291 0.000000
1.024006 0.482736 1.102130 128 128 255 -0.925113 -0.379691 0.000000
1.024006 0.482736 1.102195 128 128 255 -0.925395 -0.379004 0.000000
1.024006 0.482736 1.102256 128 128 255 -0.925729 -0.378187 0.000000
1.024006 0.482736 1.102311 128 128 255 -0.926111 -0.377250 0.000000
1.024006 0.482736 1.102360 128 128 255 -0.926637 -0.375957 0.000000
1.024006 0.482736 1.102402 128 128 255 -0.927297 -0.374327 0.000000
1.024006 0.482736 1.102437 128 128 255 -0.928287 -0.371864 0.000000
1.024006 0.482736 1.102464 128 128 255 -0.929843 -0.367956 0.000000
1.024006 0.482736 1.102484 128 128 255 -0.932931 -0.360056 0.000000
1.024006 0.482736 1.102496 128 128 255 -0.941502 -0.337009 0.000000
1.024006 0.482736 1.102500 128 128 255 -0.382685 0.923879 0.000000
1.024006 0.482736 1.102496 128 128 255 0.904043 0.427441 0.000000
1.024006 0.482736 1.102484 128 128 255 0.914279 0.405084 0.000000
1.024006 0.482736 1.102464 128 128 255 0.917682 0.397315 0.000000
1.024006 0.482736 1.102437 128 128 255 0.919346 0.393451 0.000000
1.024006 0.482736 1.102402 128 128 255 0.920387 0.391008 0.000000
1.024006 0.482736 1.102360 128 128 255 0.921073 0.389390 0.000000
1.024006 0.482736 1.102311 128 128 255 0.921616 0.388104 0.000000
1.024006 0.482736 1.102256 128 128 255 0.922008 0.387171 0.000000
1.024006 0.482736 1.102195 128 128 255 0.922349 0.386357 0.000000
1.024006 0.482736 1.102130 128 128 255 0.935320 0.353802 0.000000
0.655795 -0.731806 0.102059 128 128 255 0.583280 -0.812271 0.000000
0.655795 -0.731806 0.101986 128 128 255 0.557237 -0.830353 0.000000
0.655795 -0.731806 0.101909 128 128 255 0.556789 -0.830654 0.000000
0.655795 -0.731806 0.101829 128 128 255 0.556371 -0.830934 0.000000
0.655795 -0.731806 0.101748 128 128 255 0.555966 -0.831205 0.000000
0.655795 -0.731806 0.101667 128 128 255 0.555570 -0.831470 0.000000
0.655795 -0.731806 0.101585 128 128 255 0.555175 -0.831734 0.000000
0.655795 -0.731806 0.101504 128 128 255 0.554769 -0.832004 0.000000
0.655795 -0.731806 0.101425 128 128 255 0.554351 -0.832283 0.000000
0.655795 -0.731806 0.101348 128 128 255 0.553901 -0.832583 0.000000
0.655795 -0.731806 0.101274 128 128 255 0.553420 -0.832902 0.000000
0.655795 -0.731806 0.101204 128 128 255 0.552879 -0.833262 0.000000
0.655795 -0.731806 0.101138 128 128 255 0.552265 -0.833669 0.000000
0.655795 -0.731806 0.101077 128 128 255 0.551538 -0.834150 0.000000
0.655795 -0.731806 0.101022 128 128 255 0.550658 -0.834731 0.000000
0.655795 -0.731806 0.100974 128 128 255 0.549535 -0.835471 0.000000
0.655795 -0.731806 0.100932 128 128 255 0.548023 -0.836463 0.000000
0.655795 -0.731806 0.100897 128 128 255 0.545820 -0.837902 0.000000
0.655795 -0.731806 0.100869 128 128 255 0.542241 -0.840223 0.000000
0.655795 -0.731806 0.100849 128 128 255 0.535182 -0.844737 0.000000
0.655795 -0.731806 0.100837 128 128 255 0.514113 -0.857723 0.000000
0.655795 -0.731806 0.100833 128 128 255 -0.831470 -0.555570 0.000000
0.655795 -0.731806 0.100837 128 128 255 -0.595690 0.803214 0.000000
0.655795 -0.731806 0.100849 128 128 255 -0.575630 0.817710 0.000000
0.655795 -0.731806 0.100869 128 128 255 -0.568758 0.822505 0.000000
0.655795 -0.731806 0.100897 128 128 255 -0.565244 0.824923 0.000000
0.655795 -0.731806 0.100932 128 128 255 -0.563072 0.826408 0.000000
0.655795 -0.731806 0.100974 128 128 255 -0.561576 0.827425 0.000000
0.655795 -0.731806 0.101022 128 128 255 -0.560463 0.828179 0.000000
0.655795 -0.731806 0.101077 128 128 255 -0.559589 0.828770 0.000000
0.655795 -0.731806 0.101138 128 128 255 -0.558867 0.829257 0.000000
0.655795 -0.731806 0.101204 128 128 255 -0.781987 0.425183 -0.455758
0.931583 0.655646 1.101274 128 128 255 -0.885431 -0.093390 0.455290
0.931583 0.655646 1.101348 128 128 255 -0.830370 -0.557213 0.000000
0.931583 0.655646 1.101425 128 128 255 -0.830645 -0.556802 0.000000
0.931583 0.655646 1.101504 128 128 255 -0.830938 -0.556365 0.000000
0.931583 0.655646 1.101585 128 128 255 -0.831201 -0.555972 0.000000
0.931583 0.655646 1.101667 128 128 255 -0.831470 -0.555570 0.000000
0.931583 0.655646 1.101748 128 128 255 -0.831738 -0.555169 0.000000
0.931583 0.655646 1.101829 128 128 255 -0.832000 -0.554775 0.000000
0.931583 0.655646 1.101909 128 128 255 -0.832292 -0.554337 0.000000
0.931583 0.655646 1.101986 128 128 255 -0.832566 -0.553925 0.000000
0.931583 0.655646 1.102059 128 128 255 -0.832905 -0.553416 0.000000
0.931583 0.655646 1.102130 128 128 255 -0.833264 -0.552876 0.000000
0.931583 0.655646 1.102195 128 128 255 -0.833674 -0.552257 0.000000
0.931583 0.655646 1.102256 128 128 255 -0.834161 -0.551521 0.000000
0.931583 0.655646 1.102311 128 128 255 -0.834719 -0.550677 0.000000
0.931583 0.655646 1.102360 128 128 255 -0.835487 -0.549511 0.000000
0.931583 0.655646 1.102402 128 128 255 -0.836451 -0.548041 0.000000
0.931583 0.655646 1.102437 128 128 255 -0.837903 -0.545819 0.000000
0.931583 0.655646 1.102464 128 128 255 -0.840192 -0.542289 0.000000
0.931583 0.655646 1.102484 128 128 255 -0.844762 -0.535143 0.000000
0.931583 0.655646 1.102496 128 128 255 -0.857664 -0.514211 0.000000
0.931583 0.655646 1.102500 128 128 255 -0.555570 0.831469 0.000000
0.931583 0.655646 1.102496 128 128 255 0.803282 0.595598 0.000000
0.931583 0.655646 1.102484 128 128 255 0.817684 0.575668 0.000000
0.931583 0.655646 1.102464 128 128 255 0.822537 0.568711 0.000000
0.931583 0.655646 1.102437 128 128 255 0.824922 0.565246 0.000000
0.931583 0.655646 1.102402 128 128 255 0.826420 0.563054 0.000000
0.931583 0.655646 1.102360 128 128 255 0.827409 0.561600 0.000000
0.931583 0.655646 1.102311 128 128 255 0.828192 0.560445 0.000000
0.931583 0.655646 1.102256 128 128 255 0.828759 0.559606 0.000000
0.931583 0.655646 1.102195 128 128 255 0.829252 0.558875 0.000000
0.931583 0.655646 1.102130 128 128 255 0.829667 0.558259 0.000000
0.931583 0.655646 1.102059 128 128 255 0.848490 0.529212 0.000000
0.807393 -0.607393 0.101986 128 128 255 0.730378 -0.683044 0.000000
0.807393 -0.607393 0.101909 128 128 255 0.708143 -0.706069 0.000000
0.807393 -0.607393 0.101829 128 128 255 0.707788 -0.706425 0.000000
0.807393 -0.607393 0.101748 128 128 255 0.707443 -0.706770 0.000000
0.807393 -0.607393 0.101667 128 128 255 0.707107 -0.707107 0.000000
0.807393 -0.607393 0.101585 128 128 255 0.706770 -0.707443 0.000000
0.807393 -0.607393 0.101504 128 128 255 0.706425 -0.707788 0.000000
0.807393 -0.607393 0.101425 128 128 255 0.706069 -0.708143 0.000000
0.807393 -0.607393 0.101348 128 128 255 0.705687 -0.708524 0.000000
0.807393 -0.607393 0.101274 128 128 255 0.705277 -0.708932 0.000000
0.807393 -0.607393 0.101204 128 128 255 0.704816 -0.709390 0.000000
0.807393 -0.607393 0.101138 128 128 255 0.704294 -0.709908 0.000000
0.807393 -0.607393 0.101077 128 128 255 0.703675 -0.710522 0.000000
0.807393 -0.607393 0.101022 128 128 255 0.702925 -0.711264 0.000000
0.807393 -0.607393 0.100974 128 128 255 0.701968 -0.712208 0.000000
0.807393 -0.607393 0.100932 128 128 255 0.700679 -0.713477 0.000000
0.807393 -0.607393 0.100897 128 128 255 0.698799 -0.715318 0.000000
0.807393 -0.607393 0.100869 128 128 255 0.695742 -0.718292 0.000000
0.807393 -0.607393 0.100849 128 128 255 0.689699 -0.724097 0.000000
0.807393 -0.607393 0.100837 128 128 255 0.671567 -0.740944 0.000000
0.807393 -0.607393 0.100833 128 128 255 -0.707107 -0.707106 0.000000
0.807393 -0.607393 0.100837 128 128 255 -0.740944 0.671567 0.000000
0.807393 -0.607393 0.100849 128 128 255 -0.724097 0.689699 0.000000
0.807393 -0.607393 0.100869 128 128 255 -0.718292 0.695742 0.000000
0.807393 -0.607393 0.100897 128 128 255 -0.715318 0.698799 0.000000
0.807393 -0.607393 0.100932 128 128 255 -0.713477 0.700679 0.000000
0.807393 -0.607393 0.100974 128 128 255 -0.712208 0.701968 0.000000
0.807393 -0.607393 0.101022 128 128 255 -0.711264 0.702925 0.000000
0.807393 -0.607393 0.101077 128 128 255 -0.710522 0.703675 0.000000
0.807393 -0.607393 0.101138 128 128 255 -0.709908 0.704294 0.000000
0.807393 -0.607393 0.101204 128 128 255 -0.709390 0.704816 0.000000
0.807393 -0.607393 0.101274 128 128 255 -0.849901 0.264468 -0.455767
0.807204 0.807204 1.101348 128 128 255 -0.850190 -0.264347 0.455300
0.807204 0.807204 1.101425 128 128 255 -0.706058 -0.708154 0.000000
0.807204 0.807204 1.101504 128 128 255 -0.706431 -0.707782 0.000000
0.807204 0.807204 1.101585 128 128 255 -0.706765 -0.707448 0.000000
0.807204 0.807204 1.101667 128 128 255 -0.707107 -0.707107 0.000000
0.807204 0.807204 1.101748 128 128 255 -0.707448 -0.706765 0.000000
0.807204 0.807204 1.101829 128 128 255 -0.707782 -0.706431 0.000000
0.807204 0.807204 1.101909 128 128 255 -0.708154 -0.706058 0.000000
0.807204 0.807204 1.101986 128 128 255 -0.708503 -0.705707 0.000000
0.807204 0.807204 1.102059 128 128 255 -0.708935 -0.705274 0.000000
0.807204 0.807204 1.102130 128 128 255 -0.709392 -0.704814 0.000000
0.807204 0.807204 1.102195 128 128 255 -0.709915 -0.704287 0.000000
0.807204 0.807204 1.102256 128 128 255 -0.710536 -0.703661 0.000000
0.807204 0.807204 1.102311 128 128 255 -0.711248 -0.702941 0.000000
0.807204 0.807204 1.102360 128 128 255 -0.712229 -0.701948 0.000000
0.807204 0.807204 1.102402 128 128 255 -0.713461 -0.700695 0.000000
0.807204 0.807204 1.102437 128 128 255 -0.715319 -0.698798 0.000000
0.807204 0.807204 1.102464 128 128 255 -0.718253 -0.695782 0.000000
0.807204 0.807204 1.102484 128 128 255 -0.724129 -0.689665 0.000000
0.807204 0.807204 1.102496 128 128 255 -0.740867 -0.671652 0.000000
0.807204 0.807204 1.102500 128 128 255 -0.707107 0.707107 0.000000
0.807204 0.807204 1.102496 128 128 255 0.671652 0.740867 0.000000
0.807204 0.807204 1.102484 128 128 255 0.689665 0.724129 0.000000
0.807204 0.807204 1.102464 128 128 255 0.695782 0.718253 0.000000
0.807204 0.807204 1.102437 128 128 255 0.698798 0.715319 0.000000
0.807204 0.807204 1.102402 128 128 255 0.700695 0.713461 0.000000
0.807204 0.807204 1.102360 128 128 255 0.701948 0.712229 0.000000
0.807204 0.807204 1.102311 128 128 255 0.702941 0.711248 0.000000
0.807204 0.807204 1.102256 128 128 255 0.703661 0.710536 0.000000
0.807204 0.807204 1.102195 128 128 255 0.704287 0.709915 0.000000
0.807204 0.807204 1.102130 128 128 255 0.704814 0.709392 0.000000
0.807204 0.807204 1.102059 128 128 255 0.705274 0.708935 0.000000
0.807204 0.807204 1.101986 128 128 255 0.729168 0.684335 0.000000
0.931806 -0.455795 0.101909 128 128 255 0.849477 -0.527626 0.000000
0.931806 -0.455795 0.101829 128 128 255 0.832004 -0.554769 0.000000
0.931806 -0.455795 0.101748 128 128 255 0.831734 -0.555175 0.000000
0.931806 -0.455795 0.101667 128 128 255 0.831470 -0.555570 0.000000
0.931806 -0.455795 0.101585 128 128 255 0.831205 -0.555965 0.000000
0.931806 -0.455795 0.101504 128 128 255 0.830934 -0.556371 0.000000
0.931806 -0.455795 0.101425 128 128 255 0.830654 -0.556789 0.000000
0.931806 -0.455795 0.101348 128 128 255 0.830353 -0.557237 0.000000
0.931806 -0.455795 0.101274 128 128 255 0.830031 -0.557717 0.000000
0.931806 -0.455795 0.101204 128 128 255 0.829669 -0.558256 0.000000
0.931806 -0.455795 0.101138 128 128 255 0.829258 -0.558867 0.000000
0.931806 -0.455795 0.101077 128 128 255 0.828770 -0.559589 0.000000
0.931806 -0.455795 0.101022 128 128 255 0.828180 -0.560463 0.000000
0.931806 -0.455795 0.100974 128 128 255 0.827425 -0.561576 0.000000
0.931806 -0.455795 0.100932 128 128 255 0.826408 -0.563072 0.000000
0.931806 -0.455795 0.100897 128 128 255 0.824924 -0.565244 0.000000
0.931806 -0.455795 0.100869 128 128 255 0.822505 -0.568758 0.000000
0.931806 -0.455795 0.100849 128 128 255 0.817710 -0.575630 0.000000
0.931806 -0.455795 0.100837 128 128 255 0.803214 -0.595690 0.000000
0.931806 -0.455795 0.100833 128 128 255 -0.555571 -0.831469 0.000000
0.931806 -0.455795 0.100837 128 128 255 -0.857723 0.514112 0.000000
0.931806 -0.455795 0.100849 128 128 255 -0.844737 0.535182 0.000000
0.931806 -0.455795 0.100869 128 128 255 -0.840223 0.542241 0.000000
0.931806 -0.455795 0.100897 128 128 255 -0.837902 0.545820 0.000000
0.931806 -0.455795 0.100932 128 128 255 -0.836463 0.548023 0.000000
0.931806 -0.455795 0.100974 128 128 255 -0.835471 0.549535 0.000000
0.931806 -0.455795 0.101022 128 128 255 -0.834731 0.550658 0.000000
0.931806 -0.455795 0.101077 128 128 255 -0.834150 0.551538 0.000000
0.931806 -0.455795 0.101138 128 128 255 -0.833669 0.552265 0.000000
0.931806 -0.455795 0.101204 128 128 255 -0.833262 0.552878 0.000000
0.931806 -0.455795 0.101274 128 128 255 -0.832902 0.553420 0.000000
0.931806 -0.455795 0.101348 128 128 255 -0.885161 0.093591 -0.455775
0.655646 0.931583 1.101425 128 128 255 -0.782273 -0.425139 0.455309
0.655646 0.931583 1.101504 128 128 255 -0.554775 -0.832000 0.000000
0.655646 0.931583 1.101585 128 128 255 -0.555169 -0.831738 0.000000
0.655646 0.931583 1.101667 128 128 255 -0.555570 -0.831470 0.000000
0.655646 0.931583 1.101748 128 128 255 -0.555972 -0.831201 0.000000
0.655646 0.931583 1.101829 128 128 255 -0.556365 -0.830938 0.000000
0.655646 0.931583 1.101909 128 128 255 -0.556802 -0.830645 0.000000
0.655646 0.931583 1.101986 128 128 255 -0.557213 -0.830370 0.000000
0.655646 0.931583 1.102059 128 128 255 -0.557720 -0.830029 0.000000
0.655646 0.931583 1.102130 128 128 255 -0.558259 -0.829667 0.000000
0.655646 0.931583 1.102195 128 128 255 -0.558875 -0.829252 0.000000
0.655646 0.931583 1.102256 128 128 255 -0.559606 -0.828759 0.000000
0.655646 0.931583 1.102311 128 128 255 -0.560445 -0.828192 0.000000
0.655646 0.931583 1.102360 128 128 255 -0.561600 -0.827409 0.000000
0.655646 0.931583 1.102402 128 128 255 -0.563054 -0.826420 0.000000
0.655646 0.931583 1.102437 128 128 255 -0.565246 -0.824922 0.000000
0.655646 0.931583 1.102464 128 128 255 -0.568711 -0.822537 0.000000
0.655646 0.931583 1.102484 128 128 255 -0.575668 -0.817684 0.000000
0.655646 0.931583 1.102496 128 128 255 -0.595598 -0.803282 0.000000
0.655646 0.931583 1.102500 128 128 255 -0.831469 0.555570 0.000000
0.655646 0.931583 1.102496 128 128 255 0.514211 0.857664 0.000000
0.655646 0.931583 1.102484 128 128 255 0.535143 0.844762 0.000000
0.655646 0.931583 1.102464 128 128 255 0.542289 0.840192 0.000000
0.655646 0.931583 1.102437 128 128 255 0.545819 0.837903 0.000000
0.655646 0.931583 1.102402 128 128 255 0.548041 0.836451 0.000000
0.655646 0.931583 1.102360 128 128 255 0.549511 0.835487 0.000000
0.655646 0.931583 1.102311 128 128 255 0.550677 0.834719 0.000000
0.655646 0.931583 1.102256 128 128 255 0.551521 0.834161 0.000000
0.655646 0.931583 1.102195 128 128 255 0.552257 0.833674 0.000000
0.655646 0.931583 1.102130 128 128 255 0.552876 0.833264 0.000000
0.655646 0.931583 1.102059 128 128 255 0.553416 0.832905 0.000000
0.655646 0.931583 1.101986 128 128 255 0.553925 0.832566 0.000000
0.655646 0.931583 1.101909 128 128 255 0.581829 0.813311 0.000000
1.024253 -0.282838 0.101829 128 128 255 0.936014 -0.351963 0.000000
1.024253 -0.282838 0.101748 128 128 255 0.924061 -0.382244 0.000000
