ply
format ascii 1.0
element vertex 691
property float x
property float y
property float z
property uchar red
property uchar green
property uchar blue
property float nx
property float ny
property float nz
end_header
-0.288251 -0.288251 0.152433 128 128 255 0.693411 0.248573 -0.676309
-0.184433 -0.392653 0.202370 128 128 255 0.599317 0.425521 -0.678049
-0.052455 -0.468969 0.252306 128 128 255 0.461594 0.570075 -0.679666
0.100000 -0.509595 0.302241 128 128 255 0.290699 0.671939 -0.681169
0.263195 -0.509050 0.352176 128 128 255 0.099380 0.724032 -0.682570
0.425933 -0.464533 0.402112 128 128 255 -0.098275 0.722948 -0.683877
0.576302 -0.376302 0.452051 128 128 255 -0.287859 0.669163 -0.685097
0.702510 -0.247859 0.501992 128 128 255 -0.455688 0.566944 -0.686238
0.793775 -0.085896 0.551938 128 128 255 -0.589769 0.424008 -0.687306
0.841189 0.100000 0.601888 128 128 255 -0.680639 0.250928 -0.688306
0.838493 0.297879 0.651844 128 128 255 -0.722012 0.060355 -0.689243
0.782705 0.494160 0.701806 128 128 255 -0.711196 -0.133912 -0.690122
0.674541 0.674541 0.751776 128 128 255 -0.649250 -0.317912 -0.690946
0.518579 0.825000 0.801754 128 128 255 -0.540876 -0.478516 -0.691720
0.323162 0.932853 0.851741 128 128 255 -0.394052 -0.604352 -0.692446
0.100000 0.987754 0.901737 128 128 255 -0.219440 -0.686600 -0.693128
-0.136491 0.982595 0.951744 128 128 255 -0.029611 -0.719590 -0.693768
-0.370083 0.914207 1.001762 128 128 255 0.161858 -0.701180 -0.694369
-0.583823 0.783823 1.051791 128 128 255 0.341352 -0.632887 -0.694934
-0.761226 0.597229 1.101832 128 128 255 0.496176 -0.519748 -0.695465
-0.887496 0.364599 1.151886 128 128 255 0.615446 -0.369948 -0.695963
-0.950703 0.100000 1.201952 128 128 255 0.690842 -0.194218 -0.696431
-0.942798 -0.179417 1.252031 128 128 255 0.717179 -0.005069 -0.696871
-0.860409 -0.454492 1.302124 128 128 255 0.692750 0.184097 -0.697285
-0.705336 -0.705336 1.352231 128 128 255 0.619432 0.359938 -0.697674
-0.484696 -0.912724 1.402351 128 128 255 0.502532 0.510100 -0.698040
-0.210693 -1.059522 1.452485 128 128 255 0.350397 0.624083 -0.698386
0.100000 -1.132028 1.502633 128 128 255 0.173818 0.693966 -0.698712
0.427203 -1.121138 1.552795 128 128 255 -0.014738 0.714949 -0.699021
0.748500 -1.023235 1.602970 128 128 255 -0.202009 0.685676 -0.699315
1.040733 -0.840733 1.653158 128 128 255 -0.374863 0.608313 -0.699595
1.281625 -0.582211 1.703360 128 128 255 -0.521221 0.488387 -0.699863
1.451418 -0.262111 1.753574 128 128 255 -0.630889 0.334381 -0.700120
1.534417 0.100000 1.803801 128 128 255 -0.696269 0.157140 -0.700369
1.520314 0.480572 1.854040 128 128 255 -0.712874 -0.030901 -0.700611
1.405193 0.853553 1.904290 128 128 255 -0.679635 -0.216587 -0.700847
1.192127 1.192127 1.954552 128 128 255 -0.598961 -0.386957 -0.701078
0.891307 1.470584 2.004825 128 128 255 -0.476560 -0.530152 -0.701306
0.519665 1.666211 2.055109 128 128 255 -0.321036 -0.636231 -0.701531
0.100000 1.761057 2.105402 128 128 255 -0.143279 -0.697862 -0.701755
-0.340359 1.743441 2.155705 128 128 255 0.044296 -0.710820 -0.701978
-0.771274 1.609091 2.206017 128 128 255 0.228620 -0.674276 -0.702200
-1.161810 1.361810 2.256337 128 128 255 0.396872 -0.590842 -0.702423
-1.482391 1.013594 2.306665 128 128 255 0.537376 -0.466387 -0.702646
-1.706973 0.584177 2.357000 128 128 255 0.640402 -0.309614 -0.702869
-1.815063 0.100000 2.407341 128 128 255 0.698842 -0.131459 -0.703092
-1.793444 -0.407347 2.457688 128 128 255 0.708694 0.055680 -0.703315
-1.637460 -0.903123 2.508039 128 128 255 0.669335 0.238801 -0.703538
-1.351758 -1.351758 2.558394 128 128 255 0.583554 0.405203 -0.703758
-0.950396 -1.719339 2.608752 128 128 255 0.457355 0.543363 -0.703977
-0.456290 -1.976102 2.659112 128 128 255 0.299536 0.643734 -0.704191
0.100000 -2.098740 2.709473 128 128 255 0.121068 0.699403 -0.704399
0.682084 -2.072366 2.759835 128 128 255 -0.065662 0.706560 -0.704600
1.250059 -1.891960 2.810195 128 128 255 -0.247712 0.664760 -0.704793
1.763185 -1.563185 2.860554 128 128 255 -0.412485 0.576947 -0.704974
2.182743 -1.102472 2.910911 128 128 255 -0.548594 0.449241 -0.705143
2.474881 -0.536347 2.961264 128 128 255 -0.646650 0.290517 -0.705297
2.613242 0.100000 3.011613 128 128 255 -0.699906 0.111777 -0.705434
2.581177 0.764829 3.061957 128 128 255 -0.704720 -0.074605 -0.705552
2.373356 1.412522 3.112295 128 128 255 -0.660797 -0.255743 -0.705651
1.996656 1.996656 3.162625 128 128 255 -0.571210 -0.419127 -0.705727
1.470204 2.473263 3.212949 128 128 255 -0.442178 -0.553489 -0.705782
0.824552 2.804063 3.263263 128 128 255 -0.282635 -0.649573 -0.705813
0.100000 2.959425 3.313569 128 128 255 -0.103609 -0.700772 -0.705822
-0.655841 2.920838 3.363865 128 128 255 0.082536 -0.703580 -0.705807
-1.391120 2.682695 3.414150 128 128 255 0.262962 -0.657829 -0.705771
-2.053233 2.253233 3.464424 128 128 255 0.425232 -0.566697 -0.705714
-2.592520 1.654527 3.514687 128 128 255 0.558170 -0.436485 -0.705640
-2.965889 0.921503 3.564937 128 128 255 0.652628 -0.276181 -0.705550
-3.140137 0.100000 3.615175 128 128 255 0.702114 -0.096838 -0.705449
-3.094685 -0.756013 3.665400 128 128 255 0.703236 0.089188 -0.705340
-2.823549 -1.587912 3.715612 128 128 255 0.655932 0.269086 -0.705228
-2.336346 -2.336346 3.765810 128 128 255 0.563472 0.430476 -0.705117
-1.658252 -2.945382 3.815994 128 128 255 0.432232 0.562257 -0.705012
-0.828863 -3.366563 3.866164 128 128 255 0.271253 0.655372 -0.704918
0.100000 -3.562606 3.916321 128 128 255 0.091616 0.703425 -0.704840
1.067420 -3.510462 3.966463 128 128 255 -0.094320 0.703126 -0.704782
2.007280 -3.203506 4.016591 128 128 255 -0.273768 0.654509 -0.704748
2.852668 -2.652668 4.066705 128 128 255 -0.434394 0.560932 -0.704739
3.540518 -1.886384 4.116806 128 128 255 -0.565164 0.428841 -0.704759
4.016171 -0.949335 4.166893 128 128 255 -0.657103 0.267326 -0.704807
4.237543 0.100000 4.216966 128 128 255 -0.714232 0.184122 -0.675257
0.545211 0.100000 -0.721927 128 128 255 -0.523110 0.287170 -0.802427
0.544862 0.219200 -0.672274 128 128 255 -0.586761 0.230065 -0.776390
0.512390 0.338093 -0.622634 128 128 255 -0.623551 0.060950 -0.779403
0.447975 0.447975 -0.573005 128 128 255 -0.613112 -0.110552 -0.782222
0.354166 0.540228 -0.523386 128 128 255 -0.556945 -0.271673 -0.784861
0.235843 0.606972 -0.473778 128 128 255 -0.459881 -0.410632 -0.787332
0.100000 0.641689 -0.424180 128 128 255 -0.329670 -0.517470 -0.789647
-0.044638 0.639795 -0.374591 128 128 255 -0.176364 -0.584740 -0.791817
-0.188152 0.599095 -0.325010 128 128 255 -0.011546 -0.608001 -0.793852
-0.320092 0.520092 -0.275436 128 128 255 0.152535 -0.586087 -0.795761
-0.430206 0.406114 -0.225869 128 128 255 0.303855 -0.521137 -0.797552
-0.509206 0.263236 -0.176307 128 128 255 0.431485 -0.418390 -0.799232
-0.549511 0.100000 -0.126751 128 128 255 0.526355 -0.285757 -0.800808
-0.545893 -0.073067 -0.077198 128 128 255 0.581882 -0.133217 -0.802288
-0.496001 -0.244101 -0.027648 128 128 255 0.594408 0.027929 -0.803678
-0.400696 -0.400696 0.021899 128 128 255 0.563423 0.185887 -0.804985
-0.264174 -0.530768 0.071445 128 128 255 0.491564 0.329221 -0.806213
-0.093850 -0.623459 0.120991 128 128 255 0.384384 0.447666 -0.807368
0.100000 -0.669991 0.170538 128 128 255 0.249929 0.532854 -0.808457
0.304826 -0.664421 0.220086 128 128 255 0.098126 0.578887 -0.809482
0.506586 -0.604228 0.269636 128 128 255 -0.059941 0.582734 -0.810449
0.690683 -0.490683 0.319190 128 128 255 -0.212836 0.544419 -0.811362
0.842989 -0.328965 0.368749 128 128 255 -0.349591 0.466988 -0.812224
0.950896 -0.127997 0.418312 128 128 255 -0.460483 0.356262 -0.813039
1.004303 0.100000 0.467882 128 128 255 -0.537716 0.220398 -0.813810
0.996484 0.340212 0.517459 128 128 255 -0.575956 0.069286 -0.814539
0.924746 0.576167 0.567043 128 128 255 -0.572691 -0.086166 -0.815230
0.790834 0.790834 0.616636 128 128 255 -0.528386 -0.234820 -0.815885
0.601035 0.967818 0.666238 128 128 255 -0.446423 -0.366094 -0.816506
0.365960 1.092578 0.715850 128 128 255 -0.332843 -0.470713 -0.817095
0.100000 1.153561 0.765472 128 128 255 -0.195893 -0.541355 -0.817656
-0.179520 1.143182 0.815106 128 128 255 -0.045433 -0.573152 -0.818188
-0.453432 1.058573 0.864751 128 128 255 0.107780 -0.564022 -0.818696
-0.702012 0.902012 0.914409 128 128 255 0.252852 -0.514791 -0.819180
-0.906362 0.681024 0.964079 128 128 255 0.379526 -0.429123 -0.819642
-1.049805 0.408089 1.013762 128 128 255 0.478898 -0.313238 -0.820084
-1.119184 0.100000 1.063458 128 128 255 0.544040 -0.175460 -0.820508
-1.105968 -0.223138 1.113168 128 128 255 0.570475 -0.025617 -0.820916
-1.007090 -0.539179 1.162892 128 128 255 0.556475 0.125655 -0.821308
-0.825417 -0.825417 1.212630 128 128 255 0.503174 0.267671 -0.821686
-0.569831 -1.060182 1.262381 128 128 255 0.414467 0.390445 -0.822052
-0.254879 -1.224426 1.312147 128 128 255 0.296725 0.485387 -0.822407
0.100000 -1.303202 1.361926 128 128 255 0.158334 0.545901 -0.822753
0.471624 -1.286918 1.411719 128 128 255 0.009098 0.567838 -0.823090
0.834543 -1.172266 1.461526 128 128 255 -0.140458 0.549773 -0.823420
1.162742 -0.962742 1.511346 128 128 255 -0.279824 0.493097 -0.823744
1.431456 -0.668716 1.561179 128 128 255 -0.399248 0.401900 -0.824062
1.618985 -0.307011 1.611024 128 128 255 -0.490406 0.282679 -0.824375
1.708366 0.100000 1.660882 128 128 255 -0.546990 0.143868 -0.824684
1.688795 0.525716 1.710752 128 128 255 -0.565128 -0.004753 -0.824990
1.556664 0.941005 1.760633 128 128 255 -0.543654 -0.152757 -0.825292
1.316145 1.316145 1.810525 128 128 255 -0.484173 -0.289790 -0.825590
0.979245 1.622898 1.860427 128 128 255 -0.390940 -0.406301 -0.825884
0.565313 1.836572 1.910340 128 128 255 -0.270553 -0.494203 -0.826175
0.100000 1.937925 1.960261 128 128 255 -0.131483 -0.547426 -0.826461
-0.386265 1.914767 2.010191 128 128 255 0.016524 -0.562339 -0.826741
-0.860212 1.763136 2.060129 128 128 255 0.163125 -0.537991 -0.827016
-1.287948 1.487948 2.110074 128 128 255 0.298108 -0.476166 -0.827283
-1.637322 1.103044 2.160026 128 128 255 0.412095 -0.381249 -0.827543
-1.880275 0.630613 2.209983 128 128 255 0.497195 -0.259917 -0.827792
-1.994997 0.100000 2.259945 128 128 255 0.547544 -0.120663 -0.828031
-1.967748 -0.454051 2.309911 128 128 255 0.559706 0.026793 -0.828258
-1.794187 -0.993609 2.359881 128 128 255 0.532904 0.172189 -0.828471
-1.480092 -1.480092 2.409853 128 128 255 0.469066 0.305425 -0.828669
-1.041401 -1.876964 2.459826 128 128 255 0.372684 0.417269 -0.828850
-0.503531 -2.152408 2.509800 128 128 255 0.250497 0.499988 -0.829014
0.100000 -2.281777 2.559774 128 128 255 0.111018 0.547880 -0.829158
0.729588 -2.249656 2.609746 128 128 255 -0.036056 0.557667 -0.829281
1.342082 -2.051348 2.659716 128 128 255 -0.180517 0.528712 -0.829384
1.893675 -1.693675 2.709683 128 128 255 -0.312354 0.463061 -0.829464
2.342982 -1.194986 2.759647 128 128 255 -0.422438 0.365295 -0.829521
2.654067 -0.584360 2.809605 128 128 255 -0.503159 0.242212 -0.829556
2.799220 0.100000 2.859558 128 128 255 -0.548942 0.102356 -0.829570
2.761261 0.813083 2.909504 128 128 255 -0.556633 -0.044578 -0.829561
2.535205 1.505966 2.959443 128 128 255 -0.525716 -0.188410 -0.829533
2.129117 2.129117 3.009373 128 128 255 -0.458341 -0.319180 -0.829486
1.564084 2.635868 3.059295 128 128 255 -0.359184 -0.427836 -0.829424
0.873257 2.985834 3.109208 128 128 255 -0.235114 -0.506857 -0.829348
0.100000 3.148023 3.159110 128 128 255 -0.094726 -0.550774 -0.829262
-0.704760 3.103404 3.209001 128 128 255 0.052258 -0.556549 -0.829169
-1.485825 2.846729 3.258881 128 128 255 0.195662 -0.523786 -0.829075
-2.187449 2.387449 3.308749 128 128 255 0.325556 -0.454754 -0.828983
-2.757246 1.749632 3.358605 128 128 255 0.432948 -0.354239 -0.828897
-3.150006 0.970837 3.408448 128 128 255 0.510408 -0.229205 -0.828824
-3.331155 0.100000 3.458277 128 128 255 0.552582 -0.088313 -0.828767
-3.279594 -0.805559 3.508094 128 128 255 0.556563 0.058677 -0.828731
-2.989700 -1.683839 3.557896 128 128 255 0.522097 0.201591 -0.828720
-2.472317 -2.472317 3.607685 128 128 255 0.451592 0.330545 -0.828737
-1.754624 -3.112303 3.657460 128 128 255 0.349954 0.436632 -0.828785
-0.878870 -3.553192 3.707220 128 128 255 0.224240 0.512541 -0.828866
0.100000 -3.756307 3.756967 128 128 255 0.083162 0.553062 -0.828979
1.117686 -3.698055 3.806699 128 128 255 -0.063518 0.555445 -0.829124
2.104650 -3.372156 3.856418 128 128 255 -0.205674 0.519579 -0.829298
2.990758 -2.790758 3.906123 128 128 255 -0.333513 0.447998 -0.829498
3.710135 -1.984312 3.955814 128 128 255 -0.438256 0.345690 -0.829717
4.205918 -1.000178 4.005492 128 128 255 -0.512735 0.219748 -0.829948
4.434580 0.100000 4.055157 128 128 255 -0.570030 0.156160 -0.806647
0.718227 0.100000 -0.814523 128 128 255 -0.359687 0.231554 -0.903885
0.712526 0.264126 -0.765177 128 128 255 -0.422509 0.191985 -0.885793
0.663199 0.425163 -0.715842 128 128 255 -0.455518 0.070341 -0.887444
0.571507 0.571507 -0.666518 128 128 255 -0.454594 -0.054770 -0.889013
0.441797 0.692009 -0.617204 128 128 255 -0.420316 -0.174167 -0.890505
0.281349 0.776802 -0.567899 128 128 255 -0.355668 -0.279232 -0.891925
0.100000 0.818069 -0.518603 128 128 255 -0.265787 -0.362515 -0.893275
-0.090432 0.810703 -0.469314 128 128 255 -0.157558 -0.418257 -0.894559
-0.276898 0.752807 -0.420033 128 128 255 -0.039091 -0.442772 -0.895782
-0.445989 0.645989 -0.370758 128 128 255 0.080880 -0.434682 -0.896945
-0.584873 0.495412 -0.321488 128 128 255 0.193634 -0.394980 -0.898052
-0.682244 0.309602 -0.272222 128 128 255 0.291085 -0.326924 -0.899105
-0.729195 0.100000 -0.222960 128 128 255 0.366357 -0.235772 -0.900108
-0.719975 -0.119712 -0.173701 128 128 255 0.414253 -0.128377 -0.901062
-0.652541 -0.334479 -0.124444 128 128 255 0.431611 -0.012679 -0.901971
-0.528885 -0.528885 -0.075187 128 128 255 0.417496 0.102882 -0.902836
-0.355080 -0.688222 -0.025930 128 128 255 0.373247 0.209968 -0.903659
-0.141041 -0.799579 0.023328 128 128 255 0.302349 0.300944 -0.904443
0.100000 -0.852841 0.072588 128 128 255 0.210160 0.369409 -0.905190
0.352284 -0.841536 0.121851 128 128 255 0.103509 0.410642 -0.905902
0.598522 -0.763466 0.171118 128 128 255 -0.009806 0.421918 -0.906581
0.821058 -0.621058 0.220390 128 128 255 -0.121587 0.402683 -0.907228
1.003102 -0.421406 0.269667 128 128 255 -0.223822 0.354570 -0.907846
1.129962 -0.175978 0.318950 128 128 255 -0.309253 0.281261 -0.908435
1.190186 0.100000 0.368241 128 128 255 -0.371887 0.188206 -0.908999
1.176513 0.388451 0.417540 128 128 255 -0.407409 0.082216 -0.909537
1.086585 0.669605 0.466848 128 128 255 -0.413475 -0.029030 -0.910053
0.923324 0.923324 0.516165 128 128 255 -0.389856 -0.137541 -0.910546
0.694967 1.130513 0.565493 128 128 255 -0.338444 -0.235582 -0.911020
0.414711 1.274518 0.614831 128 128 255 -0.263092 -0.316224 -0.911474
0.100000 1.342413 0.664181 128 128 255 -0.169329 -0.373827 -0.911910
-0.228527 1.326079 0.713543 128 128 255 -0.063953 -0.404429 -0.912331
-0.548354 1.222983 0.762917 128 128 255 0.045460 -0.406013 -0.912736
-0.836605 1.036605 0.812304 128 128 255 0.151100 -0.378639 -0.913127
-1.071638 0.776445 0.861704 128 128 255 0.245477 -0.324421 -0.913505
-1.234633 0.457614 0.911118 128 128 255 0.321948 -0.247360 -0.913872
-1.311038 0.100000 0.960545 128 128 255 0.375181 -0.153056 -0.914228
-1.291779 -0.272926 1.009986 128 128 255 0.401524 -0.048290 -0.914575
-1.174131 -0.635620 1.059441 128 128 255 0.399250 0.059454 -0.914912
-0.962174 -0.962174 1.108911 128 128 255 0.368668 0.162527 -0.915242
-0.666796 -1.228130 1.158394 128 128 255 0.312086 0.253658 -0.915566
-0.305210 -1.412262 1.207891 128 128 255 0.233635 0.326457 -0.915882
0.100000 -1.498205 1.257402 128 128 255 0.138968 0.375869 -0.916194
0.522236 -1.475805 1.306927 128 128 255 0.034850 0.398514 -0.916500
0.932595 -1.342097 1.356465 128 128 255 -0.071326 0.392922 -0.916801
1.301806 -1.101806 1.406016 128 128 255 -0.172060 0.359618 -0.917099
1.602268 -0.767335 1.455580 128 128 255 -0.260278 0.301077 -0.917392
1.810059 -0.358209 1.505156 128 128 255 -0.329824 0.221535 -0.917681
1.906766 0.100000 1.554744 128 128 255 -0.375884 0.126685 -0.917966
1.881007 0.577219 1.604343 128 128 255 -0.395323 0.023263 -0.918247
1.729516 1.040802 1.653953 128 128 255 -0.386890 -0.081424 -0.918524
1.457707 1.457707 1.703574 128 128 255 -0.351295 -0.180020 -0.918795
1.079651 1.796805 1.753204 128 128 255 -0.291147 -0.265631 -0.919061
0.617447 2.031137 1.802843 128 128 255 -0.210765 -0.332307 -0.919321
0.100000 2.139975 1.852490 128 128 255 -0.115860 -0.375449 -0.919573
-0.438721 2.110535 1.902145 128 128 255 -0.013134 -0.392127 -0.919818
-0.961862 1.939199 1.951806 128 128 255 0.090195 -0.381271 -0.920053
-1.432145 1.632145 2.001474 128 128 255 0.186900 -0.343739 -0.920278
-1.814468 1.205318 2.051147 128 128 255 0.270244 -0.282245 -0.920492
-2.078454 0.683715 2.100824 128 128 255 0.334451 -0.201161 -0.920694
-2.200783 0.100000 2.150505 128 128 255 0.375095 -0.106208 -0.920882
-2.167111 -0.507471 2.200188 128 128 255 0.389410 -0.004049 -0.921056
-1.973451 -1.097108 2.249874 128 128 255 0.376467 0.098172 -0.921214
-1.626878 -1.626878 2.299560 128 128 255 0.337235 0.193331 -0.921355
-1.145483 -2.057241 2.349246 128 128 255 0.274506 0.274813 -0.921480
-0.557554 -2.354025 2.398932 128 128 255 0.192695 0.336969 -0.921586
0.100000 -2.491056 2.448615 128 128 255 0.097532 0.375507 -0.921674
0.783892 -2.452320 2.498296 128 128 255 -0.004338 0.387778 -0.921742
1.447246 -2.233499 2.547973 128 128 255 -0.105817 0.372963 -0.921793
2.042752 -1.842752 2.597646 128 128 255 -0.199843 0.332118 -0.921824
2.525980 -1.300640 2.647314 128 128 255 -0.279879 0.268109 -0.921838
2.858622 -0.639171 2.696975 128 128 255 -0.340363 0.185401 -0.921835
3.011436 0.100000 2.746629 128 128 255 -0.377092 0.089759 -0.921816
2.966662 0.868120 2.796276 128 128 255 -0.387514 -0.012159 -0.921784
2.719723 1.612498 2.845914 128 128 255 -0.370905 -0.113255 -0.921739
2.280061 2.280061 2.895543 128 128 255 -0.328418 -0.206489 -0.921685
1.671015 2.821078 2.945162 128 128 255 -0.263009 -0.285366 -0.921625
0.928709 3.192785 2.994770 128 128 255 -0.179230 -0.344387 -0.921561
0.100000 3.362663 3.044368 128 128 255 -0.082917 -0.379432 -0.921497
-0.760414 3.311107 3.093953 128 128 255 0.019219 -0.388053 -0.921437
-1.593539 3.033295 3.143526 128 128 255 0.120054 -0.369648 -0.921383
-2.340070 2.540070 3.193087 128 128 255 0.212555 -0.325500 -0.921341
-2.944538 1.857765 3.242635 128 128 255 0.290271 -0.258696 -0.921314
-3.359337 1.026927 3.292169 128 128 255 0.347786 -0.173906 -0.921304
-3.548346 0.100000 3.341690 128 128 255 0.381103 -0.077058 -0.921316
-3.489874 -0.861904 3.391197 128 128 255 0.387922 0.025082 -0.921351
-3.178702 -1.792959 3.440690 128 128 255 0.367805 0.125385 -0.921411
-2.627046 -2.627046 3.490169 128 128 255 0.322198 0.216866 -0.921497
-1.864343 -3.302342 3.539634 128 128 255 0.254330 0.293176 -0.921610
-0.935835 -3.765790 3.589084 128 128 255 0.168972 0.349043 -0.921747
0.100000 -3.977101 3.638521 128 128 255 0.072101 0.380643 -0.921907
1.175021 -3.912034 3.687944 128 128 255 -0.029530 0.385856 -0.922086
2.215797 -3.564668 3.737353 128 128 255 -0.128868 0.364406 -0.922280
3.148503 -2.948503 3.786749 128 128 255 -0.219056 0.317866 -0.922484
3.904033 -2.096260 3.836131 128 128 255 -0.293902 0.249530 -0.922689
4.422975 -1.058338 3.885501 128 128 255 -0.348307 0.164179 -0.922891
4.660110 0.100000 3.934859 128 128 255 -0.402826 0.122301 -0.907069
0.905767 0.100000 -0.871640 128 128 255 -0.174850 0.196163 -0.964856
0.894258 0.312821 -0.822488 128 128 255 -0.237650 0.178373 -0.954833
0.826657 0.519536 -0.773347 128 128 255 -0.273953 0.107004 -0.955772
0.705395 0.705395 -0.724215 128 128 255 -0.289680 0.029327 -0.956674
0.536770 0.856508 -0.675093 128 128 255 -0.284113 -0.048932 -0.957541
0.330665 0.960855 -0.625979 128 128 255 -0.258080 -0.122121 -0.958374
0.100000 1.009212 -0.576872 128 128 255 -0.213856 -0.185066 -0.959175
-0.140058 0.995908 -0.527771 128 128 255 -0.154978 -0.233428 -0.959944
-0.373065 0.919372 -0.478677 128 128 255 -0.085964 -0.264001 -0.960684
-0.582407 0.782407 -0.429587 128 128 255 -0.011975 -0.274912 -0.961395
-0.752459 0.592168 -0.380502 128 128 255 0.061570 -0.265733 -0.962078
-0.869726 0.359837 -0.331419 128 128 255 0.129384 -0.237486 -0.962736
-0.923872 0.100000 -0.282339 128 128 255 0.186686 -0.192539 -0.963368
-0.908575 -0.170247 -0.233260 128 128 255 0.229531 -0.134415 -0.963975
-0.822130 -0.432392 -0.184182 128 128 255 0.255080 -0.067519 -0.964560
-0.667755 -0.667755 -0.135102 128 128 255 0.261781 0.003190 -0.965122
-0.453558 -0.858790 -0.086022 128 128 255 0.249459 0.072565 -0.965663
-0.192162 -0.990362 -0.036938 128 128 255 0.219301 0.135636 -0.966183
0.100000 -1.050908 0.012148 128 128 255 0.173754 0.187966 -0.966684
0.403689 -1.033384 0.061239 128 128 255 0.116328 0.225959 -0.967166
0.698103 -0.935944 0.110335 128 128 255 0.051326 0.247097 -0.967630
0.962269 -0.762269 0.159437 128 128 255 -0.016469 0.250110 -0.968077
1.176514 -0.521526 0.208546 128 128 255 -0.082147 0.235040 -0.968508
1.323896 -0.227942 0.257662 128 128 255 -0.141022 0.203224 -0.968924
1.391493 0.100000 0.306787 128 128 255 -0.188960 0.157179 -0.969324
1.371474 0.440691 0.355921 128 128 255 -0.222670 0.100400 -0.969710
1.261842 0.770790 0.405065 128 128 255 -0.239921 0.037105 -0.970083
1.066796 1.066796 0.454220 128 128 255 -0.239690 -0.028083 -0.970443
0.796682 1.306689 0.503385 128 128 255 -0.222217 -0.090464 -0.970791
0.467501 1.471531 0.552562 128 128 255 -0.188970 -0.145604 -0.971128
0.100000 1.546911 0.601752 128 128 255 -0.142526 -0.189641 -0.971454
-0.281594 1.524128 0.650954 128 128 255 -0.086370 -0.219554 -0.971770
-0.651143 1.401019 0.700169 128 128 255 -0.024639 -0.233371 -0.972076
-0.982357 1.182357 0.749397 128 128 255 0.038186 -0.230290 -0.972372
-1.250626 0.879784 0.798639 128 128 255 0.097598 -0.210727 -0.972661
-1.434809 0.511251 0.847895 128 128 255 0.149388 -0.176265 -0.972941
-1.518844 0.100000 0.897165 128 128 255 0.189938 -0.129533 -0.973214
-1.493061 -0.326859 0.946449 128 128 255 0.216476 -0.074005 -0.973479
-1.355101 -0.740103 0.995747 128 128 255 0.227258 -0.013740 -0.973738
-1.110356 -1.110356 1.045059 128 128 255 0.221683 0.046912 -0.973990
-0.771880 -1.410140 1.094385 128 128 255 0.200319 0.103620 -0.974236
-0.359764 -1.615864 1.143725 128 128 255 0.164852 0.152382 -0.974476
0.100000 -1.709616 1.193079 128 128 255 0.117954 0.189806 -0.974711
0.577118 -1.680630 1.242446 128 128 255 0.063079 0.213340 -0.974940
1.038945 -1.526301 1.291826 128 128 255 0.004210 0.221446 -0.975164
1.452676 -1.252676 1.341218 128 128 255 -0.054425 0.213700 -0.975382
1.787627 -0.874352 1.390623 128 128 255 -0.108662 0.190803 -0.975596
2.017459 -0.413782 1.440040 128 128 255 -0.154688 0.154526 -0.975804
2.122175 0.100000 1.489468 128 128 255 -0.189314 0.107569 -0.976007
2.089753 0.633153 1.538907 128 128 255 -0.210185 0.053359 -0.976205
1.917286 1.149210 1.588355 128 128 255 -0.215944 -0.004194 -0.976397
1.611524 1.611524 1.637813 128 128 255 -0.206317 -0.060983 -0.976583
1.188775 1.985813 1.687280 128 128 255 -0.182115 -0.112993 -0.976763
0.674119 2.242643 1.736755 128 128 255 -0.145171 -0.156582 -0.976938
0.100000 2.359661 1.786237 128 128 255 -0.098202 -0.188736 -0.977105
-0.495766 2.323427 1.835725 128 128 255 -0.044605 -0.207270 -0.977266
-1.072419 2.130689 1.885219 128 128 255 0.011782 -0.210976 -0.977420
-1.588994 1.788994 1.934718 128 128 255 0.066959 -0.199700 -0.977566
-2.007169 1.316574 1.984221 128 128 255 0.117040 -0.174340 -0.977705
-2.294043 0.741482 2.033726 128 128 255 0.158523 -0.136778 -0.977835
-2.424643 0.100000 2.083235 128 128 255 0.188537 -0.089737 -0.977957
-2.383969 -0.565577 2.132744 128 128 255 0.205033 -0.036590 -0.978071
-2.168424 -1.209675 2.182254 128 128 255 0.206920 0.018886 -0.978176
-1.786501 -1.786501 2.231763 128 128 255 0.194140 0.072768 -0.978271
-1.258644 -2.253240 2.281271 128 128 255 0.167660 0.121268 -0.978358
-0.616274 -2.573171 2.330776 128 128 255 0.129405 0.160992 -0.978435
0.100000 -2.718461 2.380279 128 128 255 0.082115 0.189174 -0.978504
0.842878 -2.672459 2.429777 128 128 255 0.029152 0.203868 -0.978564
1.561436 -2.431281 2.479270 128 128 255 -0.025732 0.204080 -0.978616
2.204557 -2.004557 2.528757 128 128 255 -0.078663 0.189835 -0.978660
2.724516 -1.415265 2.578238 128 128 255 -0.125915 0.162172 -0.978696
3.080447 -0.698608 2.627712 128 128 255 -0.164165 0.123069 -0.978726
3.241466 0.100000 2.677177 128 128 255 -0.190731 0.075307 -0.978749
3.189206 0.927750 2.726633 128 128 255 -0.203756 0.022273 -0.978768
2.919557 1.727872 2.776080 128 128 255 -0.202340 -0.032279 -0.978783
2.443470 2.443470 2.825516 128 128 255 -0.186601 -0.084493 -0.978796
1.786737 3.021513 2.874941 128 128 255 -0.157672 -0.130679 -0.978807
0.988703 3.416684 2.924355 128 128 255 -0.117617 -0.167577 -0.978818
0.100000 3.594827 2.973757 128 128 255 -0.069285 -0.192591 -0.978830
-0.820603 3.535736 3.023147 128 128 255 -0.016112 -0.203966 -0.978845
-1.710023 3.235051 3.072523 128 128 255 0.038129 -0.200924 -0.978865
-2.505122 2.705122 3.121887 128 128 255 0.089596 -0.183708 -0.978889
-3.147110 1.974720 3.171237 128 128 255 0.134651 -0.153572 -0.978920
-3.585799 1.087607 3.220573 128 128 255 0.170124 -0.112686 -0.978958
-3.783389 0.100000 3.269895 128 128 255 0.193539 -0.063974 -0.979005
-3.717535 -0.922906 3.319204 128 128 255 0.203282 -0.010907 -0.979059
-3.383430 -1.911159 3.368498 128 128 255 0.198725 0.042751 -0.979122
-2.794748 -2.794748 3.417778 128 128 255 0.180253 0.093216 -0.979193
-1.983339 -3.508450 3.467043 128 128 255 0.149234 0.136954 -0.979272
-0.997660 -3.996522 3.516295 128 128 255 0.107912 0.170930 -0.979356
0.100000 -4.216901 3.565533 128 128 255 0.059240 0.192818 -0.979445
1.237336 -4.144597 3.614758 128 128 255 0.006659 0.201157 -0.979536
2.336678 -3.774040 3.663970 128 128 255 -0.046142 0.195446 -0.979628
3.320169 -3.120169 3.713168 128 128 255 -0.095494 0.176161 -0.979719
4.115155 -2.218151 3.762354 128 128 255 -0.137993 0.144713 -0.979804
4.659409 -1.121690 3.811528 128 128 255 -0.170738 0.103338 -0.979883
4.905842 0.100000 3.860690 128 128 255 -0.219579 0.084408 -0.971936
1.100598 0.100000 -0.891087 128 128 255 0.020278 0.174074 -0.984524
1.083043 0.363406 -0.842011 128 128 255 -0.042619 0.180364 -0.982676
0.996448 0.617565 -0.792944 128 128 255 -0.086490 0.160546 -0.983232
0.844461 0.844461 -0.743886 128 128 255 -0.123130 0.130530 -0.983769
0.635410 1.027357 -0.694836 128 128 255 -0.150298 0.092666 -0.984288
0.381883 1.152002 -0.645792 128 128 255 -0.166468 0.049758 -0.984791
0.100000 1.207709 -0.596755 128 128 255 -0.170900 0.004861 -0.985276
-0.191589 1.188226 -0.547724 128 128 255 -0.163672 -0.038936 -0.985746
-0.472917 1.092321 -0.498696 128 128 255 -0.145645 -0.078717 -0.986200
-0.724043 0.924043 -0.449673 128 128 255 -0.118378 -0.111933 -0.986639
-0.926444 0.692618 -0.400652 128 128 255 -0.084004 -0.136557 -0.987064
-1.064354 0.411988 -0.351633 128 128 255 -0.045063 -0.151205 -0.987475
-1.125955 0.100000 -0.302614 128 128 255 -0.004322 -0.155211 -0.987872
-1.104338 -0.222701 -0.253596 128 128 255 0.035421 -0.148647 -0.988256
-0.998150 -0.534017 -0.204576 128 128 255 0.071525 -0.132290 -0.988627
-0.811883 -0.811883 -0.155555 128 128 255 0.101680 -0.107554 -0.988986
-0.555758 -1.035807 -0.106530 128 128 255 0.124048 -0.076368 -0.989333
-0.245212 -1.188350 -0.057502 128 128 255 0.137375 -0.041031 -0.989669
0.100000 -1.256446 -0.008469 128 128 255 0.141054 -0.004051 -0.989994
0.457032 -1.232462 0.040569 128 128 255 0.135145 0.032040 -0.990308
0.801433 -1.114918 0.089614 128 128 255 0.120348 0.064847 -0.990611
1.108794 -0.908794 0.138666 128 128 255 0.097940 0.092273 -0.990905
1.356452 -0.625413 0.187726 128 128 255 0.069663 0.112651 -0.991190
1.525126 -0.281861 0.236795 128 128 255 0.037599 0.124837 -0.991465
1.600377 0.100000 0.285874 128 128 255 0.004016 0.128273 -0.991731
1.573778 0.494898 0.334962 128 128 255 -0.028788 0.123007 -0.991988
1.443705 0.875788 0.384062 128 128 255 -0.058642 0.109664 -0.992237
1.215682 1.215682 0.433172 128 128 255 -0.083638 0.089392 -0.992479
0.902243 1.489525 0.482295 128 128 255 -0.102257 0.063766 -0.992712
0.522290 1.676008 0.531430 128 128 255 -0.113454 0.034669 -0.992938
0.100000 1.759175 0.580578 128 128 255 -0.116712 0.004156 -0.993157
-0.336682 1.729721 0.629739 128 128 255 -0.112062 -0.025689 -0.993369
-0.757861 1.585858 0.678914 128 128 255 -0.100063 -0.052890 -0.993574
-1.133702 1.333702 0.728102 128 128 255 -0.081745 -0.075711 -0.993773
-1.436512 0.987105 0.777304 128 128 255 -0.058531 -0.092765 -0.993966
-1.642736 0.566965 0.826521 128 128 255 -0.032124 -0.103092 -0.994153
-1.734737 0.100000 0.875751 128 128 255 -0.004389 -0.106210 -0.994334
-1.702220 -0.382903 0.924996 128 128 255 0.022780 -0.102136 -0.994510
-1.543198 -0.848701 0.974255 128 128 255 0.047586 -0.091366 -0.994680
-1.264411 -1.264411 1.023528 128 128 255 0.068444 -0.074828 -0.994845
-0.881155 -1.599411 1.072815 128 128 255 0.084086 -0.053805 -0.995005
-0.416510 -1.827642 1.122115 128 128 255 0.093626 -0.029841 -0.995160
0.100000 -1.929577 1.171429 128 128 255 0.096619 -0.004629 -0.995311
0.634236 -1.893796 1.220755 128 128 255 0.093068 0.020109 -0.995457
1.149657 -1.718060 1.270095 128 128 255 0.083413 0.042735 -0.995598
1.609776 -1.409776 1.319446 128 128 255 0.068488 0.061803 -0.995736
1.980692 -0.985818 1.368809 128 128 255 0.049455 0.076151 -0.995869
2.233536 -0.471679 1.418183 128 128 255 0.027713 0.084966 -0.995998
2.346649 0.100000 1.467567 128 128 255 0.004798 0.087832 -0.996124
2.307331 0.691453 1.516961 128 128 255 -0.017722 0.084742 -0.996245
2.113037 1.262228 1.566365 128 128 255 -0.038354 0.076087 -0.996363
1.771907 1.771907 1.615776 128 128 255 -0.055779 0.062618 -0.996478
1.302572 2.182915 1.665196 128 128 255 -0.068930 0.045387 -0.996588
0.733225 2.463227 1.714622 128 128 255 -0.077063 0.025661 -0.996696
0.100000 2.588789 1.764054 128 128 255 -0.079789 0.004837 -0.996800
-0.555262 2.545472 1.813492 128 128 255 -0.077094 -0.015659 -0.996901
-1.187725 2.330405 1.862934 128 128 255 -0.069325 -0.034467 -0.996999
-1.752566 1.952566 1.912380 128 128 255 -0.057159 -0.050379 -0.997093
-2.208102 1.432584 1.961828 128 128 255 -0.041547 -0.062421 -0.997185
-2.518800 0.801705 2.011278 128 128 255 -0.023640 -0.069907 -0.997273
-2.657967 0.100000 2.060728 128 128 255 -0.004707 -0.072475 -0.997359
-2.609930 -0.626123 2.110179 128 128 255 0.013952 -0.070104 -0.997442
-2.371514 -1.326929 2.159629 128 128 255 0.031095 -0.063105 -0.997522
-1.952706 -1.952706 2.209076 128 128 255 0.045620 -0.052087 -0.997600
-1.376423 -2.457239 2.258521 128 128 255 0.056632 -0.037913 -0.997675
-0.677363 -2.801159 2.307962 128 128 255 0.063498 -0.021630 -0.997748
0.100000 -2.954930 2.357399 128 128 255 0.065883 -0.004394 -0.997818
0.904186 -2.901263 2.406830 128 128 255 0.063761 0.012609 -0.997886
1.680062 -2.636747 2.456255 128 128 255 0.057412 0.028241 -0.997951
2.372567 -2.172567 2.505673 128 128 255 0.047388 0.041492 -0.998014
2.930568 -1.534229 2.555083 128 128 255 0.034474 0.051541 -0.998076
3.310568 -0.760269 2.604484 128 128 255 0.019626 0.057805 -0.998135
3.480004 0.100000 2.653876 128 128 255 0.003904 0.059975 -0.998192
3.419901 0.989565 2.703258 128 128 255 -0.011606 0.058024 -0.998248
3.126651 1.847438 2.752629 128 128 255 -0.025862 0.052206 -0.998301
2.612783 2.612783 2.801989 128 128 255 -0.037935 0.043029 -0.998353
1.906625 3.229166 2.851338 128 128 255 -0.047072 0.031213 -0.998404
1.050855 3.648639 2.900674 128 128 255 -0.052741 0.017636 -0.998452
0.100000 3.835366 2.949997 128 128 255 -0.054657 0.003273 -0.998500
-0.882975 3.768511 2.999308 128 128 255 -0.052803 -0.010879 -0.998546
-1.830768 3.444189 3.048604 128 128 255 -0.047415 -0.023862 -0.998590
-2.676282 2.876282 3.097888 128 128 255 -0.038965 -0.034828 -0.998633
-3.357288 2.096066 3.147157 128 128 255 -0.028120 -0.043090 -0.998675
-3.820905 1.150603 3.196413 128 128 255 -0.015692 -0.048165 -0.998716
-4.027572 0.100000 3.245654 128 128 255 -0.002574 -0.049804 -0.998756
-3.954227 -0.986327 3.294881 128 128 255 0.010316 -0.047999 -0.998794
-3.596448 -2.034145 3.344094 128 128 255 0.022106 -0.042978 -0.998831
-2.969382 -2.969382 3.393293 128 128 255 0.032025 -0.035182 -0.998868
-2.107352 -3.723246 3.442478 128 128 255 0.039453 -0.025231 -0.998903
-1.062139 -4.237164 3.491649 128 128 255 0.043962 -0.013868 -0.998937
0.100000 -4.467169 3.540807 128 128 255 0.045335 -0.001914 -0.998970
1.302410 -4.387454 3.589952 128 128 255 0.043577 0.009797 -0.999002
2.462967 -3.992779 3.639084 128 128 255 0.038907 0.020478 -0.999033
3.499568 -3.299568 3.688204 128 128 255 0.031733 0.029431 -0.999063
4.335814 -2.345549 3.737312 128 128 255 0.022624 0.036105 -0.999092
4.906507 -1.187900 3.786409 128 128 255 0.012258 0.040117 -0.999120
5.162588 0.100000 3.835495 128 128 255 -0.028532 0.044503 -0.998602
1.295250 0.100000 -0.872125 128 128 255 0.216017 0.160419 -0.963121
1.271641 0.413940 -0.823003 128 128 255 0.153681 0.191492 -0.969388
1.166058 0.715489 -0.773889 128 128 255 0.099954 0.222822 -0.969721
0.983369 0.983369 -0.724782 128 128 255 0.040393 0.239546 -0.970044
0.733930 1.197999 -0.675682 128 128 255 -0.021140 0.240750 -0.970357
0.433034 1.342900 -0.626588 128 128 255 -0.080695 0.226516 -0.970659
0.100000 1.405932 -0.577498 128 128 255 -0.134490 0.197905 -0.970951
-0.243046 1.380263 -0.528413 128 128 255 -0.179146 0.156884 -0.971233
-0.572616 1.265005 -0.479331 128 128 255 -0.211897 0.106191 -0.971506
-0.865451 1.065451 -0.430251 128 128 255 -0.230759 0.049152 -0.971769
-1.100136 0.792899 -0.381173 128 128 255 -0.234652 -0.010532 -0.972022
-1.258641 0.464047 -0.332095 128 128 255 -0.223457 -0.069023 -0.972267
-1.327671 0.100000 -0.283016 128 128 255 -0.198014 -0.122592 -0.972503
-1.299734 -0.275057 -0.233936 128 128 255 -0.160068 -0.167853 -0.972730
-1.173831 -0.635447 -0.184853 128 128 255 -0.112144 -0.201975 -0.972949
-0.955727 -0.955727 -0.135767 128 128 255 -0.057385 -0.222860 -0.973160
-0.657754 -1.212469 -0.086677 128 128 255 0.000653 -0.229267 -0.973363
-0.298155 -1.385935 -0.037582 128 128 255 0.058229 -0.220888 -0.973559
0.100000 -1.461563 0.011520 128 128 255 0.111655 -0.198362 -0.973748
0.510266 -1.431133 0.060628 128 128 255 0.157534 -0.163225 -0.973931
0.904553 -1.293527 0.109743 128 128 255 0.192968 -0.117812 -0.974107
1.255026 -1.055026 0.158867 128 128 255 0.215747 -0.065102 -0.974277
1.536037 -0.729096 0.208001 128 128 255 0.224481 -0.008525 -0.974441
1.725974 -0.335678 0.257144 128 128 255 0.218689 0.048259 -0.974601
1.808879 0.100000 0.306297 128 128 255 0.198822 0.101596 -0.974755
1.775730 0.549011 0.355462 128 128 255 0.166236 0.148068 -0.974906
1.625272 0.980616 0.404638 128 128 255 0.123096 0.184717 -0.975052
1.364347 1.364347 0.453827 128 128 255 0.072238 0.209226 -0.975195
1.007662 1.672116 0.503028 128 128 255 0.016982 0.220074 -0.975335
0.577015 1.880244 0.552242 128 128 255 -0.039079 0.216624 -0.975473
0.100000 1.971230 0.601469 128 128 255 -0.092317 0.199167 -0.975608
-0.391728 1.935153 0.650710 128 128 255 -0.139300 0.168897 -0.975740
-0.864519 1.770596 0.699965 128 128 255 -0.177012 0.127834 -0.975872
-1.284999 1.484999 0.749234 128 128 255 -0.203052 0.078687 -0.976001
-1.622387 1.094420 0.798518 128 128 255 -0.215782 0.024682 -0.976130
-1.850707 0.622690 0.847815 128 128 255 -0.214435 -0.030654 -0.976257
-1.950737 0.100000 0.897127 128 128 255 -0.199164 -0.083721 -0.976383
-1.911542 -0.438991 0.946452 128 128 255 -0.171022 -0.131079 -0.976509
-1.731495 -0.957414 0.995792 128 128 255 -0.131898 -0.169674 -0.976634
-1.418676 -1.418676 1.045146 128 128 255 -0.084388 -0.197035 -0.976758
-0.990612 -1.788995 1.094513 128 128 255 -0.031623 -0.211432 -0.976881
-0.473366 -2.039833 1.143893 128 128 255 0.022938 -0.211988 -0.977003
0.100000 -2.150027 1.193286 128 128 255 0.075731 -0.198730 -0.977124
0.691496 -2.107492 1.242692 128 128 255 0.123326 -0.172587 -0.977243
1.260671 -1.910341 1.292109 128 128 255 0.162646 -0.135322 -0.977361
1.767338 -1.567338 1.341538 128 128 255 0.191168 -0.089414 -0.977476
2.174361 -1.097633 1.390978 128 128 255 0.207082 -0.037896 -0.977589
2.450324 -0.529768 1.440428 128 128 255 0.209410 0.015849 -0.977699
2.571888 0.100000 1.489887 128 128 255 0.198062 0.068311 -0.977806
2.525666 0.749955 1.539355 128 128 255 0.173837 0.116078 -0.977909
2.309476 1.375642 1.588832 128 128 255 0.138370 0.156058 -0.978008
1.932850 1.932850 1.638315 128 128 255 0.094018 0.185680 -0.978102
1.416757 2.380691 1.687806 128 128 255 0.043702 0.203059 -0.978191
0.792525 2.684537 1.737302 128 128 255 -0.009278 0.207109 -0.978274
0.100000 2.818629 1.786803 128 128 255 -0.061465 0.197615 -0.978351
-0.614930 2.768154 1.836307 128 128 255 -0.109466 0.175239 -0.978422
-1.303327 2.530634 1.885815 128 128 255 -0.150170 0.141475 -0.978485
-1.916502 2.116503 1.935325 128 128 255 -0.180948 0.098553 -0.978542
-2.409403 1.548805 1.984837 128 128 255 -0.199820 0.049285 -0.978592
-2.743866 0.862012 2.034348 128 128 255 -0.205582 -0.003107 -0.978635
-2.891499 0.100000 2.083860 128 128 255 -0.197879 -0.055208 -0.978671
-2.835975 -0.686692 2.133369 128 128 255 -0.177228 -0.103624 -0.978699
-2.574569 -1.444163 2.182877 128 128 255 -0.144988 -0.145201 -0.978721
-2.118789 -2.118789 2.232381 128 128 255 -0.103265 -0.177229 -0.978737
-1.494047 -2.660970 2.281880 128 128 255 -0.054785 -0.197616 -0.978747
-0.738337 -3.028718 2.331375 128 128 255 -0.002717 -0.205025 -0.978753
0.100000 -3.190824 2.380864 128 128 255 0.049533 -0.198962 -0.978755
0.965313 -3.129392 2.430346 128 128 255 0.098536 -0.179813 -0.978753
1.798280 -2.841508 2.479821 128 128 255 0.141069 -0.148818 -0.978751
2.539929 -2.339929 2.529287 128 128 255 0.174323 -0.108004 -0.978747
3.135754 -1.652693 2.578744 128 128 255 0.196089 -0.060048 -0.978746
3.539659 -0.821654 2.628192 128 128 255 0.204912 -0.008111 -0.978747
3.717433 0.100000 2.677629 128 128 255 0.200189 0.044372 -0.978752
3.649509 1.051088 2.727056 128 128 255 0.182215 0.093916 -0.978763
3.332780 1.966446 2.776470 128 128 255 0.152174 0.137219 -0.978782
2.781334 2.781334 2.825873 128 128 255 0.112061 0.171388 -0.978810
2.026009 3.435946 2.875263 128 128 255 0.064554 0.194139 -0.978848
1.112773 3.879719 2.924640 128 128 255 0.012837 0.203950 -0.978897
0.100000 4.075128 2.974005 128 128 255 -0.039617 0.200175 -0.978959
-0.945186 4.000689 3.023355 128 128 255 -0.089286 0.183091 -0.979033
-1.951296 3.652948 3.072691 128 128 255 -0.132840 0.153877 -0.979120
-2.847279 3.047279 3.122014 128 128 255 -0.167370 0.114534 -0.979219
-3.567458 2.217408 3.171323 128 128 255 -0.190591 0.067746 -0.979329
-4.056228 1.213658 3.220617 128 128 255 -0.200997 0.016692 -0.979450
-4.272216 0.100000 3.269897 128 128 255 -0.197961 -0.035180 -0.979578
-4.191590 -1.049928 3.319163 128 128 255 -0.181769 -0.084392 -0.979713
-3.810261 -2.157590 3.368415 128 128 255 -0.153593 -0.127673 -0.979851
-3.144809 -3.144809 3.417654 128 128 255 -0.115397 -0.162181 -0.979990
-2.232014 -3.939167 3.466878 128 128 255 -0.069793 -0.185691 -0.980126
-1.126991 -4.479194 3.516090 128 128 255 -0.019860 -0.196730 -0.980257
0.100000 -4.718972 3.565288 128 128 255 0.031078 -0.194663 -0.980378
1.367891 -4.631835 3.614474 128 128 255 0.079664 -0.179724 -0.980486
2.590038 -4.212873 3.663648 128 128 255 0.122733 -0.152977 -0.980579
3.680022 -3.480022 3.712811 128 128 255 0.157509 -0.116238 -0.980653
4.557647 -2.473624 3.761962 128 128 255 0.181770 -0.071946 -0.980705
5.154722 -1.254409 3.811104 128 128 255 0.193983 -0.023004 -0.980735
5.420231 0.100000 3.860235 128 128 255 0.162729 0.004394 -0.986661
1.482291 0.100000 -0.815490 128 128 255 0.403479 0.151667 -0.902331
1.452852 0.462496 -0.766202 128 128 255 0.342981 0.206858 -0.916282
1.329013 0.809571 -0.716921 128 128 255 0.278627 0.287147 -0.916468
1.116817 1.116817 -0.667646 128 128 255 0.196018 0.348337 -0.916645
0.828571 1.361922 -0.618377 128 128 255 0.100627 0.386426 -0.916815
0.482168 1.526270 -0.569112 128 128 255 -0.001237 0.398939 -0.916977
0.100000 1.596325 -0.519851 128 128 255 -0.102846 0.385089 -0.917131
-0.292466 1.564702 -0.470592 128 128 255 -0.197499 0.345826 -0.917278
-0.668364 1.430845 -0.421335 128 128 255 -0.278959 0.283774 -0.917417
-1.001248 1.201247 -0.372080 128 128 255 -0.341864 0.203056 -0.917550
-1.266927 0.889195 -0.322824 128 128 255 -0.382080 0.109023 -0.917676
-1.445199 0.514035 -0.273567 128 128 255 -0.396975 0.007902 -0.917795
-1.521355 0.100000 -0.224308 128 128 255 -0.385589 -0.093618 -0.917909
-1.487344 -0.325328 -0.175046 128 128 255 -0.348697 -0.188825 -0.918017
-1.342509 -0.732833 -0.125781 128 128 255 -0.288760 -0.271427 -0.918121
-1.093837 -1.093837 -0.076510 128 128 255 -0.209762 -0.335966 -0.918219
-0.755685 -1.382090 -0.027235 128 128 255 -0.116945 -0.378183 -0.918315
-0.348989 -1.575649 0.022048 128 128 255 -0.016467 -0.395295 -0.918407
0.100000 -1.658518 0.071337 128 128 255 0.085010 -0.386183 -0.918496
0.561384 -1.621909 0.120634 128 128 255 0.180758 -0.351467 -0.918585
1.003583 -1.465052 0.169940 128 128 255 0.264428 -0.293462 -0.918672
1.395470 -1.195470 0.219256 128 128 255 0.330473 -0.216030 -0.918760
1.708534 -0.828688 0.268582 128 128 255 0.374516 -0.124323 -0.918848
1.918921 -0.387378 0.317918 128 128 255 0.393644 -0.024442 -0.918938
2.009212 0.100000 0.367266 128 128 255 0.386599 0.076971 -0.919030
1.969804 0.601012 0.416626 128 128 255 0.353863 0.173169 -0.919126
1.799791 1.081375 0.465998 128 128 255 0.297633 0.257756 -0.919226
1.507270 1.507270 0.515383 128 128 255 0.221665 0.325109 -0.919331
1.109034 1.847698 0.564781 128 128 255 0.131036 0.370755 -0.919440
0.629653 2.076690 0.614193 128 128 255 0.031793 0.391671 -0.919556
0.100000 2.175251 0.663618 128 128 255 -0.069440 0.386486 -0.919677
-0.444703 2.132859 0.713058 128 128 255 -0.165912 0.355572 -0.919805
-0.967195 1.948436 0.762511 128 128 255 -0.251196 0.301019 -0.919939
-1.430691 1.630691 0.811979 128 128 255 -0.319615 0.226493 -0.920080
-1.801430 1.197791 0.861462 128 128 255 -0.366627 0.136994 -0.920227
-2.051095 0.676384 0.910958 128 128 255 -0.389126 0.038513 -0.920379
-2.158923 0.100000 0.960468 128 128 255 -0.385647 -0.062363 -0.920536
-2.113352 -0.493066 1.009993 128 128 255 -0.356464 -0.158899 -0.920698
-1.913087 -1.062256 1.059531 128 128 255 -0.303567 -0.244660 -0.920863
-1.567485 -1.567485 1.109082 128 128 255 -0.230528 -0.313943 -0.921030
-1.096223 -1.971919 1.158647 128 128 255 -0.142256 -0.362156 -0.921198
-0.528237 -2.244613 1.208224 128 128 255 -0.044669 -0.386122 -0.921366
0.100000 -2.362817 1.257813 128 128 255 0.055709 -0.384288 -0.921531
0.746774 -2.313793 1.307415 128 128 255 0.152179 -0.356826 -0.921692
1.367854 -2.095987 1.357027 128 128 255 0.238320 -0.305615 -0.921848
1.919472 -1.719472 1.406650 128 128 255 0.308411 -0.234109 -0.921995
2.361359 -1.205596 1.456283 128 128 255 0.357811 -0.147108 -0.922134
2.659633 -0.585852 1.505925 128 128 255 0.383266 -0.050429 -0.922260
2.789333 0.100000 1.555576 128 128 255 0.383119 0.049477 -0.922373
2.736412 0.806425 1.605234 128 128 255 0.357413 0.145960 -0.922470
2.499044 1.485088 1.654900 128 128 255 0.307889 0.232605 -0.922550
2.088118 2.088118 1.704571 128 128 255 0.237862 0.303660 -0.922612
1.526878 2.571426 1.754248 128 128 255 0.152003 0.354411 -0.922653
0.849690 2.897881 1.803930 128 128 255 0.056027 0.381494 -0.922672
0.100000 3.040093 1.853615 128 128 255 -0.043687 0.383111 -0.922668
-0.672393 2.982610 1.903302 128 128 255 -0.140508 0.359150 -0.922642
-1.414597 2.723359 1.952992 128 128 255 -0.227999 0.311191 -0.922592
-2.074200 2.274200 2.002682 128 128 255 -0.300331 0.242403 -0.922519
-2.602921 1.660532 2.052372 128 128 255 -0.352674 0.157338 -0.922424
-2.960090 0.919949 2.102061 128 128 255 -0.381511 0.061636 -0.922307
-3.115706 0.100000 2.151748 128 128 255 -0.384878 -0.038348 -0.922170
-3.052851 -0.744804 2.201432 128 128 255 -0.362494 -0.135954 -0.922017
-2.769260 -1.556568 2.251113 128 128 255 -0.315791 -0.224660 -0.921848
-2.277933 -2.277933 2.300789 128 128 255 -0.247824 -0.298512 -0.921669
-1.606693 -2.856078 2.350459 128 128 255 -0.163082 -0.352525 -0.921483
-0.796701 -3.246533 2.400123 128 128 255 -0.067195 -0.383018 -0.921294
0.100000 -3.416518 2.449780 128 128 255 0.033436 -0.387870 -0.921108
1.023776 -3.347579 2.499429 128 128 255 0.132056 -0.366674 -0.920930
1.911319 -3.037297 2.549069 128 128 255 0.222017 -0.320779 -0.920765
2.699937 -2.499937 2.598700 128 128 255 0.297221 -0.253210 -0.920622
3.331922 -1.765951 2.648321 128 128 255 0.352545 -0.168477 -0.920504
3.758711 -0.880349 2.697931 128 128 255 0.384196 -0.072277 -0.920418
3.944521 0.100000 2.747530 128 128 255 0.389980 0.028886 -0.920370
3.869208 1.109956 2.797117 128 128 255 0.369469 0.128150 -0.920364
3.530124 2.080383 2.846692 128 128 255 0.324032 0.218762 -0.920406
2.942815 2.942815 2.896254 128 128 255 0.256758 0.294551 -0.920497
2.140481 3.634216 2.945802 128 128 255 0.172240 0.350365 -0.920640
1.172198 4.101498 2.995338 128 128 255 0.076257 0.382423 -0.920835
0.100000 4.305477 3.044859 128 128 255 -0.024629 0.388590 -0.921082
-1.005022 4.223998 3.094367 128 128 255 -0.123534 0.368517 -0.921376
-2.067352 3.853963 3.143861 128 128 255 -0.213737 0.323664 -0.921714
-3.012121 3.212121 3.193340 128 128 255 -0.289148 0.257184 -0.922090
-3.770290 2.334513 3.242805 128 128 255 -0.344724 0.173691 -0.922495
-4.283574 1.274575 3.292257 128 128 255 -0.376816 0.078926 -0.922920
-4.508792 0.100000 3.341693 128 128 255 -0.383396 -0.020647 -0.923353
-4.421310 -1.111481 3.391117 128 128 255 -0.364180 -0.118301 -0.923785
-4.017320 -2.277136 3.440526 128 128 255 -0.320620 -0.207499 -0.924201
-3.314765 -3.314765 3.489922 128 128 255 -0.255780 -0.282333 -0.924589
-2.352811 -4.148393 3.539305 128 128 255 -0.174105 -0.337903 -0.924937
-1.189827 -4.713700 3.588675 128 128 255 -0.081111 -0.370630 -0.925232
0.100000 -4.962861 3.638033 128 128 255 0.016997 -0.378455 -0.925463
1.431275 -4.868387 3.687379 128 128 255 0.113726 -0.360962 -0.925620
2.712928 -4.425725 3.736714 128 128 255 0.202712 -0.319373 -0.925694
3.854337 -3.654337 3.786038 128 128 255 0.278121 -0.256457 -0.925677
4.771636 -2.597170 3.835352 128 128 255 0.335004 -0.176345 -0.925567
5.393785 -1.318465 3.884656 128 128 255 0.369597 -0.084273 -0.925363
5.667949 0.100000 3.933953 128 128 255 0.348503 -0.034589 -0.936669
1.654588 0.100000 -0.723366 128 128 255 0.574687 0.145168 -0.805395
1.619770 0.507221 -0.673800 128 128 255 0.517638 0.222629 -0.826128
1.479108 0.896228 -0.624239 128 128 255 0.443097 0.347933 -0.826201
1.239726 1.239726 -0.574683 128 128 255 0.338915 0.449910 -0.826267
0.915733 1.512892 -0.525132 128 128 255 0.212068 0.521738 -0.826327
0.527417 1.695141 -0.475583 128 128 255 0.071048 0.558610 -0.826382
0.100000 1.771656 -0.426037 128 128 255 -0.074703 0.558061 -0.826430
-0.337975 1.734544 -0.376492 128 128 255 -0.215426 0.520126 -0.826475
-0.756531 1.583556 -0.326948 128 128 255 -0.341693 0.447347 -0.826515
-1.126290 1.326290 -0.277403 128 128 255 -0.445047 0.344597 -0.826551
-1.420506 0.977865 -0.227857 128 128 255 -0.518558 0.218760 -0.826584
-1.616980 0.560063 -0.178308 128 128 255 -0.557297 0.078269 -0.826616
-1.699700 0.100000 -0.128756 128 128 255 -0.558663 -0.067459 -0.826647
-1.660100 -0.371617 -0.079199 128 128 255 -0.522561 -0.208650 -0.826677
-1.497837 -0.822512 -0.029638 128 128 255 -0.451406 -0.335833 -0.826710
-1.221023 -1.221023 0.019929 128 128 255 -0.349972 -0.440470 -0.826744
-0.845876 -1.538306 0.069503 128 128 255 -0.225063 -0.515536 -0.826782
-0.395810 -1.750387 0.119085 128 128 255 -0.085064 -0.555988 -0.826826
0.100000 -1.839944 0.168675 128 128 255 0.060622 -0.559108 -0.826876
0.608478 -1.797666 0.218275 128 128 255 0.202208 -0.524684 -0.826933
1.094831 -1.623098 0.267884 128 128 255 0.330179 -0.455031 -0.827000
1.524900 -1.324901 0.317503 128 128 255 0.435933 -0.354834 -0.827076
1.867534 -0.920486 0.367134 128 128 255 0.512362 -0.230833 -0.827164
2.096809 -0.435043 0.416776 128 128 255 0.554332 -0.091374 -0.827265
2.193951 0.100000 0.466430 128 128 255 0.559027 0.054159 -0.827379
2.148816 0.648979 0.516097 128 128 255 0.526145 0.195969 -0.827507
1.960808 1.174338 0.565777 128 128 255 0.457915 0.324515 -0.827650
