ply
format ascii 1.0
element vertex 691
property float x
property float y
property float z
property uchar red
property uchar green
property uchar blue
property float nx
property float ny
property float nz
end_header
0.395664 -0.537605 0.183942 128 128 255 -0.828750 0.559619 -0.000024
0.415998 -0.504196 0.187422 128 128 255 -0.887022 0.461726 -0.000022
0.432482 -0.468266 0.191027 128 128 255 -0.936301 0.351199 -0.000020
0.444626 -0.429889 0.194750 128 128 255 -0.973443 0.228931 -0.000017
0.451882 -0.389159 0.198583 128 128 255 -0.995278 0.097067 -0.000014
0.453634 -0.346201 0.202508 128 128 255 -0.999164 -0.040876 -0.000010
0.449189 -0.301172 0.206500 128 128 255 -0.983625 -0.180229 -0.000006
0.437770 -0.254281 0.210519 128 128 255 -0.948831 -0.315783 -0.000001
0.418513 -0.205797 0.214506 128 128 255 -0.896694 -0.442651 0.000004
0.390464 -0.156077 0.218378 128 128 255 -0.830475 -0.557056 0.000009
0.352595 -0.105586 0.222021 128 128 255 -0.754091 -0.656770 0.000014
0.303835 -0.054938 0.225273 128 128 255 -0.671374 -0.741119 0.000019
0.243137 -0.004930 0.227920 128 128 255 -0.585526 -0.810654 0.000025
0.169585 0.043408 0.229674 128 128 255 -0.498840 -0.866694 0.000033
0.082584 0.088768 0.230157 128 128 255 -0.412629 -0.910899 0.000045
-0.017864 0.129544 0.228866 128 128 255 -0.327254 -0.944936 0.000061
-0.130757 0.163827 0.225282 128 128 255 -0.242106 -0.970250 0.000080
-0.253575 0.189495 0.218786 128 128 255 -0.155436 -0.987846 0.000098
-0.381746 0.204424 0.208758 128 128 255 -0.063847 -0.997960 0.000115
-0.508273 0.206871 0.194696 128 128 255 0.039099 -0.999235 0.000128
-0.623814 0.196015 0.176382 128 128 255 0.166665 -0.986014 0.000136
-0.717555 0.172546 0.154067 128 128 255 0.350022 -0.936742 0.000137
-0.779018 0.139062 0.128589 128 128 255 0.663800 -0.747910 0.000113
-0.800461 0.100000 0.101356 128 128 255 1.000000 0.000059 -0.000000
-0.779018 0.060938 0.074078 128 128 255 0.663753 0.747952 -0.000113
-0.717555 0.027454 0.048568 128 128 255 0.350001 0.936749 -0.000137
-0.623814 0.003985 0.026234 128 128 255 0.166655 0.986015 -0.000136
-0.508273 -0.006871 0.007914 128 128 255 0.039093 0.999236 -0.000128
-0.381746 -0.004424 -0.006141 128 128 255 -0.063851 0.997959 -0.000115
-0.253575 0.010505 -0.016150 128 128 255 -0.155439 0.987846 -0.000098
-0.130757 0.036173 -0.022617 128 128 255 -0.242108 0.970249 -0.000080
-0.017864 0.070456 -0.026162 128 128 255 -0.327256 0.944936 -0.000061
0.082584 0.111232 -0.027413 128 128 255 -0.412630 0.910899 -0.000045
0.169585 0.156592 -0.026963 128 128 255 -0.498842 0.866693 -0.000033
0.243137 0.204930 -0.025244 128 128 255 -0.585528 0.810652 -0.000025
0.303835 0.254938 -0.022621 128 128 255 -0.671375 0.741118 -0.000019
0.352595 0.305586 -0.019381 128 128 255 -0.754093 0.656768 -0.000014
0.390464 0.356077 -0.015743 128 128 255 -0.830477 0.557054 -0.000009
0.418513 0.405797 -0.011866 128 128 255 -0.896695 0.442649 -0.000004
0.437770 0.454281 -0.007868 128 128 255 -0.948833 0.315780 0.000001
0.449189 0.501172 -0.003833 128 128 255 -0.983625 0.180225 0.000006
0.453634 0.546201 0.000182 128 128 255 -0.999164 0.040872 0.000010
0.451882 0.589159 0.004135 128 128 255 -0.995277 -0.097071 0.000014
0.444626 0.629889 0.008001 128 128 255 -0.973442 -0.228936 0.000017
0.432482 0.668266 0.011761 128 128 255 -0.936299 -0.351203 0.000020
0.415998 0.704196 0.015405 128 128 255 -0.887020 -0.461731 0.000022
0.395664 0.737604 0.018929 128 128 255 -0.828748 -0.559622 0.000024
0.371919 0.768435 0.022332 128 128 255 -0.764246 -0.644924 0.000025
0.345158 0.796643 0.025614 128 128 255 -0.695752 -0.718282 0.000026
0.315740 0.822196 0.028778 128 128 255 -0.624968 -0.780650 0.000026
0.283990 0.845070 0.031828 128 128 255 -0.553135 -0.833092 0.000026
0.250208 0.865249 0.034768 128 128 255 -0.481126 -0.876651 0.000026
0.214671 0.882722 0.037604 128 128 255 -0.409538 -0.912293 0.000026
0.177633 0.897489 0.040341 128 128 255 -0.338775 -0.940867 0.000025
0.139335 0.909551 0.042985 128 128 255 -0.269101 -0.963112 0.000025
0.100000 0.918917 0.045539 128 128 255 -0.200689 -0.979655 0.000024
0.059840 0.925601 0.048011 128 128 255 -0.133654 -0.991028 0.000023
0.019054 0.929623 0.050403 128 128 255 -0.068076 -0.997680 0.000023
-0.022168 0.931007 0.052722 128 128 255 -0.004009 -0.999992 0.000022
-0.063645 0.929782 0.054971 128 128 255 0.058503 -0.998287 0.000021
-0.105205 0.925983 0.057156 128 128 255 0.119423 -0.992843 0.000020
-0.146684 0.919649 0.059279 128 128 255 0.178715 -0.983901 0.000020
-0.187923 0.910825 0.061345 128 128 255 0.236342 -0.971670 0.000019
-0.228771 0.899559 0.063358 128 128 255 0.292265 -0.956338 0.000018
-0.269084 0.885906 0.065320 128 128 255 0.346442 -0.938071 0.000017
-0.308723 0.869924 0.067236 128 128 255 0.398829 -0.917025 0.000016
-0.347554 0.851677 0.069108 128 128 255 0.449379 -0.893341 0.000016
-0.385450 0.831233 0.070939 128 128 255 0.498043 -0.867152 0.000015
-0.422289 0.808664 0.072731 128 128 255 0.544769 -0.838586 0.000014
-0.457954 0.784047 0.074488 128 128 255 0.589506 -0.807764 0.000013
-0.492336 0.757463 0.076212 128 128 255 0.632200 -0.774805 0.000012
-0.525328 0.728997 0.077905 128 128 255 0.672798 -0.739826 0.000012
-0.556831 0.698737 0.079569 128 128 255 0.711247 -0.702943 0.000011
-0.586750 0.666778 0.081207 128 128 255 0.747495 -0.664267 0.000010
-0.614997 0.633214 0.082820 128 128 255 0.781491 -0.623916 0.000009
-0.641490 0.598146 0.084411 128 128 255 0.813186 -0.582004 0.000009
-0.666151 0.561677 0.085981 128 128 255 0.842534 -0.538644 0.000008
-0.688909 0.523912 0.087532 128 128 255 0.869489 -0.493953 0.000007
-0.709699 0.484961 0.089066 128 128 255 0.894009 -0.448048 0.000006
-0.728461 0.444934 0.090584 128 128 255 0.916057 -0.401047 0.000006
-0.745142 0.403945 0.092088 128 128 255 0.935597 -0.353069 0.000005
-0.759695 0.362110 0.093580 128 128 255 0.952598 -0.304233 0.000004
-0.772078 0.319546 0.095061 128 128 255 0.967031 -0.254658 0.000004
-0.782258 0.276372 0.096532 128 128 255 0.978873 -0.204469 0.000003
-0.790205 0.232709 0.097996 128 128 255 0.988104 -0.153786 0.000002
-0.795898 0.188677 0.099454 128 128 255 0.994709 -0.102732 0.000001
-0.799320 0.144400 0.100907 128 128 255 0.998677 -0.051431 0.000001
-0.800461 0.100000 0.102357 128 128 255 0.998717 -0.027150 -0.042740
-0.766370 0.100000 -0.156467 128 128 255 0.954041 0.035198 0.297601
-0.765270 0.057273 -0.155020 128 128 255 0.965049 0.057758 0.255627
-0.761971 0.014664 -0.153574 128 128 255 0.960794 0.107413 0.255613
-0.756483 -0.027706 -0.152126 128 128 255 0.953980 0.156817 0.255598
-0.748822 -0.069721 -0.150676 128 128 255 0.944619 0.205851 0.255580
-0.739009 -0.111262 -0.149221 128 128 255 0.932723 0.254397 0.255560
-0.727072 -0.152214 -0.147761 128 128 255 0.918310 0.302336 0.255537
-0.713044 -0.192460 -0.146294 128 128 255 0.901404 0.349549 0.255512
-0.696965 -0.231888 -0.144817 128 128 255 0.882029 0.395919 0.255484
-0.678881 -0.270385 -0.143330 128 128 255 0.860216 0.441331 0.255453
-0.658844 -0.307842 -0.141831 128 128 255 0.835996 0.485667 0.255417
-0.636911 -0.344151 -0.140317 128 128 255 0.809407 0.528813 0.255378
-0.613145 -0.379206 -0.138787 128 128 255 0.780486 0.570655 0.255333
-0.587616 -0.412906 -0.137240 128 128 255 0.749276 0.611078 0.255283
-0.560398 -0.445151 -0.135672 128 128 255 0.715820 0.649971 0.255226
-0.531571 -0.475844 -0.134083 128 128 255 0.680164 0.687218 0.255161
-0.501222 -0.504891 -0.132469 128 128 255 0.642357 0.722709 0.255087
-0.469442 -0.532204 -0.130829 128 128 255 0.602445 0.756329 0.255002
-0.436328 -0.557695 -0.129160 128 128 255 0.560479 0.787964 0.254905
-0.401981 -0.581283 -0.127460 128 128 255 0.516508 0.817497 0.254793
-0.366510 -0.602888 -0.125726 128 128 255 0.470581 0.844808 0.254663
-0.330028 -0.622437 -0.123955 128 128 255 0.422746 0.869775 0.254512
-0.292653 -0.639860 -0.122145 128 128 255 0.373052 0.892270 0.254335
-0.254509 -0.655089 -0.120292 128 128 255 0.321543 0.912156 0.254128
-0.215726 -0.668064 -0.118393 128 128 255 0.268262 0.929289 0.253883
-0.176438 -0.678728 -0.116444 128 128 255 0.213253 0.943511 0.253594
-0.136788 -0.687027 -0.114443 128 128 255 0.156551 0.954650 0.253249
-0.096922 -0.692915 -0.112385 128 128 255 0.098195 0.962513 0.252838
-0.056994 -0.696347 -0.110266 128 128 255 0.038220 0.966883 0.252343
-0.017166 -0.697286 -0.108081 128 128 255 -0.023339 0.967512 0.251746
0.022395 -0.695697 -0.105827 128 128 255 -0.086443 0.964114 0.251022
0.061513 -0.691552 -0.103499 128 128 255 -0.151044 0.956356 0.250139
0.100000 -0.684826 -0.101091 128 128 255 -0.217081 0.943846 0.249057
0.137662 -0.675501 -0.098599 128 128 255 -0.284466 0.926127 0.247726
0.174292 -0.663562 -0.096017 128 128 255 -0.353067 0.902656 0.246080
0.209668 -0.649000 -0.093339 128 128 255 -0.422690 0.872800 0.244037
0.243557 -0.631812 -0.090561 128 128 255 -0.493038 0.835820 0.241490
0.275706 -0.612000 -0.087676 128 128 255 -0.563672 0.790875 0.238308
0.305843 -0.589573 -0.084679 128 128 255 -0.633945 0.737025 0.234325
0.333673 -0.564544 -0.081566 128 128 255 -0.702926 0.673273 0.229342
0.358872 -0.536938 -0.078333 128 128 255 -0.769315 0.598641 0.223122
0.381087 -0.506785 -0.074975 128 128 255 -0.831356 0.512299 0.215400
0.399926 -0.474128 -0.071493 128 128 255 -0.886786 0.413780 0.205905
0.414954 -0.439023 -0.067886 128 128 255 -0.932871 0.303256 0.194391
0.425684 -0.401541 -0.064160 128 128 255 -0.966580 0.181854 0.180700
0.431572 -0.361775 -0.060325 128 128 255 -0.984956 0.051907 0.164826
0.432005 -0.319846 -0.056396 128 128 255 -0.985653 -0.082991 0.146975
0.426292 -0.275910 -0.052401 128 128 255 -0.967511 -0.218273 0.127594
0.413662 -0.230172 -0.048380 128 128 255 -0.930950 -0.349015 0.107330
0.393251 -0.182901 -0.044390 128 128 255 -0.877981 -0.470736 0.086934
0.364109 -0.134448 -0.040514 128 128 255 -0.811792 -0.580076 0.067130
0.325212 -0.085278 -0.036869 128 128 255 -0.736091 -0.675143 0.048501
0.275491 -0.035998 -0.033613 128 128 255 -0.654442 -0.755459 0.031425
0.213900 0.012595 -0.030964 128 128 255 -0.569785 -0.821637 0.016063
0.139526 0.059475 -0.029207 128 128 255 -0.484189 -0.874960 0.002374
0.051774 0.103340 -0.028736 128 128 255 -0.398793 -0.916988 -0.009847
-0.049356 0.142588 -0.030027 128 128 255 -0.313811 -0.949254 -0.020955
-0.162857 0.175312 -0.033609 128 128 255 -0.228477 -0.973041 -0.031467
-0.286204 0.199393 -0.040105 128 128 255 -0.140815 -0.989139 -0.042138
-0.414824 0.212709 -0.050135 128 128 255 -0.047012 -0.997426 -0.054146
-0.541716 0.213523 -0.064200 128 128 255 0.060228 -0.995759 -0.069550
-0.657538 0.201018 -0.082519 128 128 255 0.196100 -0.976214 -0.092476
-0.751476 0.175887 -0.104844 128 128 255 0.395872 -0.908710 -0.132409
-0.813055 0.140734 -0.130335 128 128 255 0.728479 -0.652662 -0.208206
-0.834535 0.100000 -0.157586 128 128 255 0.951486 0.163313 -0.260775
-0.813051 0.059266 -0.184835 128 128 255 0.608903 0.773230 -0.177066
-0.751472 0.024114 -0.210321 128 128 255 0.334591 0.935151 -0.116364
-0.657536 -0.001018 -0.232636 128 128 255 0.165630 0.982569 -0.084412
-0.541722 -0.013524 -0.250939 128 128 255 0.044141 0.996895 -0.065204
-0.414840 -0.012713 -0.264981 128 128 255 -0.055509 0.997116 -0.051756
-0.286229 0.000601 -0.274978 128 128 255 -0.144881 0.988604 -0.040887
-0.162884 0.024680 -0.281435 128 128 255 -0.229833 0.972739 -0.030915
-0.049378 0.057406 -0.284972 128 128 255 -0.313569 0.949337 -0.020820
0.051765 0.096659 -0.286213 128 128 255 -0.397806 0.917416 -0.009911
0.139533 0.140533 -0.285741 128 128 255 -0.483200 0.875507 0.002314
0.213917 0.187419 -0.284015 128 128 255 -0.569467 0.821854 0.016215
0.275513 0.236015 -0.281386 128 128 255 -0.655357 0.754640 0.032014
0.325234 0.285295 -0.278141 128 128 255 -0.738581 0.672326 0.049753
0.364129 0.334466 -0.274497 128 128 255 -0.815843 0.574113 0.069250
0.393268 0.382917 -0.270616 128 128 255 -0.883095 0.460470 0.090063
0.413676 0.430187 -0.266613 128 128 255 -0.936115 0.333550 0.111504
0.426304 0.475923 -0.262573 128 128 255 -0.971327 0.197255 0.132717
0.432014 0.519857 -0.258555 128 128 255 -0.986619 0.056781 0.152833
0.431579 0.561785 -0.254597 128 128 255 -0.981808 -0.082267 0.171127
0.425690 0.601549 -0.250729 128 128 255 -0.958547 -0.214869 0.187136
0.414958 0.639030 -0.246966 128 128 255 -0.919757 -0.337297 0.200691
0.399929 0.674134 -0.243318 128 128 255 -0.868896 -0.447359 0.211870
0.381089 0.706789 -0.239791 128 128 255 -0.809327 -0.544232 0.220909
0.358873 0.736941 -0.236387 128 128 255 -0.743944 -0.628101 0.228116
0.333673 0.764546 -0.233103 128 128 255 -0.675032 -0.699760 0.233814
0.305844 0.789574 -0.229937 128 128 255 -0.604287 -0.760298 0.238297
0.275706 0.812001 -0.226886 128 128 255 -0.532907 -0.810884 0.241818
0.243557 0.831812 -0.223944 128 128 255 -0.461711 -0.852643 0.244587
0.209668 0.848999 -0.221107 128 128 255 -0.391234 -0.886590 0.246768
0.174291 0.863561 -0.218370 128 128 255 -0.321824 -0.913609 0.248491
0.137662 0.875499 -0.215726 128 128 255 -0.253694 -0.934457 0.249860
0.100000 0.884824 -0.213171 128 128 255 -0.186977 -0.949770 0.250950
0.061513 0.891550 -0.210700 128 128 255 -0.121751 -0.960084 0.251824
0.022396 0.895695 -0.208308 128 128 255 -0.058063 -0.965846 0.252526
-0.017165 0.897283 -0.205990 128 128 255 0.004054 -0.967433 0.253095
-0.056994 0.896344 -0.203742 128 128 255 0.064579 -0.965163 0.253556
-0.096921 0.892912 -0.201559 128 128 255 0.123490 -0.959306 0.253932
-0.136787 0.887024 -0.199437 128 128 255 0.180766 -0.950098 0.254240
-0.176437 0.878725 -0.197373 128 128 255 0.236380 -0.937741 0.254494
-0.215725 0.868061 -0.195362 128 128 255 0.290305 -0.922415 0.254703
-0.254508 0.855086 -0.193402 128 128 255 0.342506 -0.904283 0.254876
-0.292652 0.839857 -0.191489 128 128 255 0.392948 -0.883491 0.255019
-0.330027 0.822435 -0.189620 128 128 255 0.441589 -0.860176 0.255139
-0.366509 0.802886 -0.187792 128 128 255 0.488386 -0.834466 0.255238
-0.401980 0.781281 -0.186003 128 128 255 0.533292 -0.806481 0.255321
-0.436326 0.757693 -0.184250 128 128 255 0.576259 -0.776338 0.255390
-0.469441 0.732202 -0.182529 128 128 255 0.617239 -0.744152 0.255448
-0.501221 0.704890 -0.180840 128 128 255 0.656182 -0.710033 0.255495
-0.531570 0.675842 -0.179180 128 128 255 0.693038 -0.674092 0.255535
-0.560396 0.645150 -0.177546 128 128 255 0.727758 -0.636438 0.255568
-0.587614 0.612905 -0.175938 128 128 255 0.760294 -0.597181 0.255595
-0.613144 0.579205 -0.174351 128 128 255 0.790598 -0.556431 0.255616
-0.636910 0.544150 -0.172786 128 128 255 0.818627 -0.514297 0.255634
-0.658843 0.507841 -0.171240 128 128 255 0.844337 -0.470892 0.255647
-0.678880 0.470384 -0.169711 128 128 255 0.867689 -0.426327 0.255657
-0.696964 0.431887 -0.168198 128 128 255 0.888646 -0.380715 0.255664
-0.713043 0.392460 -0.166699 128 128 255 0.907173 -0.334172 0.255668
-0.727071 0.352213 -0.165212 128 128 255 0.923240 -0.286812 0.255670
-0.739008 0.311262 -0.163736 128 128 255 0.936820 -0.238751 0.255670
-0.748822 0.269721 -0.162270 128 128 255 0.947889 -0.190105 0.255667
-0.756483 0.227706 -0.160811 128 128 255 0.956429 -0.140995 0.255663
-0.761971 0.185336 -0.159359 128 128 255 0.962424 -0.091536 0.255657
-0.765269 0.142727 -0.157911 128 128 255 0.965864 -0.041850 0.255649
-0.766370 0.100000 -0.156467 128 128 255 0.976412 -0.017916 0.215171
-0.666420 0.100000 -0.397661 128 128 255 0.845690 0.043961 0.531861
-0.665440 0.062177 -0.396219 128 128 255 0.867429 0.062566 0.493612
-0.662502 0.024461 -0.394778 128 128 255 0.863039 0.107459 0.493575
-0.657615 -0.013041 -0.393336 128 128 255 0.856321 0.152113 0.493534
-0.650793 -0.050222 -0.391891 128 128 255 0.847283 0.196420 0.493487
-0.642054 -0.086976 -0.390441 128 128 255 0.835936 0.240272 0.493436
-0.631426 -0.123200 -0.388986 128 128 255 0.822295 0.283562 0.493380
-0.618937 -0.158788 -0.387523 128 128 255 0.806377 0.326184 0.493316
-0.604623 -0.193639 -0.386051 128 128 255 0.788203 0.368028 0.493246
-0.588528 -0.227651 -0.384569 128 128 255 0.767798 0.408989 0.493168
-0.570696 -0.260726 -0.383073 128 128 255 0.745188 0.448961 0.493081
-0.551181 -0.292766 -0.381564 128 128 255 0.720403 0.487839 0.492983
-0.530040 -0.323677 -0.380038 128 128 255 0.693475 0.525518 0.492873
-0.507335 -0.353366 -0.378495 128 128 255 0.664437 0.561890 0.492750
-0.483136 -0.381743 -0.376931 128 128 255 0.633326 0.596853 0.492610
-0.457513 -0.408721 -0.375345 128 128 255 0.600177 0.630300 0.492452
-0.430547 -0.434216 -0.373734 128 128 255 0.565030 0.662125 0.492273
-0.402320 -0.458146 -0.372097 128 128 255 0.527922 0.692219 0.492067
-0.372920 -0.480433 -0.370431 128 128 255 0.488893 0.720475 0.491832
-0.342441 -0.501002 -0.368734 128 128 255 0.447981 0.746780 0.491562
-0.310981 -0.519783 -0.367002 128 128 255 0.405223 0.771018 0.491249
-0.278644 -0.536708 -0.365234 128 128 255 0.360655 0.793069 0.490887
-0.245537 -0.551712 -0.363425 128 128 255 0.314312 0.812805 0.490465
-0.211775 -0.564735 -0.361574 128 128 255 0.266227 0.830091 0.489971
-0.177477 -0.575722 -0.359677 128 128 255 0.216430 0.844781 0.489391
-0.142766 -0.584620 -0.357730 128 128 255 0.164946 0.856714 0.488706
-0.107774 -0.591381 -0.355729 128 128 255 0.111801 0.865714 0.487893
-0.072636 -0.595960 -0.353672 128 128 255 0.057015 0.871581 0.486925
-0.037495 -0.598318 -0.351553 128 128 255 0.000611 0.874089 0.485766
-0.002500 -0.598417 -0.349369 128 128 255 -0.057391 0.872978 0.484372
0.032192 -0.596228 -0.347115 128 128 255 -0.116965 0.867948 0.482685
0.066417 -0.591722 -0.344787 128 128 255 -0.178075 0.858649 0.480636
0.100000 -0.584876 -0.342379 128 128 255 -0.240671 0.844669 0.478134
0.132758 -0.575671 -0.339886 128 128 255 -0.304669 0.825525 0.475064
0.164495 -0.564093 -0.337303 128 128 255 -0.369937 0.800651 0.471280
0.195003 -0.550132 -0.334624 128 128 255 -0.436271 0.769385 0.466598
0.224058 -0.533782 -0.331845 128 128 255 -0.503352 0.730968 0.460785
0.251420 -0.515045 -0.328958 128 128 255 -0.570698 0.684541 0.453550
0.276829 -0.493926 -0.325960 128 128 255 -0.637598 0.629170 0.444537
0.300001 -0.470437 -0.322846 128 128 255 -0.703034 0.563894 0.433320
0.320623 -0.444596 -0.319610 128 128 255 -0.765585 0.487827 0.419410
0.338353 -0.416432 -0.316251 128 128 255 -0.823360 0.400312 0.402279
0.352811 -0.385982 -0.312766 128 128 255 -0.873972 0.301157 0.381414
0.363571 -0.353295 -0.309157 128 128 255 -0.914615 0.190923 0.356410
0.370157 -0.318438 -0.305429 128 128 255 -0.942307 0.071204 0.327088
0.372035 -0.281498 -0.301591 128 128 255 -0.954324 -0.055199 0.293630
0.368601 -0.242589 -0.297660 128 128 255 -0.948751 -0.184375 0.256667
0.359176 -0.201859 -0.293663 128 128 255 -0.924996 -0.311728 0.217275
0.342996 -0.159507 -0.289639 128 128 255 -0.884036 -0.432675 0.176840
0.319205 -0.115791 -0.285646 128 128 255 -0.828258 -0.543383 0.136831
0.286863 -0.071055 -0.281768 128 128 255 -0.760946 -0.641287 0.098547
0.244951 -0.025754 -0.278120 128 128 255 -0.685623 -0.725231 0.062940
0.192408 0.019514 -0.274862 128 128 255 -0.605468 -0.795284 0.030533
0.128192 0.063963 -0.272210 128 128 255 -0.522965 -0.852353 0.001444
0.051391 0.106580 -0.270473 128 128 255 -0.439735 -0.897791 -0.024577
-0.038583 0.146073 -0.270027 128 128 255 -0.356513 -0.933052 -0.048083
-0.141719 0.180843 -0.271315 128 128 255 -0.273149 -0.959428 -0.069919
-0.256997 0.208993 -0.274896 128 128 255 -0.188515 -0.977818 -0.091288
-0.381886 0.228416 -0.281390 128 128 255 -0.100213 -0.988419 -0.113951
-0.511804 0.237001 -0.291419 128 128 255 -0.003816 -0.990046 -0.140691
-0.639750 0.233023 -0.305484 128 128 255 0.108940 -0.978276 -0.176374
-0.756382 0.215680 -0.323802 128 128 255 0.254450 -0.939240 -0.230397
-0.850892 0.185679 -0.346125 128 128 255 0.464827 -0.825122 -0.321107
-0.912807 0.145635 -0.371613 128 128 255 0.756018 -0.466389 -0.459258
-0.934395 0.100000 -0.398860 128 128 255 0.828258 0.274556 -0.488474
-0.912793 0.054366 -0.426103 128 128 255 0.562288 0.748046 -0.352504
-0.850869 0.014323 -0.451582 128 128 255 0.337891 0.907305 -0.250254
-0.756358 -0.015677 -0.473887 128 128 255 0.184886 0.964072 -0.190743
-0.639734 -0.033021 -0.492181 128 128 255 0.069977 0.985683 -0.153403
-0.511801 -0.037000 -0.506213 128 128 255 -0.025664 0.991561 -0.127076
-0.381896 -0.028418 -0.516202 128 128 255 -0.111669 0.988070 -0.106056
-0.257017 -0.008999 -0.522650 128 128 255 -0.193322 0.977261 -0.087111
-0.141740 0.019151 -0.526179 128 128 255 -0.273721 0.959389 -0.068186
-0.038598 0.053922 -0.527412 128 128 255 -0.354682 0.933763 -0.047825
0.051385 0.093419 -0.526907 128 128 255 -0.437095 0.899070 -0.024911
0.128195 0.136041 -0.525152 128 128 255 -0.520989 0.853562 0.001428
0.192419 0.180495 -0.522516 128 128 255 -0.605468 0.795233 0.031822
0.244965 0.225766 -0.519265 128 128 255 -0.688564 0.722113 0.066580
0.286878 0.271068 -0.515615 128 128 255 -0.767142 0.632732 0.105564
0.319219 0.315804 -0.511728 128 128 255 -0.837027 0.526751 0.148053
0.343008 0.359520 -0.507721 128 128 255 -0.893514 0.405591 0.192688
0.359187 0.401872 -0.503676 128 128 255 -0.932279 0.272782 0.237586
0.368610 0.442600 -0.499653 128 128 255 -0.950451 0.133680 0.280663
0.372042 0.481508 -0.495692 128 128 255 -0.947379 -0.005468 0.320068
0.370162 0.518446 -0.491820 128 128 255 -0.924680 -0.138796 0.354545
0.363574 0.553301 -0.488053 128 128 255 -0.885615 -0.261837 0.383571
0.352813 0.585986 -0.484403 128 128 255 -0.834141 -0.371942 0.407269
0.338355 0.616435 -0.480874 128 128 255 -0.774094 -0.468137 0.426177
0.320623 0.644598 -0.477467 128 128 255 -0.708704 -0.550664 0.441031
0.300000 0.670437 -0.474181 128 128 255 -0.640441 -0.620483 0.452589
0.276829 0.693925 -0.471014 128 128 255 -0.571059 -0.678878 0.461537
0.251420 0.715043 -0.467961 128 128 255 -0.501734 -0.727195 0.468456
0.224057 0.733779 -0.465019 128 128 255 -0.433216 -0.766699 0.473811
0.195002 0.750128 -0.462181 128 128 255 -0.365954 -0.798514 0.477967
0.164494 0.764088 -0.459443 128 128 255 -0.300204 -0.823601 0.481206
0.132757 0.775666 -0.456799 128 128 255 -0.236098 -0.842765 0.483741
0.100000 0.784871 -0.454245 128 128 255 -0.173690 -0.856675 0.485736
0.066417 0.791717 -0.451775 128 128 255 -0.112994 -0.865886 0.487313
0.032193 0.796223 -0.449384 128 128 255 -0.054001 -0.870854 0.488566
-0.002499 0.798412 -0.447067 128 128 255 0.003307 -0.871960 0.489567
-0.037494 0.798312 -0.444820 128 128 255 0.058946 -0.869518 0.490370
-0.072635 0.795954 -0.442639 128 128 255 0.112931 -0.863799 0.491018
-0.107772 0.791375 -0.440519 128 128 255 0.165272 -0.855027 0.491542
-0.142764 0.784615 -0.438457 128 128 255 0.215969 -0.843401 0.491968
-0.177474 0.775717 -0.436449 128 128 255 0.265015 -0.829092 0.492315
-0.211773 0.764730 -0.434491 128 128 255 0.312398 -0.812252 0.492599
-0.245534 0.751707 -0.432581 128 128 255 0.358099 -0.793021 0.492831
-0.278641 0.736703 -0.430716 128 128 255 0.402095 -0.771524 0.493022
-0.310978 0.719779 -0.428891 128 128 255 0.444355 -0.747879 0.493179
-0.342438 0.700998 -0.427105 128 128 255 0.484847 -0.722199 0.493307
-0.372917 0.680429 -0.425356 128 128 255 0.523535 -0.694590 0.493413
-0.402317 0.658143 -0.423640 128 128 255 0.560383 -0.665154 0.493499
-0.430544 0.634213 -0.421955 128 128 255 0.595351 -0.633993 0.493569
-0.457510 0.608719 -0.420299 128 128 255 0.628398 -0.601208 0.493625
-0.483133 0.581741 -0.418670 128 128 255 0.659484 -0.566896 0.493670
-0.507333 0.553364 -0.417065 128 128 255 0.688570 -0.531156 0.493705
-0.530037 0.523675 -0.415484 128 128 255 0.715617 -0.494087 0.493731
-0.551179 0.492765 -0.413923 128 128 255 0.740586 -0.455788 0.493750
-0.570694 0.460725 -0.412382 128 128 255 0.763441 -0.416359 0.493763
-0.588525 0.427650 -0.410858 128 128 255 0.784149 -0.375901 0.493770
-0.604621 0.393638 -0.409350 128 128 255 0.802676 -0.334515 0.493773
-0.618935 0.358787 -0.407856 128 128 255 0.818993 -0.292304 0.493770
-0.631424 0.323199 -0.406375 128 128 255 0.833073 -0.249372 0.493764
-0.642053 0.286976 -0.404904 128 128 255 0.844894 -0.205822 0.493753
-0.650792 0.250222 -0.403443 128 128 255 0.854433 -0.161760 0.493739
-0.657614 0.213041 -0.401989 128 128 255 0.861674 -0.117291 0.493721
-0.662501 0.175539 -0.400542 128 128 255 0.866603 -0.072523 0.493699
-0.665439 0.137823 -0.399100 128 128 255 0.869210 -0.027561 0.493674
-0.666420 0.100000 -0.397661 128 128 255 0.888728 -0.006133 0.458394
-0.507421 0.100000 -0.604787 128 128 255 0.681940 0.057747 0.729125
-0.506633 0.069979 -0.603350 128 128 255 0.713325 0.069250 0.697404
-0.504269 0.040046 -0.601914 128 128 255 0.708774 0.106651 0.697327
-0.500337 0.010289 -0.600477 128 128 255 0.702257 0.143834 0.697242
-0.494849 -0.019203 -0.599036 128 128 255 0.693779 0.180708 0.697148
-0.487821 -0.048343 -0.597592 128 128 255 0.683344 0.217186 0.697045
-0.479273 -0.077045 -0.596141 128 128 255 0.670962 0.253175 0.696931
-0.469232 -0.105223 -0.594683 128 128 255 0.656644 0.288586 0.696805
-0.457728 -0.132793 -0.593215 128 128 255 0.640403 0.323330 0.696665
-0.444795 -0.159670 -0.591737 128 128 255 0.622256 0.357314 0.696509
-0.430472 -0.185774 -0.590245 128 128 255 0.602217 0.390450 0.696336
-0.414803 -0.211025 -0.588740 128 128 255 0.580307 0.422646 0.696142
-0.397837 -0.235342 -0.587218 128 128 255 0.556545 0.453812 0.695926
-0.379626 -0.258651 -0.585677 128 128 255 0.530952 0.483856 0.695682
-0.360228 -0.280876 -0.584117 128 128 255 0.503550 0.512686 0.695407
-0.339703 -0.301944 -0.582534 128 128 255 0.474359 0.540207 0.695097
-0.318118 -0.321787 -0.580926 128 128 255 0.443404 0.566324 0.694744
-0.295543 -0.340335 -0.579292 128 128 255 0.410704 0.590940 0.694343
-0.272052 -0.357525 -0.577628 128 128 255 0.376280 0.613954 0.693883
-0.247726 -0.373293 -0.575933 128 128 255 0.340150 0.635260 0.693356
-0.222646 -0.387580 -0.574203 128 128 255 0.302332 0.654748 0.692749
-0.196902 -0.400329 -0.572436 128 128 255 0.262839 0.672301 0.692046
-0.170585 -0.411487 -0.570629 128 128 255 0.221682 0.687794 0.691229
-0.143794 -0.421002 -0.568779 128 128 255 0.178870 0.701089 0.690275
-0.116630 -0.428826 -0.566883 128 128 255 0.134404 0.712039 0.689156
-0.089201 -0.434915 -0.564936 128 128 255 0.088285 0.720474 0.687839
-0.061619 -0.439228 -0.562936 128 128 255 0.040508 0.726209 0.686279
-0.034002 -0.441725 -0.560879 128 128 255 -0.008936 0.729029 0.684425
-0.006476 -0.442373 -0.558761 128 128 255 -0.060057 0.728688 0.682207
0.020830 -0.441138 -0.556577 128 128 255 -0.112867 0.724902 0.679543
0.047777 -0.437994 -0.554322 128 128 255 -0.167370 0.717337 0.676325
0.074219 -0.432913 -0.551993 128 128 255 -0.223559 0.705603 0.672418
0.100000 -0.425876 -0.549584 128 128 255 -0.281407 0.689239 0.667653
0.124956 -0.416862 -0.547090 128 128 255 -0.340851 0.667704 0.661810
0.148910 -0.405858 -0.544506 128 128 255 -0.401757 0.640368 0.654615
0.171672 -0.392852 -0.541826 128 128 255 -0.463901 0.606498 0.645722
0.193039 -0.377837 -0.539045 128 128 255 -0.526912 0.565264 0.634697
0.212786 -0.360810 -0.536157 128 128 255 -0.590208 0.515757 0.621007
0.230674 -0.341773 -0.533157 128 128 255 -0.652910 0.457028 0.604015
0.246435 -0.320732 -0.530040 128 128 255 -0.713757 0.388180 0.582981
0.259777 -0.297700 -0.526802 128 128 255 -0.771005 0.308517 0.557108
0.270373 -0.272699 -0.523440 128 128 255 -0.822382 0.217768 0.525610
0.277860 -0.245758 -0.519953 128 128 255 -0.865133 0.116368 0.487857
0.281830 -0.216919 -0.516342 128 128 255 -0.896227 0.005747 0.443559
0.281824 -0.186239 -0.512611 128 128 255 -0.912766 -0.111483 0.392976
0.277323 -0.153794 -0.508770 128 128 255 -0.912551 -0.231599 0.337066
0.267738 -0.119687 -0.504836 128 128 255 -0.894643 -0.350171 0.277477
0.252405 -0.084056 -0.500835 128 128 255 -0.859683 -0.462752 0.216348
0.230574 -0.047086 -0.496807 128 128 255 -0.809782 -0.565633 0.155926
0.201404 -0.009022 -0.492811 128 128 255 -0.748030 -0.656363 0.098181
0.163965 0.029804 -0.488929 128 128 255 -0.677857 -0.733842 0.044559
0.117251 0.068954 -0.485278 128 128 255 -0.602424 -0.798165 -0.004170
0.060211 0.107843 -0.482034 128 128 255 -0.524228 -0.850231 -0.047876
-0.008187 0.145703 -0.479416 128 128 255 -0.444966 -0.891318 -0.086936
-0.088842 0.181534 -0.477695 128 128 255 -0.365516 -0.922755 -0.122150
-0.182335 0.214060 -0.477244 128 128 255 -0.285956 -0.945672 -0.154705
-0.288640 0.241698 -0.478527 128 128 255 -0.205592 -0.960764 -0.186182
-0.406725 0.262566 -0.482103 128 128 255 -0.122819 -0.968021 -0.218750
-0.534044 0.274572 -0.488592 128 128 255 -0.034814 -0.966177 -0.255520
-0.666011 0.275628 -0.498615 128 128 255 0.063153 -0.951449 -0.301259
-0.795620 0.264029 -0.512675 128 128 255 0.178969 -0.914196 -0.363615
-0.913533 0.238993 -0.530988 128 128 255 0.324797 -0.829525 -0.454307
-1.008949 0.201247 -0.553306 128 128 255 0.509295 -0.633472 -0.582521
-1.071403 0.153427 -0.578789 128 128 255 0.677463 -0.217531 -0.702655
-1.093166 0.100000 -0.606031 128 128 255 0.661555 0.326217 -0.675224
-1.071376 0.046574 -0.633269 128 128 255 0.497005 0.679441 -0.539765
-1.008900 -0.001243 -0.658742 128 128 255 0.335403 0.841548 -0.423440
-0.913472 -0.038984 -0.681043 128 128 255 0.207988 0.915124 -0.345383
-0.795559 -0.064018 -0.699332 128 128 255 0.105495 0.950226 -0.293157
-0.665960 -0.075617 -0.713359 128 128 255 0.017966 0.966505 -0.256017
-0.534010 -0.074563 -0.723343 128 128 255 -0.061171 0.971937 -0.227150
-0.406707 -0.062560 -0.729787 128 128 255 -0.136120 0.969838 -0.202204
-0.288635 -0.041696 -0.733312 128 128 255 -0.209663 0.961400 -0.178190
-0.182337 -0.014061 -0.734541 128 128 255 -0.283691 0.946654 -0.152858
-0.088846 0.018464 -0.734032 128 128 255 -0.359438 0.924846 -0.124358
-0.008190 0.054295 -0.732251 128 128 255 -0.437531 0.894580 -0.091068
0.060210 0.092156 -0.729573 128 128 255 -0.517876 0.853901 -0.051550
0.117252 0.131047 -0.726299 128 128 255 -0.599428 0.800415 -0.004618
0.163967 0.170198 -0.722646 128 128 255 -0.679894 0.731573 0.050450
0.201406 0.209025 -0.718755 128 128 255 -0.755503 0.645223 0.113586
0.230576 0.247088 -0.714744 128 128 255 -0.821062 0.540543 0.183496
0.252407 0.284058 -0.710695 128 128 255 -0.870704 0.419023 0.257476
0.267739 0.319689 -0.706669 128 128 255 -0.899307 0.285086 0.331620
0.277323 0.353795 -0.702705 128 128 255 -0.904141 0.145652 0.401639
0.281824 0.386239 -0.698829 128 128 255 -0.885808 0.008534 0.463973
0.281829 0.416918 -0.695060 128 128 255 -0.847845 -0.119511 0.516600
0.277859 0.445756 -0.691408 128 128 255 -0.795345 -0.234057 0.559146
0.270371 0.472696 -0.687876 128 128 255 -0.733471 -0.333199 0.592452
0.259775 0.497696 -0.684468 128 128 255 -0.666522 -0.416973 0.617965
0.246433 0.520727 -0.681181 128 128 255 -0.597627 -0.486562 0.637259
0.230672 0.541767 -0.678012 128 128 255 -0.528836 -0.543637 0.651760
0.212785 0.560804 -0.674959 128 128 255 -0.461378 -0.589946 0.662641
0.193037 0.577831 -0.672016 128 128 255 -0.395915 -0.627096 0.670822
0.171671 0.592845 -0.669178 128 128 255 -0.332747 -0.656471 0.676997
0.148909 0.605851 -0.666441 128 128 255 -0.271963 -0.679225 0.681681
0.124956 0.616854 -0.663798 128 128 255 -0.213533 -0.696296 0.685255
0.100000 0.625868 -0.661244 128 128 255 -0.157364 -0.708444 0.687999
0.074219 0.632905 -0.658775 128 128 255 -0.103346 -0.716279 0.690119
0.047778 0.637986 -0.656385 128 128 255 -0.051362 -0.720293 0.691766
0.020831 0.641130 -0.654070 128 128 255 -0.001304 -0.720885 0.693054
-0.006474 0.642365 -0.651825 128 128 255 0.046922 -0.718382 0.694065
-0.034000 0.641717 -0.649646 128 128 255 0.093393 -0.713052 0.694863
-0.061617 0.639220 -0.647529 128 128 255 0.138173 -0.705119 0.695496
-0.089198 0.634908 -0.645469 128 128 255 0.181312 -0.694773 0.696000
-0.116627 0.628819 -0.643464 128 128 255 0.222842 -0.682177 0.696402
-0.143791 0.620995 -0.641510 128 128 255 0.262787 -0.667472 0.696724
-0.170582 0.611481 -0.639603 128 128 255 0.301158 -0.650785 0.696981
-0.196898 0.600324 -0.637741 128 128 255 0.337961 -0.632228 0.697187
-0.222642 0.587575 -0.635920 128 128 255 0.373190 -0.611906 0.697352
-0.247722 0.573288 -0.634139 128 128 255 0.406837 -0.589916 0.697483
-0.272049 0.557520 -0.632393 128 128 255 0.438885 -0.566351 0.697586
-0.295539 0.540331 -0.630681 128 128 255 0.469316 -0.541297 0.697667
-0.318114 0.521783 -0.629000 128 128 255 0.498110 -0.514840 0.697729
-0.339699 0.501941 -0.627349 128 128 255 0.525241 -0.487064 0.697776
-0.360224 0.480873 -0.625725 128 128 255 0.550683 -0.458051 0.697809
-0.379623 0.458648 -0.624125 128 128 255 0.574412 -0.427882 0.697831
-0.397834 0.435340 -0.622549 128 128 255 0.596399 -0.396640 0.697843
-0.414800 0.411023 -0.620993 128 128 255 0.616618 -0.364407 0.697847
-0.430469 0.385773 -0.619457 128 128 255 0.635043 -0.331264 0.697843
-0.444792 0.359669 -0.617938 128 128 255 0.651649 -0.297294 0.697832
-0.457725 0.332791 -0.616435 128 128 255 0.666413 -0.262581 0.697815
-0.469230 0.305222 -0.614946 128 128 255 0.679310 -0.227210 0.697792
-0.479271 0.277044 -0.613470 128 128 255 0.690322 -0.191264 0.697763
-0.487819 0.248342 -0.612005 128 128 255 0.699430 -0.154829 0.697729
-0.494848 0.219202 -0.610548 128 128 255 0.706616 -0.117993 0.697690
-0.500336 0.189711 -0.609100 128 128 255 0.711868 -0.080841 0.697645
-0.504268 0.159954 -0.607658 128 128 255 0.715173 -0.043463 0.697595
-0.506632 0.130021 -0.606221 128 128 255 0.716523 -0.005944 0.697539
-0.507421 0.100000 -0.604787 128 128 255 0.742138 0.010319 0.670167
-0.300209 0.100000 -0.763726 128 128 255 0.477469 0.092723 0.873743
-0.299670 0.080146 -0.762295 128 128 255 0.516305 0.087946 0.851877
-0.298054 0.060356 -0.760864 128 128 255 0.511044 0.115853 0.851711
-0.295368 0.040694 -0.759431 128 128 255 0.504270 0.143561 0.851529
-0.291618 0.021223 -0.757995 128 128 255 0.495981 0.171004 0.851329
-0.286818 0.002006 -0.756555 128 128 255 0.486174 0.198118 0.851108
-0.280983 -0.016894 -0.755108 128 128 255 0.474849 0.224834 0.850863
-0.274133 -0.035415 -0.753654 128 128 255 0.462007 0.251082 0.850592
-0.266288 -0.053496 -0.752190 128 128 255 0.447647 0.276796 0.850292
-0.257476 -0.071075 -0.750716 128 128 255 0.431770 0.301904 0.849958
-0.247726 -0.088095 -0.749228 128 128 255 0.414379 0.326336 0.849585
-0.237071 -0.104496 -0.747725 128 128 255 0.395472 0.350020 0.849169
-0.225546 -0.120221 -0.746207 128 128 255 0.375052 0.372881 0.848702
-0.213191 -0.135214 -0.744669 128 128 255 0.353118 0.394844 0.848178
-0.200050 -0.149421 -0.743111 128 128 255 0.329668 0.415833 0.847586
-0.186168 -0.162788 -0.741531 128 128 255 0.304696 0.435766 0.846917
-0.171596 -0.175265 -0.739925 128 128 255 0.278202 0.454557 0.846157
-0.156387 -0.186800 -0.738293 128 128 255 0.250172 0.472119 0.845291
-0.140597 -0.197347 -0.736631 128 128 255 0.220596 0.488357 0.844301
-0.124288 -0.206857 -0.734937 128 128 255 0.189458 0.503170 0.843164
-0.107524 -0.215288 -0.733209 128 128 255 0.156735 0.516446 0.841854
-0.090372 -0.222596 -0.731443 128 128 255 0.122401 0.528065 0.840336
-0.072905 -0.228740 -0.729637 128 128 255 0.086420 0.537894 0.838571
-0.055198 -0.233682 -0.727787 128 128 255 0.048753 0.545780 0.836509
-0.037332 -0.237385 -0.725891 128 128 255 0.009350 0.551553 0.834088
-0.019392 -0.239813 -0.723945 128 128 255 -0.031847 0.555016 0.831230
-0.001467 -0.240935 -0.721945 128 128 255 -0.074902 0.555941 0.827840
0.016347 -0.240720 -0.719887 128 128 255 -0.119889 0.554064 0.823796
0.033950 -0.239139 -0.717768 128 128 255 -0.166880 0.549070 0.818946
0.051235 -0.236166 -0.715583 128 128 255 -0.215951 0.540590 0.813097
0.068088 -0.231776 -0.713327 128 128 255 -0.267168 0.528185 0.806003
0.084386 -0.225947 -0.710997 128 128 255 -0.320572 0.511333 0.797353
0.100000 -0.218660 -0.708586 128 128 255 -0.376150 0.489421 0.786752
0.114788 -0.209895 -0.706091 128 128 255 -0.433823 0.461725 0.773697
0.128599 -0.199639 -0.703505 128 128 255 -0.493368 0.427419 0.757562
0.141267 -0.187878 -0.700823 128 128 255 -0.554363 0.385576 0.737573
0.152613 -0.174602 -0.698039 128 128 255 -0.616083 0.335212 0.712793
0.162437 -0.159803 -0.695149 128 128 255 -0.677384 0.275374 0.682144
0.170522 -0.143478 -0.692146 128 128 255 -0.736559 0.205295 0.644464
0.176626 -0.125628 -0.689026 128 128 255 -0.791270 0.124629 0.598632
0.180478 -0.106257 -0.685785 128 128 255 -0.838579 0.033704 0.543736
0.181776 -0.085377 -0.682420 128 128 255 -0.875047 -0.066038 0.479511
0.180178 -0.063009 -0.678930 128 128 255 -0.897298 -0.171921 0.406570
0.175299 -0.039183 -0.675315 128 128 255 -0.902687 -0.280122 0.326632
0.166700 -0.013944 -0.671580 128 128 255 -0.889999 -0.386164 0.242445
0.153883 0.012645 -0.667735 128 128 255 -0.859840 -0.485709 0.157358
0.136281 0.040494 -0.663797 128 128 255 -0.814493 -0.575346 0.074685
0.113246 0.069482 -0.659792 128 128 255 -0.757306 -0.653054 -0.002889
0.084048 0.099440 -0.655766 128 128 255 -0.691904 -0.718221 -0.073668
0.047864 0.130137 -0.651787 128 128 255 -0.621548 -0.771317 -0.136924
0.003781 0.161263 -0.647927 128 128 255 -0.548811 -0.813428 -0.192721
-0.049191 0.192395 -0.644300 128 128 255 -0.475428 -0.845883 -0.241765
-0.112088 0.222970 -0.641066 128 128 255 -0.402366 -0.869930 -0.285174
-0.185928 0.252237 -0.638442 128 128 255 -0.329968 -0.886538 -0.324301
-0.271595 0.279218 -0.636714 128 128 255 -0.258049 -0.896269 -0.360711
-0.369655 0.302656 -0.636256 128 128 255 -0.185925 -0.899112 -0.396269
-0.480066 0.320989 -0.637533 128 128 255 -0.112450 -0.894245 -0.433221
-0.601782 0.332360 -0.641101 128 128 255 -0.035952 -0.879582 -0.474387
-0.732246 0.334698 -0.647583 128 128 255 0.045843 -0.850870 -0.523372
-0.866865 0.325942 -0.657599 128 128 255 0.135708 -0.799925 -0.584554
-0.998633 0.304414 -0.671652 128 128 255 0.235935 -0.711490 -0.661903
-1.118219 0.269357 -0.689959 128 128 255 0.344208 -0.559813 -0.753744
-1.214826 0.221526 -0.712270 128 128 255 0.442868 -0.315510 -0.839239
-1.277994 0.163577 -0.737748 128 128 255 0.491677 0.011944 -0.870696
-1.299993 0.100000 -0.764985 128 128 255 0.463348 0.334907 -0.820454
-1.277959 0.036424 -0.792218 128 128 255 0.383472 0.570921 -0.725947
-1.214759 -0.021520 -0.817688 128 128 255 0.291150 0.716245 -0.634212
-1.118126 -0.069345 -0.839985 128 128 255 0.204591 0.801045 -0.562555
-0.998527 -0.104394 -0.858271 128 128 255 0.127274 0.850357 -0.510582
-0.866759 -0.125917 -0.872296 128 128 255 0.057797 0.878957 -0.473385
-0.732152 -0.134672 -0.882278 128 128 255 -0.006134 0.894946 -0.446132
-0.601706 -0.132334 -0.888719 128 128 255 -0.066642 0.902762 -0.424947
-0.480009 -0.120968 -0.892242 128 128 255 -0.125525 0.904851 -0.406803
-0.369615 -0.102639 -0.893469 128 128 255 -0.184310 0.902503 -0.389253
-0.271569 -0.079205 -0.892959 128 128 255 -0.244338 0.896253 -0.370175
-0.185912 -0.052228 -0.891177 128 128 255 -0.306814 0.886040 -0.347561
-0.112078 -0.022964 -0.888496 128 128 255 -0.372804 0.871231 -0.319333
-0.049185 0.007609 -0.885205 128 128 255 -0.443163 0.850540 -0.283177
0.003784 0.038739 -0.881519 128 128 255 -0.518280 0.821869 -0.236468
0.047866 0.069864 -0.877600 128 128 255 -0.597669 0.782135 -0.176232
0.084049 0.100560 -0.873564 128 128 255 -0.679205 0.727182 -0.099432
0.113246 0.130517 -0.869507 128 128 255 -0.758013 0.652227 -0.004008
0.136279 0.159504 -0.865479 128 128 255 -0.825769 0.553264 0.109567
0.153882 0.187353 -0.861513 128 128 255 -0.871460 0.429824 0.236237
0.166698 0.213941 -0.857636 128 128 255 -0.885095 0.287879 0.365695
0.175297 0.239179 -0.853866 128 128 255 -0.863098 0.139683 0.485336
0.180176 0.263004 -0.850212 128 128 255 -0.810633 -0.000848 0.585554
0.181773 0.285372 -0.846680 128 128 255 -0.738363 -0.123740 0.662954
0.180476 0.306251 -0.843270 128 128 255 -0.657087 -0.225075 0.719429
0.176624 0.325621 -0.839983 128 128 255 -0.574624 -0.305512 0.759256
0.170520 0.343471 -0.836815 128 128 255 -0.495289 -0.367982 0.786942
0.162435 0.359796 -0.833761 128 128 255 -0.421038 -0.415817 0.806116
0.152611 0.374594 -0.830819 128 128 255 -0.352397 -0.452029 0.819443
0.141266 0.387870 -0.827982 128 128 255 -0.289173 -0.479071 0.828776
0.128598 0.399631 -0.825245 128 128 255 -0.230879 -0.498841 0.835375
0.114788 0.409887 -0.822603 128 128 255 -0.176952 -0.512775 0.840089
0.100000 0.418651 -0.820051 128 128 255 -0.126845 -0.521952 0.843491
0.084387 0.425939 -0.817583 128 128 255 -0.080075 -0.527186 0.845969
0.068088 0.431768 -0.815196 128 128 255 -0.036231 -0.529093 0.847790
0.051236 0.436158 -0.812883 128 128 255 0.005034 -0.528144 0.849140
0.033952 0.439131 -0.810640 128 128 255 0.043997 -0.524704 0.850147
0.016349 0.440713 -0.808464 128 128 255 0.080887 -0.519057 0.850904
-0.001465 0.440928 -0.806350 128 128 255 0.115883 -0.511432 0.851474
-0.019390 0.439806 -0.804293 128 128 255 0.149133 -0.502011 0.851906
-0.037330 0.437378 -0.802292 128 128 255 0.180752 -0.490945 0.852234
-0.055195 0.433676 -0.800341 128 128 255 0.210826 -0.478359 0.852481
-0.072902 0.428734 -0.798438 128 128 255 0.239425 -0.464362 0.852668
-0.090369 0.422590 -0.796580 128 128 255 0.266597 -0.449048 0.852808
-0.107521 0.415283 -0.794763 128 128 255 0.292383 -0.432499 0.852911
-0.124285 0.406853 -0.792986 128 128 255 0.316806 -0.414790 0.852985
-0.140594 0.397342 -0.791244 128 128 255 0.339885 -0.395992 0.853035
-0.156383 0.386796 -0.789537 128 128 255 0.361628 -0.376170 0.853066
-0.171593 0.375261 -0.787861 128 128 255 0.382037 -0.355387 0.853081
-0.186165 0.362785 -0.786215 128 128 255 0.401113 -0.333702 0.853083
-0.200047 0.349418 -0.784595 128 128 255 0.418848 -0.311176 0.853074
-0.213188 0.335212 -0.783000 128 128 255 0.435236 -0.287866 0.853055
-0.225543 0.320219 -0.781429 128 128 255 0.450267 -0.263829 0.853026
-0.237068 0.304494 -0.779878 128 128 255 0.463927 -0.239125 0.852990
-0.247724 0.288094 -0.778347 128 128 255 0.476204 -0.213811 0.852945
-0.257474 0.271074 -0.776833 128 128 255 0.487084 -0.187945 0.852893
-0.266286 0.253495 -0.775336 128 128 255 0.496555 -0.161586 0.852832
-0.274130 0.235414 -0.773852 128 128 255 0.504602 -0.134794 0.852764
-0.280982 0.216894 -0.772381 128 128 255 0.511212 -0.107630 0.852689
-0.286817 0.197994 -0.770920 128 128 255 0.516373 -0.080151 0.852604
-0.291617 0.178777 -0.769469 128 128 255 0.520073 -0.052423 0.852511
-0.295367 0.159306 -0.768026 128 128 255 0.522301 -0.024506 0.852409
-0.298054 0.139644 -0.766588 128 128 255 0.523048 0.003537 0.852296
-0.299669 0.119854 -0.765156 128 128 255 0.522304 0.031642 0.852172
-0.300209 0.100000 -0.763726 128 128 255 0.548233 0.037170 0.835500
-0.058903 0.100000 -0.863646 128 128 255 0.285487 0.354610 0.890364
-0.058654 0.091986 -0.862219 128 128 255 0.310519 0.186453 0.932101
-0.057910 0.084008 -0.860792 128 128 255 0.300559 0.204985 0.931475
-0.056673 0.076101 -0.859363 128 128 255 0.289502 0.223324 0.930760
-0.054948 0.068299 -0.857932 128 128 255 0.277319 0.241429 0.929949
-0.052743 0.060638 -0.856495 128 128 255 0.263979 0.259267 0.929029
-0.050067 0.053153 -0.855053 128 128 255 0.249448 0.276792 0.927988
-0.046932 0.045879 -0.853602 128 128 255 0.233691 0.293956 0.926811
-0.043350 0.038848 -0.852142 128 128 255 0.216664 0.310717 0.925479
-0.039338 0.032097 -0.850670 128 128 255 0.198325 0.327023 0.923972
-0.034913 0.025656 -0.849185 128 128 255 0.178624 0.342816 0.922264
-0.030095 0.019561 -0.847686 128 128 255 0.157502 0.358044 0.920325
-0.024906 0.013842 -0.846169 128 128 255 0.134899 0.372638 0.918119
-0.019371 0.008532 -0.844634 128 128 255 0.110741 0.386530 0.915604
-0.013517 0.003663 -0.843078 128 128 255 0.084947 0.399642 0.912727
-0.007371 -0.000736 -0.841499 128 128 255 0.057423 0.411885 0.909425
-0.000965 -0.004634 -0.839895 128 128 255 0.028065 0.423160 0.905620
0.005666 -0.008003 -0.838264 128 128 255 -0.003245 0.433349 0.901221
0.012487 -0.010813 -0.836604 128 128 255 -0.036653 0.442322 0.896107
0.019459 -0.013037 -0.834910 128 128 255 -0.072305 0.449916 0.890139
0.026540 -0.014647 -0.833183 128 128 255 -0.110379 0.455946 0.883136
0.033685 -0.015618 -0.831417 128 128 255 -0.151069 0.460185 0.874876
0.040847 -0.015925 -0.829611 128 128 255 -0.194584 0.462358 0.865079
0.047975 -0.015541 -0.827761 128 128 255 -0.241153 0.462134 0.853392
0.055013 -0.014444 -0.825865 128 128 255 -0.290998 0.459102 0.839372
0.061903 -0.012609 -0.823918 128 128 255 -0.344337 0.452765 0.822457
0.068581 -0.010016 -0.821917 128 128 255 -0.401324 0.442510 0.801950
0.074981 -0.006641 -0.819858 128 128 255 -0.462033 0.427601 0.776971
0.081027 -0.002465 -0.817738 128 128 255 -0.526337 0.407159 0.746452
0.086643 0.002533 -0.815551 128 128 255 -0.593808 0.380176 0.709125
0.091740 0.008373 -0.813294 128 128 255 -0.663557 0.345554 0.663539
0.096227 0.015074 -0.810961 128 128 255 -0.734019 0.302212 0.608181
0.100000 0.022652 -0.808549 128 128 255 -0.802761 0.249284 0.541694
0.102948 0.031126 -0.806050 128 128 255 -0.866412 0.186419 0.463227
0.104946 0.040511 -0.803462 128 128 255 -0.920816 0.114146 0.372920
0.105859 0.050823 -0.800777 128 128 255 -0.961590 0.034183 0.272353
0.105535 0.062075 -0.797990 128 128 255 -0.985047 -0.050528 0.164709
0.103802 0.074279 -0.795096 128 128 255 -0.989186 -0.136195 0.054429
0.100472 0.087445 -0.792090 128 128 255 -0.974270 -0.218904 -0.053650
0.095329 0.101581 -0.788969 128 128 255 -0.942659 -0.295409 -0.155331
0.088131 0.116689 -0.785732 128 128 255 -0.898011 -0.363651 -0.247657
0.078600 0.132769 -0.782372 128 128 255 -0.844375 -0.422750 -0.329110
0.066423 0.149812 -0.778888 128 128 255 -0.785376 -0.472789 -0.399568
0.051238 0.167800 -0.775280 128 128 255 -0.723865 -0.514453 -0.459736
0.032633 0.186703 -0.771553 128 128 255 -0.661854 -0.548689 -0.510774
0.010132 0.206471 -0.767718 128 128 255 -0.600625 -0.576480 -0.554004
-0.016808 0.227033 -0.763791 128 128 255 -0.540903 -0.598717 -0.590730
-0.048810 0.248284 -0.759799 128 128 255 -0.483012 -0.616130 -0.622160
-0.086585 0.270073 -0.755782 128 128 255 -0.426984 -0.629249 -0.649408
-0.130934 0.292191 -0.751798 128 128 255 -0.372673 -0.638394 -0.673475
-0.182751 0.314346 -0.747931 128 128 255 -0.319912 -0.643758 -0.695148
-0.243006 0.336139 -0.744298 128 128 255 -0.268343 -0.645250 -0.715293
-0.312716 0.357026 -0.741057 128 128 255 -0.217587 -0.642536 -0.734713
-0.392882 0.376282 -0.738425 128 128 255 -0.167228 -0.634965 -0.754224
-0.484370 0.392950 -0.736691 128 128 255 -0.116833 -0.621484 -0.774666
-0.587728 0.405799 -0.736225 128 128 255 -0.065984 -0.600495 -0.796902
-0.702899 0.413292 -0.737494 128 128 255 -0.014348 -0.569682 -0.821740
-0.828823 0.413599 -0.741054 128 128 255 0.038165 -0.525824 -0.849737
-0.962936 0.404680 -0.747529 128 128 255 0.091114 -0.464705 -0.880765
-1.100640 0.384503 -0.757537 128 128 255 0.143021 -0.381473 -0.913249
-1.234933 0.351420 -0.771583 128 128 255 0.190706 -0.272057 -0.943195
-1.356488 0.304704 -0.789883 128 128 255 0.228954 -0.136285 -0.963850
-1.454509 0.245135 -0.812189 128 128 255 0.251566 0.018229 -0.967669
-1.518533 0.175395 -0.837661 128 128 255 0.254359 0.175480 -0.951056
-1.540820 0.100000 -0.864893 128 128 255 0.238041 0.317232 -0.917987
-1.518501 0.024607 -0.892122 128 128 255 0.207767 0.431526 -0.877849
-1.454443 -0.045129 -0.917588 128 128 255 0.169966 0.515591 -0.839808
-1.356389 -0.104690 -0.939883 128 128 255 0.129750 0.572806 -0.809356
-1.234807 -0.151396 -0.958166 128 128 255 0.090251 0.608646 -0.788292
-1.100499 -0.184470 -0.972190 128 128 255 0.053051 0.628350 -0.776120
-0.962794 -0.204640 -0.982171 128 128 255 0.018777 0.636163 -0.771326
-0.828691 -0.213555 -0.988611 128 128 255 -0.012468 0.635321 -0.772148
-0.702784 -0.213247 -0.992134 128 128 255 -0.040851 0.628239 -0.776947
-0.587632 -0.205756 -0.993361 128 128 255 -0.066673 0.616719 -0.784354
-0.484294 -0.192912 -0.992850 128 128 255 -0.090302 0.602108 -0.793291
-0.392823 -0.176249 -0.991068 128 128 255 -0.112132 0.585403 -0.802951
-0.312671 -0.156998 -0.988387 128 128 255 -0.132571 0.567328 -0.812751
-0.242972 -0.136115 -0.985095 128 128 255 -0.152026 0.548393 -0.822286
-0.182725 -0.114327 -0.981409 128 128 255 -0.170913 0.528924 -0.831281
-0.130915 -0.092175 -0.977489 128 128 255 -0.189665 0.509100 -0.839550
-0.086571 -0.070060 -0.973452 128 128 255 -0.208751 0.488956 -0.846962
-0.048800 -0.048273 -0.969380 128 128 255 -0.228782 0.468429 -0.853366
-0.016800 -0.027024 -0.965333 128 128 255 -0.250281 0.447150 -0.858730
0.010138 -0.006464 -0.961350 128 128 255 -0.274174 0.424682 -0.862829
0.032637 0.013303 -0.957459 128 128 255 -0.301831 0.400255 -0.865271
0.051241 0.032204 -0.953676 128 128 255 -0.335354 0.372464 -0.865337
0.066425 0.050190 -0.950010 128 128 255 -0.378381 0.338695 -0.861460
