ply
format ascii 1.0
element vertex 703
property float x
property float y
property float z
property uchar red
property uchar green
property uchar blue
property float nx
property float ny
property float nz
end_header
1.004511 0.739255 0.968368 128 128 255 -0.815689 -0.567637 0.111531
0.918642 0.837120 0.910874 128 128 255 -0.735656 -0.668537 0.108939
0.822358 0.923704 0.856672 128 128 255 -0.645931 -0.753868 0.120232
0.717114 0.997921 0.811385 128 128 255 -0.558724 -0.818580 0.133243
0.604477 1.058869 0.768705 128 128 255 -0.470327 -0.873114 0.128317
0.486099 1.105844 0.718835 128 128 255 -0.363524 -0.924560 0.114192
0.363698 1.138344 0.661600 128 128 255 -0.241250 -0.964185 0.110209
0.239028 1.156080 0.606685 128 128 255 -0.118306 -0.985626 0.120603
0.113856 1.158969 0.560668 128 128 255 -0.008462 -0.990865 0.134593
-0.010066 1.147143 0.518219 128 128 255 0.094674 -0.986793 0.131437
-0.131021 1.120935 0.469230 128 128 255 0.210600 -0.970558 0.116898
-0.247355 1.080879 0.412348 128 128 255 0.334010 -0.935961 0.111424
-0.357497 1.027698 0.356785 128 128 255 0.449033 -0.885325 0.120700
-0.459985 0.962290 0.309986 128 128 255 0.544446 -0.827804 0.135348
-0.553478 0.885713 0.267668 128 128 255 0.627386 -0.767089 0.134020
-0.636781 0.799171 0.219547 128 128 255 0.713662 -0.690261 0.119273
-0.708854 0.703992 0.163109 128 128 255 0.077035 -0.026799 0.996668
0.968828 0.601612 0.106971 128 128 255 0.005716 -0.007296 0.999957
0.908854 0.703992 0.159349 128 128 255 -0.789852 -0.602068 0.116827
0.836781 0.799171 0.217059 128 128 255 -0.724941 -0.678898 0.116437
0.753478 0.885713 0.269783 128 128 255 -0.645236 -0.753535 0.125915
0.659985 0.962290 0.313873 128 128 255 -0.540884 -0.830465 0.133311
0.557497 1.027698 0.357241 128 128 255 -0.425528 -0.895999 0.126929
0.447355 1.080879 0.408763 128 128 255 -0.321129 -0.939855 0.116395
0.331021 1.120935 0.466402 128 128 255 -0.224265 -0.967740 0.114825
0.210066 1.147143 0.519933 128 128 255 -0.118046 -0.985297 0.123514
0.086144 1.158969 0.564630 128 128 255 0.009825 -0.991252 0.131618
-0.039028 1.156080 0.607591 128 128 255 0.143195 -0.981593 0.126375
-0.163698 1.138344 0.658237 128 128 255 0.256222 -0.959685 0.115563
-0.286099 1.105844 0.715705 128 128 255 0.352625 -0.928932 0.112878
-0.404477 1.058869 0.769997 128 128 255 0.449438 -0.885119 0.120708
-0.517114 0.997921 0.815369 128 128 255 0.557580 -0.819975 0.129402
-0.622358 0.923704 0.858016 128 128 255 0.663752 -0.737358 0.125447
-0.718642 0.837120 0.907779 128 128 255 0.746932 -0.654949 0.114604
-0.804511 0.739255 0.964976 128 128 255 0.810335 -0.575366 0.110952
-0.878640 0.631367 1.019973 128 128 255 0.865838 -0.486218 0.117969
-0.939859 0.514871 1.066082 128 128 255 0.918794 -0.373676 0.127215
-0.987170 0.391315 1.108511 128 128 255 0.961347 -0.245480 0.124706
-1.019759 0.262366 1.157393 128 128 255 0.985090 -0.128779 0.114074
-1.037016 0.129783 1.214225 128 128 255 0.993616 -0.026661 0.109618
-1.038539 -0.004608 1.269862 128 128 255 0.990255 0.077191 0.115920
-1.024145 -0.138935 1.316759 128 128 255 0.972052 0.198253 0.125741
-0.993875 -0.271311 1.359069 128 128 255 0.936141 0.328732 0.124802
-0.947993 -0.399856 1.407085 128 128 255 0.890263 0.440805 0.114556
-0.886985 -0.522730 1.463463 128 128 255 0.840154 0.531198 0.109409
-0.811557 -0.638151 1.519666 128 128 255 0.780188 0.614867 0.115089
-0.722620 -0.744428 1.567391 128 128 255 0.699126 0.703896 0.125513
-0.621287 -0.839982 1.609683 128 128 255 0.596809 0.792394 0.126221
-0.508852 -0.923368 1.656860 128 128 255 0.494754 0.861196 0.116447
-0.386780 -0.993300 1.712699 128 128 255 0.476698 0.796451 0.372055
-0.025085 -1.090216 1.711295 128 128 255 0.145979 0.986781 -0.070386
0.115598 -1.090689 1.656668 128 128 255 -0.024371 0.992688 0.118225
0.254662 -1.074692 1.610960 128 128 255 -0.133392 0.982385 0.130867
0.390196 -1.042606 1.568428 128 128 255 -0.235171 0.963697 0.126420
0.520356 -0.995036 1.519074 128 128 255 -0.348097 0.930751 0.111942
0.643390 -0.932792 1.462035 128 128 255 -0.465391 0.878633 0.106841
0.757661 -0.856885 1.406732 128 128 255 -0.571795 0.812171 0.115886
0.861669 -0.768502 1.360263 128 128 255 -0.657785 0.742005 0.129416
0.954071 -0.668996 1.317902 128 128 255 -0.731410 0.669976 0.127165
1.033700 -0.559862 1.269425 128 128 255 -0.806028 0.580998 0.112959
1.099577 -0.442715 1.212792 128 128 255 -0.874570 0.472986 0.106822
1.150923 -0.319266 1.156883 128 128 255 -0.926641 0.357935 0.114973
1.187174 -0.191298 1.109606 128 128 255 -0.959485 0.250357 0.129265
1.207980 -0.060640 1.067317 128 128 255 -0.980251 0.149753 0.129162
1.213210 0.070858 1.019695 128 128 255 -0.992693 0.035857 0.115213
1.202957 0.201356 0.963556 128 128 255 -0.989941 -0.091479 0.107931
1.177525 0.329044 0.907119 128 128 255 -0.969410 -0.216796 0.115080
1.137433 0.452170 0.858998 128 128 255 -0.936436 -0.325897 0.129917
1.083397 0.569065 0.816679 128 128 255 -0.897475 -0.420887 0.131877
1.016324 0.678167 0.769881 128 128 255 -0.845267 -0.521109 0.118194
0.937293 0.778037 0.714318 128 128 255 -0.772843 -0.625053 0.109646
0.847541 0.867384 0.657436 128 128 255 -0.685926 -0.718428 0.115612
0.748442 0.945078 0.608447 128 128 255 -0.596723 -0.791732 0.130700
0.641484 1.010167 0.565998 128 128 255 -0.511207 -0.848851 0.134609
0.528251 1.061885 0.519981 128 128 255 -0.413466 -0.902404 0.121294
0.410397 1.099666 0.465066 128 128 255 -0.296341 -0.948561 0.111416
0.289621 1.123144 0.407831 128 128 255 -0.171798 -0.978276 0.116020
0.167644 1.132159 0.357961 128 128 255 -0.055451 -0.989826 0.131036
0.046183 1.126757 0.315281 128 128 255 0.047781 -0.989448 0.136780
-0.073073 1.107186 0.269994 128 128 255 0.157290 -0.979730 0.124048
-0.188486 1.073890 0.215791 128 128 255 0.279491 -0.953488 0.112898
-0.298492 1.027499 0.158298 128 128 255 0.150757 -0.224590 0.962721
0.601622 0.968822 0.107544 128 128 255 0.011502 -0.054542 0.998445
0.498492 1.027499 0.164539 128 128 255 -0.393094 -0.912235 0.115345
0.388486 1.073890 0.219920 128 128 255 -0.295084 -0.947613 0.122286
0.273073 1.107186 0.266484 128 128 255 -0.175270 -0.975590 0.132303
0.153817 1.126757 0.308831 128 128 255 -0.040934 -0.990597 0.130545
0.032356 1.132159 0.357204 128 128 255 0.079363 -0.989657 0.119498
-0.089621 1.123144 0.413781 128 128 255 0.181509 -0.976736 0.114203
-0.210397 1.099666 0.469758 128 128 255 0.281687 -0.951961 0.120093
-0.328251 1.061885 0.517136 128 128 255 0.395021 -0.909388 0.130273
-0.441484 1.010167 0.559423 128 128 255 0.515144 -0.847218 0.129804
-0.548441 0.945078 0.606944 128 128 255 0.616298 -0.778475 0.118968
-0.647541 0.867384 0.663016 128 128 255 0.694789 -0.710328 0.112702
-0.737293 0.778037 0.719512 128 128 255 0.763770 -0.634702 0.117507
-0.816324 0.678167 0.767737 128 128 255 0.833232 -0.537974 0.127700
-0.883397 0.569065 0.810067 128 128 255 0.898503 -0.419720 0.128555
-0.937433 0.452170 0.856768 128 128 255 0.945143 -0.304529 0.118182
-0.977525 0.329044 0.912256 128 128 255 0.972822 -0.203149 0.111123
-1.002957 0.201356 0.969185 128 128 255 0.988062 -0.102606 0.114912
-1.013210 0.070858 1.018281 128 128 255 0.992042 0.014440 0.125079
-1.007980 -0.060640 1.060753 128 128 255 0.980671 0.148566 0.127327
-0.987174 -0.191298 1.106678 128 128 255 0.955042 0.272120 0.117666
-0.950923 -0.319266 1.161510 128 128 255 0.921284 0.373006 0.110006
-0.899577 -0.442715 1.218781 128 128 255 0.878293 0.464601 0.112907
-0.833700 -0.559862 1.268759 128 128 255 0.817600 0.562478 0.123079
-0.754071 -0.668996 1.311473 128 128 255 0.734097 0.667102 0.126790
-0.661669 -0.768502 1.356676 128 128 255 0.642844 0.756848 0.118038
-0.557661 -0.856885 1.410788 128 128 255 0.557572 0.822820 0.109915
-0.443390 -0.932792 1.468306 128 128 255 0.471216 0.874873 0.112035
-0.320356 -0.995036 1.519167 128 128 255 0.368095 0.921714 0.122265
-0.190196 -1.042606 1.562218 128 128 255 0.241508 0.961988 0.127484
-0.054662 -1.074692 1.606761 128 128 255 0.114141 0.986220 0.119761
0.084402 -1.090689 1.660099 128 128 255 0.005037 0.993783 0.111221
0.225085 -1.090216 1.717765 128 128 255 0.017764 0.934737 0.354895
-0.603435 -0.868215 1.707294 128 128 255 0.618723 0.781544 -0.079818
-0.481836 -0.938966 1.658667 128 128 255 0.477422 0.869302 0.127990
-0.353404 -0.994644 1.616284 128 128 255 0.384746 0.913777 0.130315
-0.219985 -1.034624 1.569950 128 128 255 0.279774 0.952965 0.116549
-0.083478 -1.058507 1.514757 128 128 255 0.156895 0.981801 0.107011
0.054194 -1.066119 1.457658 128 128 255 0.029468 0.993316 0.111605
0.191109 -1.057517 1.408153 128 128 255 -0.086912 0.988248 0.125747
0.325374 -1.032979 1.365581 128 128 255 -0.188976 0.973309 0.130224
0.455150 -0.993006 1.319999 128 128 255 -0.296519 0.947768 0.117527
0.578677 -0.938307 1.265494 128 128 255 -0.413976 0.903952 0.107215
0.694302 -0.869793 1.208095 128 128 255 -0.526810 0.842740 0.110730
0.800494 -0.788556 1.157707 128 128 255 -0.621960 0.773024 0.124898
0.895872 -0.695858 1.114848 128 128 255 -0.698687 0.703253 0.131423
0.979219 -0.593108 1.069961 128 128 255 -0.772801 0.623237 0.119811
1.049498 -0.481842 1.016201 128 128 255 -0.845713 0.522463 0.108636
1.105867 -0.363701 0.958602 128 128 255 -0.905878 0.408739 0.110982
1.147686 -0.240404 0.907335 128 128 255 -0.946779 0.296617 0.125013
1.174528 -0.113728 0.864096 128 128 255 -0.971651 0.195176 0.133419
1.186179 0.014525 0.819835 128 128 255 -0.988435 0.088813 0.122916
1.182643 0.142546 0.766871 128 128 255 -0.993249 -0.034383 0.110788
1.164136 0.268551 0.709171 128 128 255 -0.980343 -0.162562 0.111810
1.131081 0.390804 0.657041 128 128 255 -0.951825 -0.279802 0.125454
1.084106 0.507639 0.613333 128 128 255 -0.915538 -0.378717 0.135515
1.024022 0.617486 0.569624 128 128 255 -0.870759 -0.475240 0.126201
0.951819 0.718892 0.517495 128 128 255 -0.807128 -0.579442 0.113100
0.868644 0.810538 0.459795 128 128 255 -0.725375 -0.679073 0.112652
0.775788 0.891258 0.406831 128 128 255 -0.635707 -0.761639 0.125630
0.674661 0.960054 0.362570 128 128 255 -0.549550 -0.824137 0.137088
0.566771 1.016106 0.319331 128 128 255 -0.459535 -0.878724 0.129120
0.453707 1.058785 0.268064 128 128 255 -0.349987 -0.929649 0.115158
0.337108 1.087656 0.210465 128 128 255 -0.226800 -0.967344 0.113171
0.218645 1.102484 0.156705 128 128 255 -0.067346 -0.430679 0.899989
0.100007 1.103233 0.111818 128 128 255 0.130073 -0.558397 0.819313
-0.018645 1.102484 0.168959 128 128 255 0.105738 -0.987238 0.119078
-0.137108 1.087656 0.218570 128 128 255 0.219703 -0.966898 0.129765
-0.253707 1.058785 0.261172 128 128 255 0.348001 -0.928013 0.132995
-0.366771 1.016106 0.306667 128 128 255 0.464556 -0.876911 0.123345
-0.474661 0.960054 0.361084 128 128 255 0.556975 -0.822544 0.114897
-0.575788 0.891258 0.418512 128 128 255 0.637352 -0.761603 0.117228
-0.668644 0.810538 0.469008 128 128 255 0.719462 -0.682719 0.127555
-0.751819 0.718892 0.511908 128 128 255 0.803989 -0.579826 0.131921
-0.824022 0.617486 0.556716 128 128 255 0.873446 -0.471132 0.122993
-0.884106 0.507639 0.610381 128 128 255 0.920734 -0.373214 0.113841
-0.931081 0.390804 0.667997 128 128 255 0.953642 -0.278104 0.114997
-0.964136 0.268551 0.719371 128 128 255 0.977735 -0.168681 0.124823
-0.982643 0.142546 0.762662 128 128 255 0.990780 -0.037293 0.130245
-0.986179 0.014525 0.806851 128 128 255 0.988108 0.093254 0.122251
-0.974528 -0.113728 0.859716 128 128 255 0.972773 0.202565 0.112604
-0.947686 -0.240404 0.917421 128 128 255 0.947300 0.299875 0.112684
-0.905867 -0.363701 0.969654 128 128 255 0.907191 0.402647 0.121986
-0.849498 -0.481842 1.013425 128 128 255 0.845700 0.517971 0.128447
-0.779219 -0.593108 1.057072 128 128 255 0.770136 0.626179 0.121612
-0.695872 -0.695858 1.109099 128 128 255 0.695459 0.709831 0.111695
-0.600494 -0.788556 1.166792 128 128 255 0.620112 0.776643 0.110845
-0.494302 -0.869793 1.219855 128 128 255 0.530990 0.838883 0.119684
-0.378677 -0.938307 1.264187 128 128 255 0.417155 0.899889 0.127209
-0.255150 -0.993006 1.307376 128 128 255 0.293097 0.948304 0.121715
-0.125374 -1.032979 1.358537 128 128 255 0.182735 0.976796 0.111701
0.008891 -1.057517 1.416117 128 128 255 0.082690 0.990481 0.110041
0.145806 -1.066119 1.469970 128 128 255 -0.024483 0.992652 0.118501
0.283478 -1.058507 1.514938 128 128 255 -0.151311 0.980279 0.127117
0.419986 -1.034624 1.557757 128 128 255 -0.282275 0.951405 0.123082
0.553404 -0.994644 1.608038 128 128 255 -0.391667 0.913135 0.113057
0.681836 -0.938966 1.665405 128 128 255 -0.482824 0.868701 0.110632
0.803435 -0.868215 1.719997 128 128 255 -0.446141 0.819103 0.360594
-0.993300 -0.386782 1.707152 128 128 255 0.927678 0.362906 -0.087828
-0.923368 -0.508854 1.663649 128 128 255 0.852374 0.505948 0.132190
-0.839981 -0.621288 1.619721 128 128 255 0.794043 0.595522 0.121855
-0.744427 -0.722621 1.567242 128 128 255 0.715749 0.689815 0.108898
-0.638150 -0.811558 1.509529 128 128 255 0.620481 0.776668 0.108585
-0.522729 -0.886986 1.456907 128 128 255 0.520246 0.845404 0.120980
-0.399855 -0.947994 1.412885 128 128 255 0.426418 0.894978 0.131084
-0.271309 -0.993876 1.369462 128 128 255 0.329100 0.936309 0.122554
-0.138933 -1.024146 1.317834 128 128 255 0.212837 0.970957 0.109286
-0.004606 -1.038539 1.260181 128 128 255 0.085404 0.990491 0.107861
0.129784 -1.037016 1.206746 128 128 255 -0.037334 0.992107 0.119711
0.262368 -1.019759 1.162127 128 128 255 -0.144057 0.980817 0.131321
0.391317 -0.987169 1.119121 128 128 255 -0.246880 0.961002 0.124604
0.514872 -0.939858 1.068368 128 128 255 -0.361549 0.925726 0.110970
0.631369 -0.878639 1.010874 128 128 255 -0.478351 0.871459 0.108351
0.739256 -0.804510 0.956671 128 128 255 -0.582296 0.804139 0.119548
0.837121 -0.718641 0.911385 128 128 255 -0.665608 0.734452 0.132461
0.923705 -0.622357 0.868705 128 128 255 -0.739270 0.661219 0.127549
0.997921 -0.517113 0.818835 128 128 255 -0.814210 0.569367 0.113503
1.058869 -0.404475 0.761600 128 128 255 -0.881284 0.459714 0.109549
1.105844 -0.286098 0.706684 128 128 255 -0.930854 0.345160 0.119898
1.138345 -0.163697 0.660668 128 128 255 -0.961613 0.239557 0.133835
1.156080 -0.039027 0.618218 128 128 255 -0.981723 0.138312 0.130727
1.158969 0.086146 0.569230 128 128 255 -0.992975 0.021801 0.116299
1.147142 0.210067 0.512348 128 128 255 -0.988134 -0.106278 0.110889
1.120934 0.331022 0.456785 128 128 255 -0.965753 -0.229961 0.120163
1.080879 0.447356 0.409986 128 128 255 -0.932098 -0.336188 0.134799
1.027698 0.557499 0.367667 128 128 255 -0.892413 -0.431012 0.133522
0.962289 0.659986 0.319547 128 128 255 -0.837835 -0.532825 0.118870
0.885712 0.753479 0.263109 128 128 255 -0.763177 -0.636415 0.111973
0.799170 0.836782 0.206971 128 128 255 -0.675490 -0.727540 0.119997
0.703991 0.908854 0.159349 128 128 255 -0.061725 -0.049924 0.996844
-0.401610 0.968829 0.117060 128 128 255 0.025773 -0.058029 0.997982
-0.503991 0.908854 0.169783 128 128 255 0.582065 -0.803273 0.126303
-0.599170 0.836782 0.213873 128 128 255 0.681210 -0.719764 0.133763
-0.685712 0.753479 0.257241 128 128 255 0.771862 -0.622895 0.127401
-0.762289 0.659986 0.308763 128 128 255 0.838884 -0.531615 0.116872
-0.827698 0.557499 0.366402 128 128 255 0.888604 -0.443937 0.115337
-0.880879 0.447356 0.419933 128 128 255 0.930449 -0.344763 0.124108
-0.920934 0.331022 0.464630 128 128 255 0.966069 -0.221831 0.132293
-0.947142 0.210067 0.507591 128 128 255 0.987813 -0.089896 0.127061
-0.958969 0.086146 0.558237 128 128 255 0.992905 0.025125 0.116221
-0.956080 -0.039027 0.615705 128 128 255 0.985506 0.126039 0.113542
-0.938345 -0.163697 0.669997 128 128 255 0.965493 0.230383 0.121434
-0.905844 -0.286098 0.715370 128 128 255 0.927388 0.350718 0.130184
-0.858869 -0.404475 0.758016 128 128 255 0.871848 0.473237 0.126202
-0.797921 -0.517113 0.807779 128 128 255 0.811146 0.573368 0.115284
-0.723705 -0.622357 0.864976 128 128 255 0.748571 0.653597 0.111588
-0.637121 -0.718641 0.919973 128 128 255 0.674850 0.728361 0.118608
-0.539256 -0.804510 0.966082 128 128 255 0.577792 0.806108 0.127856
-0.431369 -0.878639 1.008511 128 128 255 0.463084 0.877416 0.125274
-0.314872 -0.939858 1.057393 128 128 255 0.355155 0.927765 0.114531
-0.191317 -0.987169 1.114225 128 128 255 0.257853 0.959903 0.109988
-0.062368 -1.019759 1.169863 128 128 255 0.156098 0.980880 0.116227
0.070216 -1.037016 1.216759 128 128 255 0.034144 0.991446 0.125974
0.204606 -1.038539 1.259069 128 128 255 -0.101110 0.987000 0.124927
0.338933 -1.024146 1.307085 128 128 255 -0.220805 0.968566 0.114568
0.471309 -0.993876 1.363463 128 128 255 -0.320404 0.940952 0.109317
0.599855 -0.947994 1.419666 128 128 255 -0.415762 0.902189 0.114879
0.722729 -0.886986 1.467391 128 128 255 -0.521263 0.844168 0.125161
0.838150 -0.811558 1.509683 128 128 255 -0.631216 0.765347 0.125741
0.944427 -0.722621 1.556860 128 128 255 -0.721952 0.682169 0.115888
1.039981 -0.621288 1.612699 128 128 255 -0.790070 0.603069 0.109988
1.123368 -0.508854 1.669386 128 128 255 -0.847319 0.518499 0.114932
1.193300 -0.386782 1.717969 128 128 255 -0.784052 0.485236 0.387051
-1.090216 0.225084 1.710960 128 128 255 0.983817 -0.156700 -0.086888
-1.090689 0.084400 1.668427 128 128 255 0.991892 0.003705 0.127029
-1.074692 -0.054664 1.619074 128 128 255 0.986248 0.121192 0.112369
-1.042606 -0.190198 1.562035 128 128 255 0.962969 0.247407 0.107143
-0.995035 -0.320358 1.506732 128 128 255 0.923190 0.366389 0.116098
-0.932792 -0.443391 1.460263 128 128 255 0.875045 0.466390 0.129525
-0.856884 -0.557662 1.417902 128 128 255 0.822208 0.554802 0.127152
-0.768501 -0.661670 1.369424 128 128 255 0.753121 0.648132 0.112846
-0.668995 -0.754072 1.312792 128 128 255 0.664103 0.739999 0.106624
-0.559861 -0.833701 1.256883 128 128 255 0.564388 0.817506 0.114670
-0.442714 -0.899577 1.209606 128 128 255 0.467449 0.874582 0.128833
-0.319264 -0.950924 1.167317 128 128 255 0.374470 0.918271 0.128648
-0.191296 -0.987175 1.119694 128 128 255 0.266628 0.956952 0.114688
-0.060639 -1.007980 1.063556 128 128 255 0.142165 0.984000 0.107388
0.070860 -1.013210 1.007119 128 128 255 0.015506 0.993307 0.114458
0.201358 -1.002956 0.958998 128 128 255 -0.098302 0.986737 0.129181
0.329045 -0.977525 0.916679 128 128 255 -0.199775 0.971031 0.131103
0.452171 -0.937432 0.869881 128 128 255 -0.309408 0.943644 0.117484
0.569067 -0.883396 0.814318 128 128 255 -0.427385 0.897477 0.108983
0.678168 -0.816323 0.757436 128 128 255 -0.538488 0.834759 0.114922
0.778038 -0.737292 0.708447 128 128 255 -0.630622 0.765135 0.129937
0.867385 -0.647540 0.665998 128 128 255 -0.706138 0.695308 0.133850
0.945079 -0.548440 0.619981 128 128 255 -0.781010 0.612756 0.120637
1.010167 -0.441482 0.565066 128 128 255 -0.853221 0.509635 0.110845
1.061886 -0.328250 0.507831 128 128 255 -0.911197 0.395460 0.115465
1.099666 -0.210396 0.457961 128 128 255 -0.949606 0.285007 0.130455
1.123144 -0.089620 0.415281 128 128 255 -0.973341 0.184527 0.136225
1.132159 0.032357 0.369994 128 128 255 -0.989436 0.075776 0.123588
1.126757 0.153818 0.315791 128 128 255 -0.992433 -0.049171 0.112515
1.107186 0.273074 0.258298 128 128 255 -0.977442 -0.176705 0.115681
1.073889 0.388487 0.207544 128 128 255 -0.947716 -0.291274 0.130359
1.027499 0.498493 0.164539 128 128 255 -0.047140 -0.009794 0.998840
-0.768822 0.601623 0.119920 128 128 255 0.003589 -0.004569 0.999983
-0.827499 0.498493 0.166485 128 128 255 0.907669 -0.398152 0.132709
-0.873889 0.388487 0.208831 128 128 255 0.953615 -0.271035 0.130987
-0.907186 0.273074 0.257204 128 128 255 0.980789 -0.153837 0.119944
-0.926757 0.153818 0.313781 128 128 255 0.992068 -0.051496 0.114671
-0.932159 0.032357 0.369758 128 128 255 0.991351 0.051684 0.120628
-0.923144 -0.089620 0.417136 128 128 255 0.976396 0.171801 0.130898
-0.899666 -0.210396 0.459423 128 128 255 0.943983 0.303106 0.130470
-0.861886 -0.328250 0.506944 128 128 255 0.900761 0.417519 0.119615
-0.810167 -0.441482 0.563016 128 128 255 0.852823 0.509751 0.113344
-0.745079 -0.548440 0.619513 128 128 255 0.795389 0.594463 0.118198
-0.667385 -0.647540 0.667737 128 128 255 0.717551 0.684556 0.128466
-0.578038 -0.737292 0.710067 128 128 255 0.617811 0.775617 0.129333
-0.478168 -0.816323 0.756768 128 128 255 0.516699 0.847872 0.118895
-0.369067 -0.883396 0.812256 128 128 255 0.424586 0.898461 0.111782
-0.252171 -0.937432 0.869186 128 128 255 0.330390 0.936742 0.115571
-0.129045 -0.977525 0.918281 128 128 255 0.217525 0.967920 0.125756
-0.001358 -1.002956 0.960753 128 128 255 0.084465 0.988175 0.127967
0.129140 -1.013210 1.006678 128 128 255 -0.041659 0.992115 0.118204
0.260639 -1.007980 1.061510 128 128 255 -0.147640 0.982855 0.110448
0.391297 -0.987175 1.118782 128 128 255 -0.246732 0.962439 0.113287
0.519264 -0.950924 1.168759 128 128 255 -0.356060 0.926279 0.123403
0.642714 -0.899577 1.211473 128 128 255 -0.477283 0.869520 0.127024
0.759861 -0.833701 1.256676 128 128 255 -0.585864 0.801750 0.118156
0.868995 -0.754072 1.310788 128 128 255 -0.669930 0.734241 0.109926
0.968501 -0.661670 1.368306 128 128 255 -0.740711 0.662432 0.111940
1.056884 -0.557662 1.419167 128 128 255 -0.810341 0.573109 0.122043
1.132792 -0.443391 1.462218 128 128 255 -0.879070 0.459429 0.127127
1.195035 -0.320358 1.506761 128 128 255 -0.932377 0.341233 0.119305
1.242606 -0.190198 1.560099 128 128 255 -0.965208 0.236902 0.110686
1.274691 -0.054664 1.617765 128 128 255 -0.984079 0.138046 0.111943
1.290689 0.084400 1.669497 128 128 255 -0.992157 0.026920 0.122068
1.290216 0.225084 1.712977 128 128 255 -0.906372 0.029625 0.421440
-0.868216 0.803433 1.716284 128 128 255 0.771998 -0.630820 -0.078007
-0.938967 0.681835 1.669949 128 128 255 0.861265 -0.494477 0.117111
-0.994645 0.553403 1.614757 128 128 255 0.918005 -0.381743 0.107420
-1.034625 0.419984 1.557657 128 128 255 0.958956 -0.260532 0.111920
-1.058507 0.283477 1.508153 128 128 255 0.981203 -0.146184 0.125976
-1.066120 0.145805 1.465581 128 128 255 0.990518 -0.043454 0.130333
-1.057517 0.008889 1.419999 128 128 255 0.990803 0.067073 0.117516
-1.032979 -0.125376 1.365493 128 128 255 0.975629 0.191509 0.107107
-0.993005 -0.255151 1.308095 128 128 255 0.942460 0.315522 0.110525
-0.938307 -0.378679 1.257707 128 128 255 0.896895 0.424337 0.124570
-0.869792 -0.494303 1.214848 128 128 255 0.846973 0.515247 0.130984
-0.788555 -0.600495 1.169960 128 128 255 0.786470 0.605991 0.119333
-0.695857 -0.695873 1.116201 128 128 255 0.705501 0.700410 0.108141
-0.593107 -0.779220 1.058602 128 128 255 0.608964 0.785474 0.110424
-0.481841 -0.849499 1.007335 128 128 255 0.509484 0.851449 0.124339
-0.363699 -0.905867 0.964096 128 128 255 0.416645 0.899337 0.132664
-0.240403 -0.947686 0.919835 128 128 255 0.317134 0.940476 0.122193
-0.113726 -0.974528 0.866871 128 128 255 0.198462 0.973902 0.110121
0.014526 -0.986179 0.809171 128 128 255 0.070803 0.991280 0.111135
0.142547 -0.982643 0.757041 128 128 255 -0.049878 0.990939 0.124706
0.268552 -0.964135 0.713333 128 128 255 -0.154552 0.978756 0.134726
0.390805 -0.931081 0.669624 128 128 255 -0.258858 0.957729 0.125487
0.507640 -0.884105 0.617495 128 128 255 -0.375027 0.920164 0.112488
0.617487 -0.824021 0.559794 128 128 255 -0.490997 0.863922 0.112074
0.718893 -0.751818 0.506831 128 128 255 -0.592236 0.796005 0.125030
0.810539 -0.668643 0.462570 128 128 255 -0.673140 0.726811 0.136482
0.891259 -0.575787 0.419331 128 128 255 -0.747221 0.652015 0.128594
0.960055 -0.474660 0.368064 128 128 255 -0.822295 0.557376 0.114729
1.016107 -0.366770 0.310465 128 128 255 -0.887704 0.446386 0.112788
1.058786 -0.253706 0.256705 128 128 255 -0.934738 0.332673 0.124877
1.087657 -0.137107 0.211817 128 128 255 -0.963675 0.228958 0.137507
1.102484 -0.018644 0.168959 128 128 255 -0.049647 0.001986 0.998765
-0.903233 0.100008 0.118570 128 128 255 -0.003072 0.000377 0.999995
-0.902484 -0.018644 0.161172 128 128 255 0.983557 0.121738 0.133404
-0.887657 -0.137107 0.206667 128 128 255 0.961078 0.247007 0.123763
-0.858786 -0.253706 0.261084 128 128 255 0.929786 0.349569 0.115327
-0.816107 -0.366770 0.318512 128 128 255 0.889288 0.441940 0.117708
-0.760055 -0.474660 0.369008 128 128 255 0.831746 0.540169 0.128122
-0.691259 -0.575787 0.411908 128 128 255 0.751429 0.646362 0.132553
-0.610539 -0.668643 0.456716 128 128 255 0.661956 0.739277 0.123626
-0.518893 -0.751818 0.510381 128 128 255 0.577784 0.808124 0.114462
-0.417487 -0.824021 0.567997 128 128 255 0.492989 0.862315 0.115652
-0.307640 -0.884105 0.619371 128 128 255 0.392226 0.911260 0.125556
-0.190805 -0.931081 0.662662 128 128 255 0.267529 0.954600 0.131025
-0.068552 -0.964135 0.706851 128 128 255 0.139971 0.982487 0.122992
0.057453 -0.982643 0.759716 128 128 255 0.030099 0.993107 0.113285
0.185474 -0.986179 0.817422 128 128 255 -0.070460 0.991053 0.113352
0.313726 -0.974528 0.869654 128 128 255 -0.179734 0.976035 0.122684
0.440403 -0.947686 0.913426 128 128 255 -0.306205 0.943165 0.129143
0.563699 -0.905867 0.957072 128 128 255 -0.429066 0.894966 0.122224
0.681841 -0.849499 1.009099 128 128 255 -0.527850 0.841893 0.112206
0.793107 -0.779220 1.066792 128 128 255 -0.610404 0.784233 0.111289
0.895857 -0.695873 1.119855 128 128 255 -0.691718 0.712113 0.120087
0.988555 -0.600495 1.164188 128 128 255 -0.777607 0.615678 0.127544
1.069792 -0.494303 1.207376 128 128 255 -0.853658 0.506359 0.121939
1.138307 -0.378679 1.258537 128 128 255 -0.907142 0.405699 0.111813
1.193005 -0.255151 1.316117 128 128 255 -0.943813 0.311617 0.110052
1.232979 -0.125376 1.369970 128 128 255 -0.970953 0.207921 0.118401
1.257517 0.008889 1.414938 128 128 255 -0.988546 0.081715 0.126886
1.266120 0.145805 1.457757 128 128 255 -0.991056 -0.052378 0.122736
1.258507 0.283477 1.508038 128 128 255 -0.979385 -0.167692 0.112626
1.234625 0.419984 1.565405 128 128 255 -0.957467 -0.266710 0.110100
1.194645 0.553403 1.619997 128 128 255 -0.922824 -0.366684 0.118063
1.138967 0.681835 1.665668 128 128 255 -0.868108 -0.479698 0.127585
1.068216 0.803433 1.708212 128 128 255 -0.790292 -0.426708 0.439726
-0.386783 1.193299 1.719721 128 128 255 0.355099 -0.932274 -0.069059
-0.508855 1.123367 1.667242 128 128 255 0.503635 -0.856959 0.109424
-0.621289 1.039980 1.609529 128 128 255 0.610330 -0.784612 0.109000
-0.722622 0.944426 1.556907 128 128 255 0.700568 -0.703197 0.121321
-0.811559 0.838149 1.512885 128 128 255 0.770683 -0.623541 0.131322
-0.886987 0.722727 1.469461 128 128 255 0.833601 -0.538576 0.122658
-0.947994 0.599854 1.417834 128 128 255 0.894442 -0.433627 0.109274
-0.993876 0.471308 1.360181 128 128 255 0.943195 -0.314280 0.107754
-1.024146 0.338932 1.306746 128 128 255 0.973436 -0.195306 0.119490
-1.038539 0.204605 1.262127 128 128 255 0.987393 -0.088888 0.130975
-1.037016 0.070214 1.219121 128 128 255 0.992134 0.015720 0.124186
-1.019759 -0.062369 1.168368 128 128 255 0.984600 0.135452 0.110526
-0.987169 -0.191318 1.110874 128 128 255 0.959104 0.261700 0.107856
-0.939858 -0.314874 1.056671 128 128 255 0.917922 0.378510 0.118948
-0.878638 -0.431370 1.011384 128 128 255 0.869621 0.475816 0.131749
-0.804509 -0.539257 0.968705 128 128 255 0.815603 0.564542 0.126825
-0.718641 -0.637122 0.918835 128 128 255 0.743772 0.658841 0.112834
-0.622356 -0.723706 0.861600 128 128 255 0.652802 0.749662 0.108890
-0.517112 -0.797922 0.806684 128 128 255 0.552979 0.824628 0.119176
-0.404474 -0.858870 0.760668 128 128 255 0.457464 0.879220 0.133039
-0.286097 -0.905845 0.718218 128 128 255 0.363701 0.922405 0.129964
-0.163696 -0.938345 0.669230 128 128 255 0.253032 0.960522 0.115640
-0.039025 -0.956080 0.612348 128 128 255 0.127356 0.985706 0.110288
0.086147 -0.958969 0.556785 128 128 255 0.001849 0.992827 0.119549
0.210069 -0.947142 0.509986 128 128 255 -0.109323 0.984912 0.134156
0.331024 -0.920934 0.467667 128 128 255 -0.210797 0.968449 0.132931
0.447357 -0.880878 0.419547 128 128 255 -0.322526 0.939128 0.118385
0.557500 -0.827697 0.363109 128 128 255 -0.440679 0.890706 0.111555
0.659987 -0.762288 0.306971 128 128 255 -0.549770 0.826711 0.119591
0.753480 -0.685711 0.259349 128 128 255 -0.638929 0.757394 0.134624
0.836783 -0.599169 0.217059 128 128 255 -0.713761 0.687200 0.135283
0.908855 -0.503990 0.169783 128 128 255 -0.071003 0.024684 0.997171
-0.768830 -0.401609 0.113873 128 128 255 -0.008193 0.003852 0.999959
-0.708855 -0.503990 0.157241 128 128 255 0.785828 0.605098 0.127793
-0.636783 -0.599169 0.208763 128 128 255 0.712713 0.691583 0.117269
-0.553480 -0.685711 0.266402 128 128 255 0.639064 0.760391 0.115769
-0.459987 -0.762288 0.319933 128 128 255 0.552402 0.824210 0.124616
-0.357500 -0.827697 0.364630 128 128 255 0.441191 0.887520 0.132882
-0.247357 -0.880878 0.407591 128 128 255 0.317983 0.939461 0.127671
-0.131024 -0.920934 0.458238 128 128 255 0.207325 0.971272 0.116820
-0.010069 -0.947142 0.515705 128 128 255 0.107476 0.987632 0.114161
0.113853 -0.958969 0.569997 128 128 255 0.001361 0.992514 0.122125
0.239025 -0.956080 0.615370 128 128 255 -0.124520 0.983538 0.130948
0.363696 -0.938345 0.658016 128 128 255 -0.256612 0.958140 0.126959
0.486097 -0.905845 0.707779 128 128 255 -0.368153 0.922502 0.115984
0.604474 -0.858870 0.764976 128 128 255 -0.460772 0.880390 0.112263
0.717112 -0.797922 0.819974 128 128 255 -0.550659 0.826159 0.119311
0.822356 -0.723706 0.866082 128 128 255 -0.648890 0.749938 0.128585
0.918640 -0.637122 0.908511 128 128 255 -0.745006 0.655059 0.125954
1.004509 -0.539257 0.957393 128 128 255 -0.819174 0.561875 0.115109
1.078638 -0.431370 1.014225 128 128 255 -0.873146 0.474770 0.110492
1.139858 -0.314874 1.069863 128 128 255 -0.917291 0.380736 0.116693
1.187169 -0.191318 1.116759 128 128 255 -0.956029 0.264635 0.126397
1.219759 -0.062369 1.159069 128 128 255 -0.983292 0.132088 0.125258
1.237016 0.070214 1.207085 128 128 255 -0.993326 0.011393 0.114780
1.238539 0.204605 1.263463 128 128 255 -0.989737 -0.091902 0.109426
1.224146 0.338932 1.319666 128 128 255 -0.974316 -0.193670 0.114890
1.193876 0.471308 1.367391 128 128 255 -0.942543 -0.309798 0.125055
1.147994 0.599854 1.409683 128 128 255 -0.891581 -0.435121 0.125513
1.086987 0.722727 1.456860 128 128 255 -0.831886 -0.542780 0.115563
1.011559 0.838149 1.512699 128 128 255 -0.770876 -0.627491 0.109568
0.922622 0.944426 1.569386 128 128 255 -0.702018 -0.702914 0.114380
0.821289 1.039980 1.617969 128 128 255 -0.612587 -0.780451 0.125031
0.708855 1.123367 1.660346 128 128 255 -0.500862 -0.856138 0.127142
0.586783 1.193299 1.706719 128 128 255 -0.468653 -0.773924 0.425918
0.225082 1.290216 1.719074 128 128 255 -0.153864 -0.985964 -0.064812
0.084399 1.290689 1.662035 128 128 255 0.015767 -0.994063 0.107661
-0.054665 1.274691 1.606732 128 128 255 0.140743 -0.983163 0.116542
-0.190199 1.242606 1.560263 128 128 255 0.249220 -0.959697 0.129890
-0.320359 1.195035 1.517902 128 128 255 0.347525 -0.928978 0.127383
-0.443393 1.132791 1.469424 128 128 255 0.454403 -0.883607 0.112941
-0.557663 1.056883 1.412792 128 128 255 0.564517 -0.818508 0.106614
-0.661671 0.968500 1.356883 128 128 255 0.663171 -0.739649 0.114556
-0.754073 0.868994 1.309606 128 128 255 0.741320 -0.658717 0.128596
-0.833702 0.759860 1.267317 128 128 255 0.805520 -0.578511 0.128309
-0.899578 0.642712 1.219694 128 128 255 0.868305 -0.482682 0.114303
-0.950925 0.519263 1.163556 128 128 255 0.923664 -0.367975 0.106958
-0.987175 0.391295 1.107119 128 128 255 0.962299 -0.246981 0.113937
-1.007980 0.260637 1.058998 128 128 255 0.982505 -0.134769 0.128534
-1.013211 0.129139 1.016679 128 128 255 0.990931 -0.032424 0.130398
-1.002956 -0.001359 0.969881 128 128 255 0.989880 0.080572 0.116816
-0.977524 -0.129047 0.914318 128 128 255 0.972522 0.206066 0.108340
-0.937432 -0.252173 0.857436 128 128 255 0.937480 0.328758 0.114232
-0.883396 -0.369068 0.808447 128 128 255 0.891300 0.434630 0.129157
-0.816322 -0.478169 0.765998 128 128 255 0.841028 0.524375 0.133053
-0.737291 -0.578039 0.719981 128 128 255 0.778219 0.616435 0.119931
-0.647539 -0.667386 0.665066 128 128 255 0.694793 0.710715 0.110216
-0.548439 -0.745080 0.607831 128 128 255 0.597300 0.793754 0.114839
-0.441481 -0.810168 0.557960 128 128 255 0.498854 0.856912 0.129790
-0.328248 -0.861886 0.515281 128 128 255 0.406679 0.903456 0.135575
-0.210394 -0.899667 0.469994 128 128 255 0.304685 0.944473 0.123038
-0.089619 -0.923144 0.415791 128 128 255 0.183889 0.976539 0.112056
0.032358 -0.932159 0.358298 128 128 255 0.056370 0.991736 0.115251
0.153820 -0.926757 0.307544 128 128 255 -0.061992 0.989585 0.129919
0.273076 -0.907186 0.264539 128 128 255 -0.165056 0.976660 0.137447
0.388489 -0.873889 0.219920 128 128 255 -0.271211 0.954272 0.125734
0.498495 -0.827498 0.166485 128 128 255 -0.150225 0.207635 0.966602
-0.401624 -0.768821 0.108831 128 128 255 -0.019465 0.032055 0.999297
-0.298495 -0.827498 0.157204 128 128 255 0.378516 0.917742 0.120314
-0.188489 -0.873889 0.213781 128 128 255 0.281633 0.952598 0.115061
-0.073076 -0.907186 0.269758 128 128 255 0.181146 0.975974 0.121079
0.046180 -0.926757 0.317136 128 128 255 0.060875 0.989454 0.131432
0.167642 -0.932159 0.359423 128 128 255 -0.074358 0.988583 0.131051
0.289619 -0.923144 0.406944 128 128 255 -0.195705 0.973269 0.120192
0.410394 -0.899667 0.463016 128 128 255 -0.296581 0.948188 0.113928
0.528248 -0.861886 0.519513 128 128 255 -0.392342 0.912110 0.118841
0.641481 -0.810168 0.567737 128 128 255 -0.498087 0.857449 0.129195
0.748439 -0.745080 0.610067 128 128 255 -0.609901 0.781727 0.130092
0.847539 -0.667386 0.656768 128 128 255 -0.703773 0.700284 0.119609
0.937291 -0.578039 0.712256 128 128 255 -0.774473 0.622531 0.112460
1.016322 -0.478169 0.769186 128 128 255 -0.833673 0.539881 0.116269
1.083396 -0.369068 0.818281 128 128 255 -0.890312 0.437427 0.126500
1.137432 -0.252173 0.860753 128 128 255 -0.941064 0.312787 0.128697
1.177524 -0.129047 0.906678 128 128 255 -0.974355 0.191072 0.118845
1.202956 -0.001359 0.961510 128 128 255 -0.990104 0.085858 0.111006
1.213210 0.129139 1.018782 128 128 255 -0.993386 -0.015252 0.113805
1.207980 0.260637 1.068760 128 128 255 -0.983745 -0.129981 0.123898
1.187175 0.391295 1.111473 128 128 255 -0.956862 -0.261095 0.127450
1.150925 0.519263 1.156676 128 128 255 -0.916328 -0.382504 0.118469
1.099578 0.642712 1.210788 128 128 255 -0.870320 -0.480016 0.110131
1.033702 0.759860 1.268306 128 128 255 -0.817028 -0.565605 0.112052
0.954073 0.868994 1.319167 128 128 255 -0.746441 -0.654162 0.122055
0.861671 0.968500 1.362218 128 128 255 -0.651959 -0.747539 0.127020
0.757663 1.056883 1.406761 128 128 255 -0.549475 -0.826979 0.119088
0.643393 1.132791 1.460099 128 128 255 -0.455689 -0.883269 0.110375
0.520359 1.195035 1.517765 128 128 255 -0.363973 -0.924710 0.111516
0.390199 1.242606 1.569497 128 128 255 -0.257808 -0.958528 0.121484
0.254665 1.274691 1.612977 128 128 255 -0.128605 -0.983415 0.127892
0.115601 1.290689 1.656932 128 128 255 0.002230 -0.992636 0.121113
-0.025082 1.290216 1.709453 128 128 255 -0.014749 -0.919731 0.392273
0.803432 1.068217 1.714757 128 128 255 -0.622004 -0.780194 -0.066402
0.681833 1.138968 1.657657 128 128 255 -0.477169 -0.871586 0.112460
0.553401 1.194645 1.608153 128 128 255 -0.371177 -0.919911 0.126457
0.419982 1.234625 1.565581 128 128 255 -0.273467 -0.952960 0.130700
0.283475 1.258507 1.519999 128 128 255 -0.166075 -0.979060 0.117730
0.145803 1.266120 1.465493 128 128 255 -0.041544 -0.993369 0.107198
0.008888 1.257517 1.408095 128 128 255 0.086786 -0.990078 0.110514
-0.125377 1.232978 1.357707 128 128 255 0.203243 -0.971188 0.124446
-0.255153 1.193005 1.314848 128 128 255 0.303305 -0.943882 0.130742
-0.378680 1.138306 1.269960 128 128 255 0.405664 -0.906240 0.119018
-0.494304 1.069791 1.216201 128 128 255 0.516375 -0.849554 0.107777
-0.600496 0.988554 1.158602 128 128 255 0.621636 -0.775547 0.109983
-0.695874 0.895856 1.107335 128 128 255 0.709039 -0.694222 0.123775
-0.779221 0.793106 1.064095 128 128 255 0.777299 -0.615128 0.132000
-0.849500 0.681840 1.019835 128 128 255 0.840525 -0.527965 0.121534
-0.905868 0.563698 0.966871 128 128 255 0.900721 -0.420372 0.109494
-0.947687 0.440402 0.909171 128 128 255 0.947428 -0.300290 0.110480
-0.974528 0.313725 0.857041 128 128 255 0.975295 -0.182847 0.123959
-0.986180 0.185473 0.813333 128 128 255 0.987902 -0.078204 0.133917
-0.982643 0.057451 0.769624 128 128 255 0.991791 0.028132 0.124739
-0.964135 -0.068554 0.717495 128 128 255 0.982363 0.149856 0.111828
-0.931081 -0.190806 0.659794 128 128 255 0.954745 0.275760 0.111439
-0.884105 -0.307641 0.606830 128 128 255 0.912344 0.390082 0.124354
-0.824020 -0.417489 0.562570 128 128 255 0.863950 0.484926 0.135786
-0.751817 -0.518894 0.519331 128 128 255 0.808499 0.574414 0.127979
-0.668642 -0.610540 0.468063 128 128 255 0.733987 0.669490 0.114219
-0.575786 -0.691260 0.410464 128 128 255 0.641326 0.759002 0.112327
-0.474658 -0.760055 0.356705 128 128 255 0.541725 0.831297 0.124414
-0.366769 -0.816108 0.311817 128 128 255 0.447619 0.883661 0.137043
-0.253705 -0.858786 0.268959 128 128 255 0.352556 0.926610 0.130761
-0.137106 -0.887657 0.218570 128 128 255 0.239138 0.963995 0.116306
-0.018642 -0.902484 0.161172 128 128 255 0.077854 0.474903 0.876587
0.099991 -0.903233 0.106667 128 128 255 -0.148742 0.503527 0.851080
0.218642 -0.902484 0.161085 128 128 255 -0.122872 0.985657 0.115683
0.337106 -0.887657 0.218512 128 128 255 -0.222136 0.967836 0.118108
0.453705 -0.858786 0.269008 128 128 255 -0.331061 0.934805 0.128600
0.566769 -0.816108 0.311908 128 128 255 -0.453051 0.881493 0.133094
0.674658 -0.760055 0.356716 128 128 255 -0.564290 0.816185 0.124176
0.775786 -0.691260 0.410381 128 128 255 -0.650889 0.750410 0.115013
0.868643 -0.610540 0.467998 128 128 255 -0.723366 0.680609 0.116248
0.951817 -0.518894 0.519371 128 128 255 -0.794453 0.594061 0.126238
1.024020 -0.417489 0.562662 128 128 255 -0.865684 0.482937 0.131768
1.084105 -0.307641 0.606852 128 128 255 -0.922585 0.365419 0.123714
1.131081 -0.190806 0.659716 128 128 255 -0.958571 0.261063 0.113967
1.164135 -0.068554 0.717422 128 128 255 -0.980045 0.162811 0.114040
1.182643 0.057451 0.769654 128 128 255 -0.990934 0.053070 0.123423
1.186180 0.185473 0.813426 128 128 255 -0.988488 -0.077558 0.129905
1.174528 0.313725 0.857073 128 128 255 -0.970315 -0.208274 0.122923
1.147687 0.440402 0.909099 128 128 255 -0.941785 -0.316724 0.112816
1.105868 0.563698 0.966792 128 128 255 -0.904996 -0.410453 0.111852
1.049500 0.681840 1.019855 128 128 255 -0.853855 -0.506339 0.120635
0.979221 0.793106 1.064188 128 128 255 -0.780144 -0.612354 0.128054
0.895874 0.895856 1.107376 128 128 255 -0.691612 -0.711831 0.122349
0.800496 0.988554 1.158537 128 128 255 -0.606227 -0.787350 0.112109
0.694304 1.069791 1.216117 128 128 255 -0.523312 -0.844978 0.110257
0.578680 1.138306 1.269970 128 128 255 -0.428829 -0.895577 0.118519
0.455153 1.193005 1.314938 128 128 255 -0.310229 -0.942155 0.126898
0.325377 1.232978 1.357757 128 128 255 -0.180428 -0.975913 0.122633
0.191112 1.257517 1.408038 128 128 255 -0.065569 -0.991495 0.112421
0.054197 1.266120 1.465405 128 128 255 0.035833 -0.993309 0.109790
-0.083475 1.258507 1.519997 128 128 255 0.141134 -0.982979 0.117613
-0.219982 1.234625 1.565668 128 128 255 0.263808 -0.956181 0.126975
-0.353401 1.194645 1.608212 128 128 255 0.391126 -0.911911 0.124251
-0.481833 1.138968 1.657609 128 128 255 0.497045 -0.860185 0.114137
-0.603432 1.068217 1.714666 128 128 255 0.452457 -0.814366 0.363443
1.193298 0.586785 1.709529 128 128 255 -0.927042 -0.367687 -0.073486
1.123366 0.708857 1.656907 128 128 255 -0.847250 -0.517017 0.121905
1.039979 0.821290 1.612885 128 128 255 -0.786169 -0.603789 0.131823
0.944425 0.922623 1.569461 128 128 255 -0.718263 -0.684812 0.123003
0.838148 1.011560 1.517834 128 128 255 -0.630438 -0.768481 0.109474
0.722726 1.086988 1.460181 128 128 255 -0.525780 -0.843756 0.107845
0.599852 1.147995 1.406746 128 128 255 -0.417154 -0.900948 0.119478
0.471306 1.193877 1.362127 128 128 255 -0.316934 -0.939379 0.130845
0.338930 1.224146 1.319121 128 128 255 -0.216327 -0.968420 0.123956
0.204603 1.238540 1.268367 128 128 255 -0.098151 -0.989047 0.110234
0.070213 1.237016 1.210874 128 128 255 0.030563 -0.993736 0.107494
-0.062371 1.219759 1.156671 128 128 255 0.153774 -0.980978 0.118474
-0.191320 1.187168 1.111384 128 128 255 0.259688 -0.956745 0.131152
-0.314875 1.139857 1.068705 128 128 255 0.358577 -0.924932 0.126189
-0.431371 1.078637 1.018835 128 128 255 0.467033 -0.877090 0.112223
-0.539259 1.004508 0.961600 128 128 255 0.576585 -0.809832 0.108269
-0.637123 0.918640 0.906684 128 128 255 0.672807 -0.730270 0.118475
-0.723707 0.822355 0.860668 128 128 255 0.748219 -0.650138 0.132244
-0.797923 0.717111 0.818218 128 128 255 0.812101 -0.569037 0.129183
-0.858871 0.604473 0.769229 128 128 255 0.874980 -0.470316 0.114949
-0.905845 0.486095 0.712348 128 128 255 0.928802 -0.353984 0.109641
-0.938345 0.363694 0.656785 128 128 255 0.965041 -0.233593 0.118873
-0.956080 0.239024 0.609986 128 128 255 0.983317 -0.123625 0.133433
-0.958969 0.113851 0.567667 128 128 255 0.990991 -0.021103 0.132253
-0.947142 -0.010070 0.519547 128 128 255 0.988540 0.094379 0.117817
-0.920934 -0.131025 0.463109 128 128 255 0.969028 0.220571 0.111059
-0.880878 -0.247358 0.406971 128 128 255 0.932267 0.341602 0.119103
-0.827696 -0.357501 0.359349 128 128 255 0.885680 0.444501 0.134126
-0.762287 -0.459988 0.317059 128 128 255 0.834885 0.533656 0.134827
-0.685710 -0.553481 0.269783 128 128 255 0.769614 0.627058 0.120387
-0.599168 -0.636784 0.213873 128 128 255 0.683901 0.720898 0.112185
-0.503989 -0.708856 0.157241 128 128 255 0.069807 0.068317 0.995218
0.601608 -0.768830 0.108763 128 128 255 -0.026831 0.071167 0.997103
0.703989 -0.708856 0.166402 128 128 255 -0.590187 0.798871 0.116126
0.799168 -0.636784 0.219933 128 128 255 -0.672452 0.729502 0.125038
0.885710 -0.553481 0.264630 128 128 255 -0.759953 0.636147 0.133377
0.962287 -0.459988 0.307591 128 128 255 -0.839218 0.528469 0.128193
1.027696 -0.357501 0.358238 128 128 255 -0.895989 0.428293 0.117340
1.080878 -0.247358 0.415705 128 128 255 -0.935201 0.335022 0.114711
1.120934 -0.131025 0.469997 128 128 255 -0.964700 0.232992 0.122753
1.147142 -0.010070 0.515370 128 128 255 -0.985338 0.108513 0.131658
1.158969 0.113851 0.558016 128 128 255 -0.991478 -0.025850 0.127680
1.156080 0.239024 0.607779 128 128 255 -0.982876 -0.142634 0.116666
1.138345 0.363694 0.664976 128 128 255 -0.963550 -0.242520 0.112938
1.105845 0.486095 0.719974 128 128 255 -0.931795 -0.342563 0.120035
1.058871 0.604473 0.766083 128 128 255 -0.880608 -0.455846 0.129359
0.997923 0.717111 0.808511 128 128 255 -0.810799 -0.571448 0.126698
0.923707 0.822355 0.857393 128 128 255 -0.737516 -0.665333 0.115768
0.837123 0.918640 0.914226 128 128 255 -0.665425 -0.738152 0.111092
0.739259 1.004508 0.969863 128 128 255 -0.584303 -0.803016 0.117281
0.631371 1.078637 1.016759 128 128 255 -0.480467 -0.867772 0.126973
0.514875 1.139857 1.059069 128 128 255 -0.357959 -0.925230 0.125759
0.391320 1.187168 1.107086 128 128 255 -0.242944 -0.963180 0.115166
0.262371 1.219759 1.163463 128 128 255 -0.141668 -0.983815 0.109715
0.129787 1.237016 1.219666 128 128 255 -0.039120 -0.992583 0.115104
-0.004603 1.238540 1.267391 128 128 255 0.081205 -0.988805 0.125180
-0.138930 1.224146 1.309684 128 128 255 0.214963 -0.968522 0.125525
-0.271306 1.193877 1.356860 128 128 255 0.333593 -0.935620 0.115464
-0.399852 1.147995 1.412700 128 128 255 0.430214 -0.896077 0.109369
-0.522726 1.086988 1.469386 128 128 255 0.519633 -0.846742 0.114059
-0.638148 1.011560 1.517969 128 128 255 0.615919 -0.777901 0.124556
-0.744425 0.922623 1.560346 128 128 255 0.715614 -0.686939 0.126533
-0.839979 0.821290 1.606719 128 128 255 0.797231 -0.592204 0.117117
-0.923366 0.708857 1.661944 128 128 255 0.856237 -0.504645 0.110414
-0.993298 0.586785 1.719027 128 128 255 0.799895 -0.484435 0.354246
1.290216 -0.025081 1.706732 128 128 255 -0.985762 0.146053 -0.083316
1.290689 0.115603 1.660263 128 128 255 -0.991278 -0.018299 0.130513
1.274691 0.254667 1.617902 128 128 255 -0.984376 -0.121053 0.127869
1.242605 0.390201 1.569424 128 128 255 -0.965237 -0.235563 0.113261
1.195034 0.520361 1.512792 128 128 255 -0.927658 -0.357830 0.106808
1.132790 0.643394 1.456883 128 128 255 -0.874018 -0.472173 0.114653
1.056882 0.757665 1.409606 128 128 255 -0.813573 -0.567068 0.128583
0.968499 0.861672 1.367317 128 128 255 -0.750581 -0.648227 0.128181
0.868993 0.954074 1.319694 128 128 255 -0.672067 -0.731649 0.114091
0.759858 1.033703 1.263556 128 128 255 -0.573457 -0.812260 0.106675
0.642711 1.099579 1.207119 128 128 255 -0.464826 -0.878090 0.113555
0.519262 1.150925 1.158998 128 128 255 -0.360426 -0.923961 0.128023
0.391294 1.187175 1.116679 128 128 255 -0.262870 -0.956059 0.129806
0.260636 1.207980 1.069881 128 128 255 -0.152753 -0.981406 0.116228
0.129137 1.213211 1.014317 128 128 255 -0.026672 -0.993820 0.107753
-0.001361 1.202956 0.957436 128 128 255 0.100824 -0.988400 0.113581
-0.129048 1.177524 0.908447 128 128 255 0.214578 -0.968230 0.128398
-0.252174 1.137431 0.865998 128 128 255 0.313594 -0.940301 0.132259
-0.369069 1.083395 0.819981 128 128 255 0.417764 -0.900701 0.119208
-0.478170 1.016322 0.765066 128 128 255 0.528909 -0.841578 0.109556
-0.578040 0.937290 0.707831 128 128 255 0.632428 -0.766160 0.114167
-0.667387 0.847538 0.657960 128 128 255 0.716853 -0.685176 0.129057
-0.745081 0.748438 0.615281 128 128 255 0.783640 -0.606403 0.134845
-0.810169 0.641480 0.569994 128 128 255 0.847314 -0.516792 0.122409
-0.861887 0.528247 0.515791 128 128 255 0.906679 -0.406813 0.111518
-0.899667 0.410393 0.458298 128 128 255 0.951228 -0.286356 0.114739
-0.923145 0.289617 0.407544 128 128 255 0.976783 -0.170744 0.129391
-0.932159 0.167640 0.364539 128 128 255 0.988277 -0.067497 0.136938
-0.926757 0.046179 0.319920 128 128 255 0.991273 0.040948 0.125308
-0.907185 -0.073077 0.266484 128 128 255 0.979876 0.164382 0.113233
-0.873889 -0.188490 0.208831 128 128 255 0.950220 0.289597 0.114958
-0.827498 -0.298496 0.157204 128 128 255 0.050095 0.011831 0.998674
0.968820 -0.401625 0.113781 128 128 255 -0.008452 0.003792 0.999957
1.027498 -0.298496 0.169759 128 128 255 -0.906684 0.403947 0.121452
1.073889 -0.188490 0.217136 128 128 255 -0.947848 0.290158 0.131878
1.107185 -0.073077 0.259423 128 128 255 -0.978563 0.158465 0.131539
1.126757 0.046179 0.306944 128 128 255 -0.992005 0.036890 0.120684
1.132159 0.167640 0.363016 128 128 255 -0.991165 -0.067054 0.114437
1.123145 0.289617 0.419513 128 128 255 -0.978428 -0.168578 0.119413
1.099667 0.410393 0.467737 128 128 255 -0.949950 -0.284135 0.129858
1.061887 0.528247 0.510067 128 128 255 -0.902421 -0.410521 0.130799
1.010169 0.641480 0.556768 128 128 255 -0.845150 -0.520818 0.120289
0.945081 0.748438 0.612256 128 128 255 -0.786054 -0.607719 0.113123
0.867387 0.847538 0.669186 128 128 255 -0.719510 -0.684561 0.116968
0.778040 0.937290 0.718281 128 128 255 -0.633115 -0.763524 0.127265
0.678171 1.016322 0.760753 128 128 255 -0.523778 -0.841958 0.129471
0.569069 1.083395 0.806678 128 128 255 -0.413205 -0.902757 0.119549
0.452174 1.137431 0.861510 128 128 255 -0.314579 -0.942643 0.111643
0.329048 1.177524 0.918782 128 128 255 -0.217040 -0.969433 0.114424
0.201361 1.202956 0.968760 128 128 255 -0.103249 -0.986830 0.124522
0.070863 1.213211 1.011473 128 128 255 0.030503 -0.991301 0.128030
-0.060636 1.207980 1.056676 128 128 255 0.158022 -0.980246 0.118943
-0.191294 1.187175 1.110788 128 128 255 0.263585 -0.958286 0.110502
-0.319262 1.150925 1.168306 128 128 255 0.359246 -0.926456 0.112349
-0.442711 1.099579 1.219167 128 128 255 0.461825 -0.878502 0.122280
-0.559859 1.033703 1.262218 128 128 255 0.574678 -0.808443 0.127147
-0.668993 0.954074 1.306761 128 128 255 0.675860 -0.727344 0.119100
-0.768499 0.861672 1.360099 128 128 255 0.752500 -0.649293 0.110282
-0.856882 0.757665 1.417765 128 128 255 0.814215 -0.569792 0.111312
-0.932790 0.643394 1.469497 128 128 255 0.871898 -0.474467 0.121143
-0.995034 0.520361 1.512977 128 128 255 0.926279 -0.354649 0.127405
-1.042605 0.390201 1.556932 128 128 255 0.965799 -0.229573 0.120533
-1.074691 0.254667 1.609453 128 128 255 0.986449 -0.120446 0.111408
-1.090689 0.115603 1.667166 128 128 255 0.993542 -0.020070 0.111672
-1.090216 -0.025081 1.719747 128 128 255 0.929434 -0.025201 0.368128
1.068218 -0.603431 1.708153 128 128 255 -0.824613 0.315372 -0.469631
1.138969 -0.481832 1.665581 128 128 255 -0.955942 0.282055 -0.081360
1.194646 -0.353400 1.619999 128 128 255 -0.983218 0.165915 -0.075863
