ply
format ascii 1.0
element vertex 705
property float x
property float y
property float z
property uchar red
property uchar green
property uchar blue
property float nx
property float ny
property float nz
end_header
0.701751 -0.501751 0.108134 128 128 255 -1.000000 -0.000107 0.000000
0.701751 -0.501751 0.108571 128 128 255 -1.000000 -0.000107 0.000000
0.701751 -0.501751 0.109022 128 128 255 -1.000000 -0.000107 0.000000
0.701751 -0.501751 0.109481 128 128 255 -0.001470 -0.001106 0.999998
1.102163 -0.501298 0.109865 128 128 255 -0.003257 -0.002012 0.999993
1.102163 -0.501298 0.110328 128 128 255 -0.999999 0.001165 0.000000
1.102163 -0.501298 0.110785 128 128 255 -0.999999 0.001165 0.000000
1.102163 -0.501298 0.111232 128 128 255 -0.999999 0.001165 0.000000
1.102163 -0.501298 0.111665 128 128 255 -0.999999 0.001165 0.000000
1.102163 -0.501298 0.112078 128 128 255 -0.999999 0.001165 0.000000
1.102163 -0.501298 0.112468 128 128 255 -0.999999 0.001165 0.000000
1.102163 -0.501298 0.112831 128 128 255 -0.999999 0.001165 0.000000
1.102163 -0.501298 0.113163 128 128 255 -0.999999 0.001165 0.000000
1.102163 -0.501298 0.113460 128 128 255 -0.000847 -0.000586 0.999999
1.500628 -0.500269 0.113670 128 128 255 -0.000524 -0.001069 0.999999
-0.902629 -0.100526 0.113877 128 128 255 -0.999999 -0.001165 0.000000
-0.902629 -0.100526 0.114100 128 128 255 -0.999999 -0.001165 0.000000
-0.902629 -0.100526 0.114280 128 128 255 -0.999999 -0.001165 0.000000
-0.902629 -0.100526 0.114415 128 128 255 -0.999999 -0.001165 0.000000
-0.902629 -0.100526 0.114504 128 128 255 -0.999999 -0.001165 0.000000
-0.902629 -0.100526 0.114547 128 128 255 -0.999999 -0.001165 0.000000
-0.902629 -0.100526 0.114543 128 128 255 0.999999 0.001165 0.000000
-0.902629 -0.100526 0.114493 128 128 255 0.999999 0.001165 0.000000
-0.902629 -0.100526 0.114397 128 128 255 0.999999 0.001165 0.000000
-0.902629 -0.100526 0.114257 128 128 255 0.999999 0.001165 0.000000
-0.902629 -0.100526 0.114074 128 128 255 0.001104 0.000754 0.999999
-0.501708 -0.100569 0.113977 128 128 255 0.000604 0.000289 1.000000
-0.501708 -0.100569 0.113715 128 128 255 1.000000 -0.000107 0.000000
-0.501708 -0.100569 0.113418 128 128 255 1.000000 -0.000107 0.000000
-0.501708 -0.100569 0.113089 128 128 255 1.000000 -0.000107 0.000000
-0.501708 -0.100569 0.112731 128 128 255 1.000000 -0.000107 0.000000
-0.501708 -0.100569 0.112349 128 128 255 1.000000 -0.000107 0.000000
-0.501708 -0.100569 0.111945 128 128 255 1.000000 -0.000107 0.000000
-0.501708 -0.100569 0.111525 128 128 255 1.000000 -0.000107 0.000000
-0.501708 -0.100569 0.111093 128 128 255 1.000000 -0.000107 0.000000
-0.501708 -0.100569 0.110652 128 128 255 1.000000 -0.000107 0.000000
-0.501708 -0.100569 0.110208 128 128 255 0.002876 0.001310 0.999995
-0.100358 -0.100358 0.109944 128 128 255 0.001337 0.000424 0.999999
-0.100358 -0.100358 0.109505 128 128 255 1.000000 -0.000526 0.000000
-0.100358 -0.100358 0.109075 128 128 255 1.000000 -0.000526 0.000000
-0.100358 -0.100358 0.108657 128 128 255 1.000000 -0.000526 0.000000
-0.100358 -0.100358 0.108256 128 128 255 1.000000 -0.000526 0.000000
-0.100358 -0.100358 0.107873 128 128 255 1.000000 -0.000526 0.000000
-0.100358 -0.100358 0.107513 128 128 255 1.000000 -0.000526 0.000000
-0.100358 -0.100358 0.107177 128 128 255 1.000000 -0.000526 0.000000
-0.100358 -0.100358 0.106869 128 128 255 1.000000 -0.000526 0.000000
-0.100358 -0.100358 0.106589 128 128 255 0.002065 -0.000160 0.999998
0.300358 -0.100358 0.106342 128 128 255 0.000912 -0.000310 1.000000
0.300358 -0.100358 0.106127 128 128 255 1.000000 0.000526 0.000000
0.300358 -0.100358 0.105949 128 128 255 1.000000 0.000526 0.000000
0.300358 -0.100358 0.105809 128 128 255 1.000000 0.000526 0.000000
0.300358 -0.100358 0.105709 128 128 255 1.000000 0.000526 0.000000
0.300358 -0.100358 0.105651 128 128 255 1.000000 0.000526 0.000000
0.300358 -0.100358 0.105637 128 128 255 1.000000 0.000526 0.000000
0.300358 -0.100358 0.105667 128 128 255 -1.000000 -0.000526 0.000000
0.300358 -0.100358 0.105742 128 128 255 -1.000000 -0.000526 0.000000
0.300358 -0.100358 0.105861 128 128 255 -1.000000 -0.000526 0.000000
0.300358 -0.100358 0.106025 128 128 255 -0.000836 -0.001712 0.999998
0.701708 -0.100569 0.106051 128 128 255 -0.000478 -0.000961 0.999999
0.701708 -0.100569 0.106297 128 128 255 -1.000000 -0.000107 0.000000
0.701708 -0.100569 0.106582 128 128 255 -1.000000 -0.000107 0.000000
0.701708 -0.100569 0.106902 128 128 255 -1.000000 -0.000107 0.000000
0.701708 -0.100569 0.107254 128 128 255 -1.000000 -0.000107 0.000000
0.701708 -0.100569 0.107635 128 128 255 -1.000000 -0.000107 0.000000
0.701708 -0.100569 0.108040 128 128 255 -1.000000 -0.000107 0.000000
0.701708 -0.100569 0.108466 128 128 255 -1.000000 -0.000107 0.000000
0.701708 -0.100569 0.108907 128 128 255 -1.000000 -0.000107 0.000000
0.701708 -0.100569 0.109360 128 128 255 -1.000000 -0.000107 0.000000
0.701708 -0.100569 0.109819 128 128 255 -0.003127 -0.002127 0.999993
1.102629 -0.100526 0.110154 128 128 255 -0.001469 -0.001101 0.999998
1.102629 -0.100526 0.110613 128 128 255 -0.999999 0.001165 0.000000
1.102629 -0.100526 0.111064 128 128 255 -0.999999 0.001165 0.000000
1.102629 -0.100526 0.111502 128 128 255 -0.999999 0.001165 0.000000
1.102629 -0.100526 0.111924 128 128 255 -0.999999 0.001165 0.000000
1.102629 -0.100526 0.112325 128 128 255 -0.999999 0.001165 0.000000
1.102629 -0.100526 0.112700 128 128 255 -0.999999 0.001165 0.000000
1.102629 -0.100526 0.113046 128 128 255 -0.999999 0.001165 0.000000
1.102629 -0.100526 0.113360 128 128 255 -0.999999 0.001165 0.000000
1.102629 -0.100526 0.113638 128 128 255 -0.001864 -0.001065 0.999998
1.501438 -0.100205 0.113806 128 128 255 -0.000474 -0.000535 1.000000
-0.902629 -0.100526 0.113991 128 128 255 0.000000 0.000000 0.000000
-0.902629 -0.100526 0.114192 128 128 255 0.000000 0.000000 0.000000
-0.902629 -0.100526 0.114350 128 128 255 0.000000 0.000000 0.000000
-0.902629 -0.100526 0.114462 128 128 255 0.000000 0.000000 0.000000
-0.902629 -0.100526 0.114528 128 128 255 0.000000 0.000000 0.000000
-0.902629 -0.100526 0.114548 128 128 255 0.000000 0.000000 0.000000
-0.902629 -0.100526 0.114521 128 128 255 0.000000 0.000000 0.000000
-0.902629 -0.100526 0.114448 128 128 255 0.000000 0.000000 0.000000
-0.902629 -0.100526 0.114330 128 128 255 0.000000 0.000000 0.000000
-0.902629 -0.100526 0.114168 128 128 255 0.000000 0.000000 0.000000
-0.902629 -0.100526 0.113965 128 128 255 0.000109 1.000000 0.000000
-0.501708 -0.100569 0.113849 128 128 255 0.000109 1.000000 0.000000
-0.501708 -0.100569 0.113570 128 128 255 0.000000 0.000000 0.000000
-0.501708 -0.100569 0.113257 128 128 255 0.000000 0.000000 0.000000
-0.501708 -0.100569 0.112915 128 128 255 0.000000 0.000000 0.000000
-0.501708 -0.100569 0.112545 128 128 255 0.000000 0.000000 0.000000
-0.501708 -0.100569 0.112154 128 128 255 0.000000 0.000000 0.000000
-0.501708 -0.100569 0.111743 128 128 255 0.000000 0.000000 0.000000
-0.501708 -0.100569 0.111319 128 128 255 0.000000 0.000000 0.000000
-0.501708 -0.100569 0.110885 128 128 255 0.000000 0.000000 0.000000
-0.501708 -0.100569 0.110445 128 128 255 0.000000 0.000000 0.000000
-0.501708 -0.100569 0.110004 128 128 255 -0.000526 1.000000 0.000000
-0.100358 -0.100358 0.109747 128 128 255 -0.000526 1.000000 0.000000
-0.100358 -0.100358 0.109317 128 128 255 0.000000 0.000000 0.000000
-0.100358 -0.100358 0.108899 128 128 255 0.000000 0.000000 0.000000
-0.100358 -0.100358 0.108496 128 128 255 0.000000 0.000000 0.000000
-0.100358 -0.100358 0.108111 128 128 255 0.000000 0.000000 0.000000
-0.100358 -0.100358 0.107747 128 128 255 0.000000 0.000000 0.000000
-0.100358 -0.100358 0.107407 128 128 255 0.000000 0.000000 0.000000
-0.100358 -0.100358 0.107093 128 128 255 0.000000 0.000000 0.000000
-0.100358 -0.100358 0.106806 128 128 255 0.000000 0.000000 0.000000
-0.100358 -0.100358 0.106549 128 128 255 0.000000 1.000000 0.000000
0.300358 -0.100358 0.106323 128 128 255 0.000000 1.000000 0.000000
0.300358 -0.100358 0.106130 128 128 255 0.000000 0.000000 0.000000
0.300358 -0.100358 0.105972 128 128 255 0.000000 0.000000 0.000000
0.300358 -0.100358 0.105851 128 128 255 0.000000 0.000000 0.000000
0.300358 -0.100358 0.105771 128 128 255 0.000000 0.000000 0.000000
0.300358 -0.100358 0.105731 128 128 255 0.000000 0.000000 0.000000
0.300358 -0.100358 0.105735 128 128 255 0.000000 0.000000 0.000000
0.300358 -0.100358 0.105783 128 128 255 0.000000 0.000000 0.000000
0.300358 -0.100358 0.105876 128 128 255 0.000000 0.000000 0.000000
0.300358 -0.100358 0.106012 128 128 255 0.000000 0.000000 0.000000
0.300358 -0.100358 0.106192 128 128 255 -0.000526 -1.000000 0.000000
0.701708 -0.100569 0.106234 128 128 255 -0.000526 -1.000000 0.000000
0.701708 -0.100569 0.106495 128 128 255 0.000000 0.000000 0.000000
0.701708 -0.100569 0.106793 128 128 255 0.000000 0.000000 0.000000
0.701708 -0.100569 0.107125 128 128 255 0.000000 0.000000 0.000000
0.701708 -0.100569 0.107488 128 128 255 0.000000 0.000000 0.000000
0.701708 -0.100569 0.107878 128 128 255 0.000000 0.000000 0.000000
0.701708 -0.100569 0.108291 128 128 255 0.000000 0.000000 0.000000
0.701708 -0.100569 0.108721 128 128 255 0.000000 0.000000 0.000000
0.701708 -0.100569 0.109166 128 128 255 0.000000 0.000000 0.000000
0.701708 -0.100569 0.109620 128 128 255 0.000000 0.000000 0.000000
0.701708 -0.100569 0.110078 128 128 255 0.000109 -1.000000 0.000000
1.102629 -0.100526 0.110410 128 128 255 0.000109 -1.000000 0.000000
1.102629 -0.100526 0.110863 128 128 255 0.000000 0.000000 0.000000
1.102629 -0.100526 0.111306 128 128 255 0.000000 0.000000 0.000000
1.102629 -0.100526 0.111735 128 128 255 0.000000 0.000000 0.000000
1.102629 -0.100526 0.112145 128 128 255 0.000000 0.000000 0.000000
1.102629 -0.100526 0.112532 128 128 255 0.000000 0.000000 0.000000
1.102629 -0.100526 0.112892 128 128 255 0.000000 0.000000 0.000000
1.102629 -0.100526 0.113221 128 128 255 0.000000 0.000000 0.000000
1.102629 -0.100526 0.113516 128 128 255 0.000000 0.000000 0.000000
1.102629 -0.100526 0.113773 128 128 255 0.000804 -1.000000 0.000000
1.501438 -0.100205 0.113921 128 128 255 0.000804 -1.000000 0.000000
-0.902629 -0.100526 0.114094 128 128 255 0.000000 0.000000 0.000000
-0.902629 -0.100526 0.114273 128 128 255 0.000000 0.000000 0.000000
-0.902629 -0.100526 0.114408 128 128 255 0.000000 0.000000 0.000000
-0.902629 -0.100526 0.114497 128 128 255 0.000000 0.000000 0.000000
-0.902629 -0.100526 0.114540 128 128 255 0.000000 0.000000 0.000000
-0.902629 -0.100526 0.114536 128 128 255 0.000000 0.000000 0.000000
-0.902629 -0.100526 0.114486 128 128 255 0.000000 0.000000 0.000000
-0.902629 -0.100526 0.114390 128 128 255 0.000000 0.000000 0.000000
-0.902629 -0.100526 0.114251 128 128 255 0.000000 0.000000 0.000000
-0.902629 -0.100526 0.114068 128 128 255 0.000000 0.000000 0.000000
-0.902629 -0.100526 0.113845 128 128 255 0.000109 1.000000 0.000000
-0.501708 -0.100569 0.113711 128 128 255 0.000109 1.000000 0.000000
-0.501708 -0.100569 0.113415 128 128 255 0.000000 0.000000 0.000000
-0.501708 -0.100569 0.113088 128 128 255 0.000000 0.000000 0.000000
-0.501708 -0.100569 0.112732 128 128 255 0.000000 0.000000 0.000000
-0.501708 -0.100569 0.112352 128 128 255 0.000000 0.000000 0.000000
-0.501708 -0.100569 0.111952 128 128 255 0.000000 0.000000 0.000000
-0.501708 -0.100569 0.111536 128 128 255 0.000000 0.000000 0.000000
-0.501708 -0.100569 0.111108 128 128 255 0.000000 0.000000 0.000000
-0.501708 -0.100569 0.110674 128 128 255 0.000000 0.000000 0.000000
-0.501708 -0.100569 0.110236 128 128 255 0.000000 0.000000 0.000000
-0.501708 -0.100569 0.109800 128 128 255 -0.000526 1.000000 0.000000
-0.100358 -0.100358 0.109551 128 128 255 -0.000526 1.000000 0.000000
-0.100358 -0.100358 0.109132 128 128 255 0.000000 0.000000 0.000000
-0.100358 -0.100358 0.108727 128 128 255 0.000000 0.000000 0.000000
-0.100358 -0.100358 0.108340 128 128 255 0.000000 0.000000 0.000000
-0.100358 -0.100358 0.107973 128 128 255 0.000000 0.000000 0.000000
-0.100358 -0.100358 0.107630 128 128 255 0.000000 0.000000 0.000000
-0.100358 -0.100358 0.107312 128 128 255 0.000000 0.000000 0.000000
-0.100358 -0.100358 0.107021 128 128 255 0.000000 0.000000 0.000000
-0.100358 -0.100358 0.106759 128 128 255 0.000000 0.000000 0.000000
-0.100358 -0.100358 0.106525 128 128 255 0.000000 1.000000 0.000000
0.300358 -0.100358 0.106321 128 128 255 0.000000 1.000000 0.000000
0.300358 -0.100358 0.106150 128 128 255 0.000000 0.000000 0.000000
0.300358 -0.100358 0.106012 128 128 255 0.000000 0.000000 0.000000
0.300358 -0.100358 0.105911 128 128 255 0.000000 0.000000 0.000000
0.300358 -0.100358 0.105848 128 128 255 0.000000 0.000000 0.000000
0.300358 -0.100358 0.105826 128 128 255 0.000000 0.000000 0.000000
0.300358 -0.100358 0.105847 128 128 255 0.000000 0.000000 0.000000
0.300358 -0.100358 0.105912 128 128 255 0.000000 0.000000 0.000000
0.300358 -0.100358 0.106021 128 128 255 0.000000 0.000000 0.000000
0.300358 -0.100358 0.106174 128 128 255 0.000000 0.000000 0.000000
0.300358 -0.100358 0.106369 128 128 255 -0.000526 -1.000000 0.000000
0.701708 -0.100569 0.106425 128 128 255 -0.000526 -1.000000 0.000000
0.701708 -0.100569 0.106701 128 128 255 0.000000 0.000000 0.000000
0.701708 -0.100569 0.107011 128 128 255 0.000000 0.000000 0.000000
0.701708 -0.100569 0.107355 128 128 255 0.000000 0.000000 0.000000
0.701708 -0.100569 0.107728 128 128 255 0.000000 0.000000 0.000000
0.701708 -0.100569 0.108125 128 128 255 0.000000 0.000000 0.000000
0.701708 -0.100569 0.108544 128 128 255 0.000000 0.000000 0.000000
0.701708 -0.100569 0.108979 128 128 255 0.000000 0.000000 0.000000
0.701708 -0.100569 0.109426 128 128 255 0.000000 0.000000 0.000000
0.701708 -0.100569 0.109880 128 128 255 0.000000 0.000000 0.000000
0.701708 -0.100569 0.110336 128 128 255 0.000109 -1.000000 0.000000
1.102629 -0.100526 0.110664 128 128 255 0.000109 -1.000000 0.000000
1.102629 -0.100526 0.111110 128 128 255 0.000000 0.000000 0.000000
1.102629 -0.100526 0.111545 128 128 255 0.000000 0.000000 0.000000
1.102629 -0.100526 0.111963 128 128 255 0.000000 0.000000 0.000000
1.102629 -0.100526 0.112360 128 128 255 0.000000 0.000000 0.000000
1.102629 -0.100526 0.112732 128 128 255 0.000000 0.000000 0.000000
1.102629 -0.100526 0.113076 128 128 255 0.000000 0.000000 0.000000
1.102629 -0.100526 0.113387 128 128 255 0.000000 0.000000 0.000000
1.102629 -0.100526 0.113662 128 128 255 0.000000 0.000000 0.000000
1.102629 -0.100526 0.113898 128 128 255 0.000804 -1.000000 0.000000
1.501438 -0.100205 0.114024 128 128 255 0.000804 -1.000000 0.000000
-0.902629 -0.100526 0.114185 128 128 255 0.000000 0.000000 0.000000
-0.902629 -0.100526 0.114343 128 128 255 0.000000 0.000000 0.000000
-0.902629 -0.100526 0.114454 128 128 255 0.000000 0.000000 0.000000
-0.902629 -0.100526 0.114520 128 128 255 0.000000 0.000000 0.000000
-0.902629 -0.100526 0.114539 128 128 255 0.000000 0.000000 0.000000
-0.902629 -0.100526 0.114512 128 128 255 0.000000 0.000000 0.000000
-0.902629 -0.100526 0.114439 128 128 255 0.000000 0.000000 0.000000
-0.902629 -0.100526 0.114321 128 128 255 0.000000 0.000000 0.000000
-0.902629 -0.100526 0.114160 128 128 255 0.000000 0.000000 0.000000
-0.902629 -0.100526 0.113957 128 128 255 0.000000 0.000000 0.000000
-0.902629 -0.100526 0.113715 128 128 255 0.000109 1.000000 0.000000
-0.501708 -0.100569 0.113563 128 128 255 0.000109 1.000000 0.000000
-0.501708 -0.100569 0.113251 128 128 255 0.000000 0.000000 0.000000
-0.501708 -0.100569 0.112910 128 128 255 0.000000 0.000000 0.000000
-0.501708 -0.100569 0.112542 128 128 255 0.000000 0.000000 0.000000
-0.501708 -0.100569 0.112152 128 128 255 0.000000 0.000000 0.000000
-0.501708 -0.100569 0.111745 128 128 255 0.000000 0.000000 0.000000
-0.501708 -0.100569 0.111324 128 128 255 0.000000 0.000000 0.000000
-0.501708 -0.100569 0.110894 128 128 255 0.000000 0.000000 0.000000
-0.501708 -0.100569 0.110460 128 128 255 0.000000 0.000000 0.000000
-0.501708 -0.100569 0.110025 128 128 255 0.000000 0.000000 0.000000
-0.501708 -0.100569 0.109596 128 128 255 -0.000526 1.000000 0.000000
-0.100358 -0.100358 0.109356 128 128 255 -0.000526 1.000000 0.000000
-0.100358 -0.100358 0.108949 128 128 255 0.000000 0.000000 0.000000
-0.100358 -0.100358 0.108559 128 128 255 0.000000 0.000000 0.000000
-0.100358 -0.100358 0.108190 128 128 255 0.000000 0.000000 0.000000
-0.100358 -0.100358 0.107843 128 128 255 0.000000 0.000000 0.000000
-0.100358 -0.100358 0.107523 128 128 255 0.000000 0.000000 0.000000
-0.100358 -0.100358 0.107230 128 128 255 0.000000 0.000000 0.000000
-0.100358 -0.100358 0.106964 128 128 255 0.000000 0.000000 0.000000
-0.100358 -0.100358 0.106727 128 128 255 0.000000 0.000000 0.000000
-0.100358 -0.100358 0.106518 128 128 255 0.000000 -1.000000 0.000000
0.300358 -0.100358 0.106338 128 128 255 0.000000 -1.000000 0.000000
0.300358 -0.100358 0.106188 128 128 255 0.000000 0.000000 0.000000
0.300358 -0.100358 0.106070 128 128 255 0.000000 0.000000 0.000000
0.300358 -0.100358 0.105986 128 128 255 0.000000 0.000000 0.000000
0.300358 -0.100358 0.105940 128 128 255 0.000000 0.000000 0.000000
0.300358 -0.100358 0.105935 128 128 255 0.000000 0.000000 0.000000
0.300358 -0.100358 0.105972 128 128 255 0.000000 0.000000 0.000000
0.300358 -0.100358 0.106052 128 128 255 0.000000 0.000000 0.000000
0.300358 -0.100358 0.106177 128 128 255 0.000000 0.000000 0.000000
0.300358 -0.100358 0.106345 128 128 255 0.000000 0.000000 0.000000
0.300358 -0.100358 0.106555 128 128 255 -0.000526 -1.000000 0.000000
0.701708 -0.100569 0.106625 128 128 255 -0.000526 -1.000000 0.000000
0.701708 -0.100569 0.106913 128 128 255 0.000000 0.000000 0.000000
0.701708 -0.100569 0.107236 128 128 255 0.000000 0.000000 0.000000
0.701708 -0.100569 0.107590 128 128 255 0.000000 0.000000 0.000000
0.701708 -0.100569 0.107971 128 128 255 0.000000 0.000000 0.000000
0.701708 -0.100569 0.108376 128 128 255 0.000000 0.000000 0.000000
0.701708 -0.100569 0.108800 128 128 255 0.000000 0.000000 0.000000
0.701708 -0.100569 0.109238 128 128 255 0.000000 0.000000 0.000000
0.701708 -0.100569 0.109686 128 128 255 0.000000 0.000000 0.000000
0.701708 -0.100569 0.110139 128 128 255 0.000000 0.000000 0.000000
0.701708 -0.100569 0.110592 128 128 255 0.000109 -1.000000 0.000000
1.102629 -0.100526 0.110914 128 128 255 0.000109 -1.000000 0.000000
1.102629 -0.100526 0.111353 128 128 255 0.000000 0.000000 0.000000
1.102629 -0.100526 0.111777 128 128 255 0.000000 0.000000 0.000000
1.102629 -0.100526 0.112184 128 128 255 0.000000 0.000000 0.000000
1.102629 -0.100526 0.112567 128 128 255 0.000000 0.000000 0.000000
1.102629 -0.100526 0.112924 128 128 255 0.000000 0.000000 0.000000
1.102629 -0.100526 0.113250 128 128 255 0.000000 0.000000 0.000000
1.102629 -0.100526 0.113542 128 128 255 0.000000 0.000000 0.000000
1.102629 -0.100526 0.113797 128 128 255 0.000000 0.000000 0.000000
1.102629 -0.100526 0.114012 128 128 255 0.000804 -1.000000 0.000000
1.501438 -0.100205 0.114115 128 128 255 0.000804 -1.000000 0.000000
-0.902629 -0.100526 0.114265 128 128 255 0.000000 0.000000 0.000000
-0.902629 -0.100526 0.114400 128 128 255 0.000000 0.000000 0.000000
-0.902629 -0.100526 0.114488 128 128 255 0.000000 0.000000 0.000000
-0.902629 -0.100526 0.114530 128 128 255 0.000000 0.000000 0.000000
-0.902629 -0.100526 0.114526 128 128 255 0.000000 0.000000 0.000000
-0.902629 -0.100526 0.114475 128 128 255 0.000000 0.000000 0.000000
-0.902629 -0.100526 0.114379 128 128 255 0.000000 0.000000 0.000000
-0.902629 -0.100526 0.114239 128 128 255 0.000000 0.000000 0.000000
-0.902629 -0.100526 0.114057 128 128 255 0.000000 0.000000 0.000000
-0.902629 -0.100526 0.113834 128 128 255 0.000000 0.000000 0.000000
-0.902629 -0.100526 0.113573 128 128 255 0.000109 1.000000 0.000000
-0.501708 -0.100569 0.113404 128 128 255 0.000109 1.000000 0.000000
-0.501708 -0.100569 0.113077 128 128 255 0.000000 0.000000 0.000000
-0.501708 -0.100569 0.112723 128 128 255 0.000000 0.000000 0.000000
-0.501708 -0.100569 0.112344 128 128 255 0.000000 0.000000 0.000000
-0.501708 -0.100569 0.111945 128 128 255 0.000000 0.000000 0.000000
-0.501708 -0.100569 0.111531 128 128 255 0.000000 0.000000 0.000000
-0.501708 -0.100569 0.111107 128 128 255 0.000000 0.000000 0.000000
-0.501708 -0.100569 0.110675 128 128 255 0.000000 0.000000 0.000000
-0.501708 -0.100569 0.110243 128 128 255 0.000000 0.000000 0.000000
-0.501708 -0.100569 0.109813 128 128 255 0.000000 0.000000 0.000000
-0.501708 -0.100569 0.109391 128 128 255 -0.000526 1.000000 0.000000
-0.100358 -0.100358 0.109161 128 128 255 -0.000526 1.000000 0.000000
-0.100358 -0.100358 0.108768 128 128 255 0.000000 0.000000 0.000000
-0.100358 -0.100358 0.108394 128 128 255 0.000000 0.000000 0.000000
-0.100358 -0.100358 0.108044 128 128 255 0.000000 0.000000 0.000000
-0.100358 -0.100358 0.107720 128 128 255 0.000000 0.000000 0.000000
-0.100358 -0.100358 0.107424 128 128 255 0.000000 0.000000 0.000000
-0.100358 -0.100358 0.107158 128 128 255 0.000000 0.000000 0.000000
-0.100358 -0.100358 0.106920 128 128 255 0.000000 0.000000 0.000000
-0.100358 -0.100358 0.106711 128 128 255 0.000000 0.000000 0.000000
-0.100358 -0.100358 0.106529 128 128 255 0.000000 -1.000000 0.000000
0.300358 -0.100358 0.106373 128 128 255 0.000000 -1.000000 0.000000
0.300358 -0.100358 0.106245 128 128 255 0.000000 0.000000 0.000000
0.300358 -0.100358 0.106145 128 128 255 0.000000 0.000000 0.000000
0.300358 -0.100358 0.106078 128 128 255 0.000000 0.000000 0.000000
0.300358 -0.100358 0.106047 128 128 255 0.000000 0.000000 0.000000
0.300358 -0.100358 0.106056 128 128 255 0.000000 0.000000 0.000000
0.300358 -0.100358 0.106108 128 128 255 0.000000 0.000000 0.000000
0.300358 -0.100358 0.106203 128 128 255 0.000000 0.000000 0.000000
0.300358 -0.100358 0.106342 128 128 255 0.000000 0.000000 0.000000
0.300358 -0.100358 0.106524 128 128 255 0.000000 0.000000 0.000000
0.300358 -0.100358 0.106748 128 128 255 -0.000526 -1.000000 0.000000
0.701708 -0.100569 0.106831 128 128 255 -0.000526 -1.000000 0.000000
0.701708 -0.100569 0.107131 128 128 255 0.000000 0.000000 0.000000
0.701708 -0.100569 0.107465 128 128 255 0.000000 0.000000 0.000000
0.701708 -0.100569 0.107828 128 128 255 0.000000 0.000000 0.000000
0.701708 -0.100569 0.108218 128 128 255 0.000000 0.000000 0.000000
0.701708 -0.100569 0.108629 128 128 255 0.000000 0.000000 0.000000
0.701708 -0.100569 0.109056 128 128 255 0.000000 0.000000 0.000000
0.701708 -0.100569 0.109497 128 128 255 0.000000 0.000000 0.000000
0.701708 -0.100569 0.109945 128 128 255 0.000000 0.000000 0.000000
0.701708 -0.100569 0.110395 128 128 255 0.000000 0.000000 0.000000
0.701708 -0.100569 0.110844 128 128 255 0.000109 -1.000000 0.000000
1.102629 -0.100526 0.111160 128 128 255 0.000109 -1.000000 0.000000
1.102629 -0.100526 0.111590 128 128 255 0.000000 0.000000 0.000000
1.102629 -0.100526 0.112004 128 128 255 0.000000 0.000000 0.000000
1.102629 -0.100526 0.112398 128 128 255 0.000000 0.000000 0.000000
1.102629 -0.100526 0.112767 128 128 255 0.000000 0.000000 0.000000
1.102629 -0.100526 0.113107 128 128 255 0.000000 0.000000 0.000000
1.102629 -0.100526 0.113415 128 128 255 0.000000 0.000000 0.000000
1.102629 -0.100526 0.113688 128 128 255 0.000000 0.000000 0.000000
1.102629 -0.100526 0.113922 128 128 255 0.000000 0.000000 0.000000
1.102629 -0.100526 0.114115 128 128 255 0.000804 -1.000000 0.000000
1.501438 -0.100205 0.114195 128 128 255 0.000804 -1.000000 0.000000
-0.902629 -0.100526 0.114333 128 128 255 0.000000 0.000000 0.000000
-0.902629 -0.100526 0.114444 128 128 255 0.000000 0.000000 0.000000
-0.902629 -0.100526 0.114509 128 128 255 0.000000 0.000000 0.000000
-0.902629 -0.100526 0.114528 128 128 255 0.000000 0.000000 0.000000
-0.902629 -0.100526 0.114500 128 128 255 0.000000 0.000000 0.000000
-0.902629 -0.100526 0.114426 128 128 255 0.000000 0.000000 0.000000
-0.902629 -0.100526 0.114308 128 128 255 0.000000 0.000000 0.000000
-0.902629 -0.100526 0.114146 128 128 255 0.000000 0.000000 0.000000
-0.902629 -0.100526 0.113942 128 128 255 0.000000 0.000000 0.000000
-0.902629 -0.100526 0.113700 128 128 255 0.000000 0.000000 0.000000
-0.902629 -0.100526 0.113421 128 128 255 0.000109 1.000000 0.000000
-0.501708 -0.100569 0.113236 128 128 255 0.000109 1.000000 0.000000
-0.501708 -0.100569 0.112894 128 128 255 0.000000 0.000000 0.000000
-0.501708 -0.100569 0.112527 128 128 255 0.000000 0.000000 0.000000
-0.501708 -0.100569 0.112138 128 128 255 0.000000 0.000000 0.000000
-0.501708 -0.100569 0.111732 128 128 255 0.000000 0.000000 0.000000
-0.501708 -0.100569 0.111312 128 128 255 0.000000 0.000000 0.000000
-0.501708 -0.100569 0.110885 128 128 255 0.000000 0.000000 0.000000
-0.501708 -0.100569 0.110453 128 128 255 0.000000 0.000000 0.000000
-0.501708 -0.100569 0.110023 128 128 255 0.000000 0.000000 0.000000
-0.501708 -0.100569 0.109599 128 128 255 0.000000 0.000000 0.000000
-0.501708 -0.100569 0.109185 128 128 255 -0.000526 1.000000 0.000000
-0.100358 -0.100358 0.108967 128 128 255 -0.000526 1.000000 0.000000
-0.100358 -0.100358 0.108588 128 128 255 0.000000 0.000000 0.000000
-0.100358 -0.100358 0.108232 128 128 255 0.000000 0.000000 0.000000
-0.100358 -0.100358 0.107902 128 128 255 0.000000 0.000000 0.000000
-0.100358 -0.100358 0.107602 128 128 255 0.000000 0.000000 0.000000
-0.100358 -0.100358 0.107333 128 128 255 0.000000 0.000000 0.000000
-0.100358 -0.100358 0.107096 128 128 255 0.000000 0.000000 0.000000
-0.100358 -0.100358 0.106889 128 128 255 0.000000 0.000000 0.000000
-0.100358 -0.100358 0.106711 128 128 255 0.000000 0.000000 0.000000
-0.100358 -0.100358 0.106558 128 128 255 0.000000 -1.000000 0.000000
0.300358 -0.100358 0.106428 128 128 255 0.000000 -1.000000 0.000000
0.300358 -0.100358 0.106320 128 128 255 0.000000 0.000000 0.000000
0.300358 -0.100358 0.106237 128 128 255 0.000000 0.000000 0.000000
0.300358 -0.100358 0.106184 128 128 255 0.000000 0.000000 0.000000
0.300358 -0.100358 0.106166 128 128 255 0.000000 0.000000 0.000000
0.300358 -0.100358 0.106188 128 128 255 0.000000 0.000000 0.000000
0.300358 -0.100358 0.106252 128 128 255 0.000000 0.000000 0.000000
0.300358 -0.100358 0.106361 128 128 255 0.000000 0.000000 0.000000
0.300358 -0.100358 0.106514 128 128 255 0.000000 0.000000 0.000000
0.300358 -0.100358 0.106709 128 128 255 0.000000 0.000000 0.000000
0.300358 -0.100358 0.106946 128 128 255 -0.000526 -1.000000 0.000000
0.701708 -0.100569 0.107042 128 128 255 -0.000526 -1.000000 0.000000
0.701708 -0.100569 0.107354 128 128 255 0.000000 0.000000 0.000000
0.701708 -0.100569 0.107698 128 128 255 0.000000 0.000000 0.000000
0.701708 -0.100569 0.108070 128 128 255 0.000000 0.000000 0.000000
0.701708 -0.100569 0.108466 128 128 255 0.000000 0.000000 0.000000
0.701708 -0.100569 0.108883 128 128 255 0.000000 0.000000 0.000000
0.701708 -0.100569 0.109314 128 128 255 0.000000 0.000000 0.000000
0.701708 -0.100569 0.109755 128 128 255 0.000000 0.000000 0.000000
0.701708 -0.100569 0.110202 128 128 255 0.000000 0.000000 0.000000
0.701708 -0.100569 0.110650 128 128 255 0.000000 0.000000 0.000000
0.701708 -0.100569 0.111093 128 128 255 0.000109 -1.000000 0.000000
1.102629 -0.100526 0.111401 128 128 255 0.000109 -1.000000 0.000000
1.102629 -0.100526 0.111822 128 128 255 0.000000 0.000000 0.000000
1.102629 -0.100526 0.112224 128 128 255 0.000000 0.000000 0.000000
1.102629 -0.100526 0.112604 128 128 255 0.000000 0.000000 0.000000
1.102629 -0.100526 0.112958 128 128 255 0.000000 0.000000 0.000000
1.102629 -0.100526 0.113281 128 128 255 0.000000 0.000000 0.000000
1.102629 -0.100526 0.113570 128 128 255 0.000000 0.000000 0.000000
1.102629 -0.100526 0.113823 128 128 255 0.000000 0.000000 0.000000
1.102629 -0.100526 0.114035 128 128 255 0.000000 0.000000 0.000000
1.102629 -0.100526 0.114206 128 128 255 0.000804 -1.000000 0.000000
1.501438 -0.100205 0.114263 128 128 255 0.000804 -1.000000 0.000000
-0.902629 -0.100526 0.114389 128 128 255 0.000000 0.000000 0.000000
-0.902629 -0.100526 0.114477 128 128 255 0.000000 0.000000 0.000000
-0.902629 -0.100526 0.114518 128 128 255 0.000000 0.000000 0.000000
-0.902629 -0.100526 0.114513 128 128 255 0.000000 0.000000 0.000000
-0.902629 -0.100526 0.114461 128 128 255 0.000000 0.000000 0.000000
-0.902629 -0.100526 0.114365 128 128 255 0.000000 0.000000 0.000000
-0.902629 -0.100526 0.114224 128 128 255 0.000000 0.000000 0.000000
-0.902629 -0.100526 0.114040 128 128 255 0.000000 0.000000 0.000000
-0.902629 -0.100526 0.113817 128 128 255 0.000000 0.000000 0.000000
-0.902629 -0.100526 0.113555 128 128 255 0.000000 0.000000 0.000000
-0.902629 -0.100526 0.113259 128 128 255 0.000109 1.000000 0.000000
-0.501708 -0.100569 0.113058 128 128 255 0.000109 1.000000 0.000000
-0.501708 -0.100569 0.112703 128 128 255 0.000000 0.000000 0.000000
-0.501708 -0.100569 0.112324 128 128 255 0.000000 0.000000 0.000000
-0.501708 -0.100569 0.111925 128 128 255 0.000000 0.000000 0.000000
-0.501708 -0.100569 0.111512 128 128 255 0.000000 0.000000 0.000000
-0.501708 -0.100569 0.111088 128 128 255 0.000000 0.000000 0.000000
-0.501708 -0.100569 0.110658 128 128 255 0.000000 0.000000 0.000000
-0.501708 -0.100569 0.110227 128 128 255 0.000000 0.000000 0.000000
-0.501708 -0.100569 0.109800 128 128 255 0.000000 0.000000 0.000000
-0.501708 -0.100569 0.109382 128 128 255 0.000000 0.000000 0.000000
-0.501708 -0.100569 0.108978 128 128 255 -0.000526 1.000000 0.000000
-0.100358 -0.100358 0.108772 128 128 255 -0.000526 1.000000 0.000000
-0.100358 -0.100358 0.108408 128 128 255 0.000000 0.000000 0.000000
-0.100358 -0.100358 0.108070 128 128 255 0.000000 0.000000 0.000000
-0.100358 -0.100358 0.107762 128 128 255 0.000000 0.000000 0.000000
-0.100358 -0.100358 0.107487 128 128 255 0.000000 0.000000 0.000000
-0.100358 -0.100358 0.107247 128 128 255 0.000000 0.000000 0.000000
-0.100358 -0.100358 0.107041 128 128 255 0.000000 0.000000 0.000000
-0.100358 -0.100358 0.106869 128 128 255 0.000000 0.000000 0.000000
-0.100358 -0.100358 0.106726 128 128 255 0.000000 0.000000 0.000000
-0.100358 -0.100358 0.106606 128 128 255 0.000000 -1.000000 0.000000
0.300358 -0.100358 0.106503 128 128 255 0.000000 -1.000000 0.000000
0.300358 -0.100358 0.106415 128 128 255 0.000000 0.000000 0.000000
0.300358 -0.100358 0.106345 128 128 255 0.000000 0.000000 0.000000
0.300358 -0.100358 0.106302 128 128 255 0.000000 0.000000 0.000000
0.300358 -0.100358 0.106294 128 128 255 0.000000 0.000000 0.000000
0.300358 -0.100358 0.106327 128 128 255 0.000000 0.000000 0.000000
0.300358 -0.100358 0.106403 128 128 255 0.000000 0.000000 0.000000
0.300358 -0.100358 0.106525 128 128 255 0.000000 0.000000 0.000000
0.300358 -0.100358 0.106691 128 128 255 0.000000 0.000000 0.000000
0.300358 -0.100358 0.106900 128 128 255 0.000000 0.000000 0.000000
0.300358 -0.100358 0.107149 128 128 255 -0.000526 -1.000000 0.000000
0.701708 -0.100569 0.107257 128 128 255 -0.000526 -1.000000 0.000000
0.701708 -0.100569 0.107580 128 128 255 0.000000 0.000000 0.000000
0.701708 -0.100569 0.107934 128 128 255 0.000000 0.000000 0.000000
0.701708 -0.100569 0.108314 128 128 255 0.000000 0.000000 0.000000
0.701708 -0.100569 0.108716 128 128 255 0.000000 0.000000 0.000000
0.701708 -0.100569 0.109137 128 128 255 0.000000 0.000000 0.000000
0.701708 -0.100569 0.109570 128 128 255 0.000000 0.000000 0.000000
0.701708 -0.100569 0.110012 128 128 255 0.000000 0.000000 0.000000
0.701708 -0.100569 0.110457 128 128 255 0.000000 0.000000 0.000000
0.701708 -0.100569 0.110900 128 128 255 0.000000 0.000000 0.000000
0.701708 -0.100569 0.111337 128 128 255 0.000109 -1.000000 0.000000
1.102629 -0.100526 0.111637 128 128 255 0.000109 -1.000000 0.000000
1.102629 -0.100526 0.112047 128 128 255 0.000000 0.000000 0.000000
1.102629 -0.100526 0.112437 128 128 255 0.000000 0.000000 0.000000
1.102629 -0.100526 0.112803 128 128 255 0.000000 0.000000 0.000000
1.102629 -0.100526 0.113140 128 128 255 0.000000 0.000000 0.000000
1.102629 -0.100526 0.113445 128 128 255 0.000000 0.000000 0.000000
1.102629 -0.100526 0.113715 128 128 255 0.000000 0.000000 0.000000
1.102629 -0.100526 0.113947 128 128 255 0.000000 0.000000 0.000000
1.102629 -0.100526 0.114138 128 128 255 0.000000 0.000000 0.000000
1.102629 -0.100526 0.114286 128 128 255 0.000804 -1.000000 0.000000
1.501438 -0.100205 0.114319 128 128 255 0.000804 -1.000000 0.000000
-0.902629 -0.100526 0.114433 128 128 255 0.000000 0.000000 0.000000
-0.902629 -0.100526 0.114497 128 128 255 0.000000 0.000000 0.000000
-0.902629 -0.100526 0.114514 128 128 255 0.000000 0.000000 0.000000
-0.902629 -0.100526 0.114485 128 128 255 0.000000 0.000000 0.000000
-0.902629 -0.100526 0.114410 128 128 255 0.000000 0.000000 0.000000
-0.902629 -0.100526 0.114291 128 128 255 0.000000 0.000000 0.000000
-0.902629 -0.100526 0.114128 128 128 255 0.000000 0.000000 0.000000
-0.902629 -0.100526 0.113923 128 128 255 0.000000 0.000000 0.000000
-0.902629 -0.100526 0.113680 128 128 255 0.000000 0.000000 0.000000
-0.902629 -0.100526 0.113400 128 128 255 0.000000 0.000000 0.000000
-0.902629 -0.100526 0.113087 128 128 255 0.000109 1.000000 0.000000
-0.501708 -0.100569 0.112871 128 128 255 0.000109 1.000000 0.000000
-0.501708 -0.100569 0.112503 128 128 255 0.000000 0.000000 0.000000
-0.501708 -0.100569 0.112113 128 128 255 0.000000 0.000000 0.000000
-0.501708 -0.100569 0.111706 128 128 255 0.000000 0.000000 0.000000
-0.501708 -0.100569 0.111286 128 128 255 0.000000 0.000000 0.000000
-0.501708 -0.100569 0.110858 128 128 255 0.000000 0.000000 0.000000
-0.501708 -0.100569 0.110427 128 128 255 0.000000 0.000000 0.000000
-0.501708 -0.100569 0.109997 128 128 255 0.000000 0.000000 0.000000
-0.501708 -0.100569 0.109575 128 128 255 0.000000 0.000000 0.000000
-0.501708 -0.100569 0.109164 128 128 255 0.000000 0.000000 0.000000
-0.501708 -0.100569 0.108769 128 128 255 -0.000526 1.000000 0.000000
-0.100358 -0.100358 0.108575 128 128 255 -0.000526 1.000000 0.000000
-0.100358 -0.100358 0.108227 128 128 255 0.000000 0.000000 0.000000
-0.100358 -0.100358 0.107908 128 128 255 0.000000 0.000000 0.000000
-0.100358 -0.100358 0.107622 128 128 255 0.000000 0.000000 0.000000
-0.100358 -0.100358 0.107373 128 128 255 0.000000 0.000000 0.000000
-0.100358 -0.100358 0.107162 128 128 255 0.000000 0.000000 0.000000
-0.100358 -0.100358 0.106990 128 128 255 0.000000 0.000000 0.000000
-0.100358 -0.100358 0.106855 128 128 255 0.000000 0.000000 0.000000
-0.100358 -0.100358 0.106753 128 128 255 0.000000 0.000000 0.000000
-0.100358 -0.100358 0.106672 128 128 255 0.000000 -1.000000 0.000000
0.300358 -0.100358 0.106599 128 128 255 0.000000 -1.000000 0.000000
0.300358 -0.100358 0.106528 128 128 255 0.000000 0.000000 0.000000
0.300358 -0.100358 0.106466 128 128 255 0.000000 0.000000 0.000000
0.300358 -0.100358 0.106429 128 128 255 0.000000 0.000000 0.000000
0.300358 -0.100358 0.106428 128 128 255 0.000000 0.000000 0.000000
0.300358 -0.100358 0.106470 128 128 255 0.000000 0.000000 0.000000
0.300358 -0.100358 0.106558 128 128 255 0.000000 0.000000 0.000000
0.300358 -0.100358 0.106691 128 128 255 0.000000 0.000000 0.000000
0.300358 -0.100358 0.106870 128 128 255 0.000000 0.000000 0.000000
0.300358 -0.100358 0.107093 128 128 255 0.000000 0.000000 0.000000
0.300358 -0.100358 0.107355 128 128 255 -0.000526 -1.000000 0.000000
0.701708 -0.100569 0.107475 128 128 255 -0.000526 -1.000000 0.000000
0.701708 -0.100569 0.107808 128 128 255 0.000000 0.000000 0.000000
0.701708 -0.100569 0.108171 128 128 255 0.000000 0.000000 0.000000
0.701708 -0.100569 0.108558 128 128 255 0.000000 0.000000 0.000000
0.701708 -0.100569 0.108967 128 128 255 0.000000 0.000000 0.000000
0.701708 -0.100569 0.109391 128 128 255 0.000000 0.000000 0.000000
0.701708 -0.100569 0.109825 128 128 255 0.000000 0.000000 0.000000
0.701708 -0.100569 0.110266 128 128 255 0.000000 0.000000 0.000000
0.701708 -0.100569 0.110709 128 128 255 0.000000 0.000000 0.000000
0.701708 -0.100569 0.111147 128 128 255 0.000000 0.000000 0.000000
0.701708 -0.100569 0.111577 128 128 255 0.000109 -1.000000 0.000000
1.102629 -0.100526 0.111867 128 128 255 0.000109 -1.000000 0.000000
1.102629 -0.100526 0.112266 128 128 255 0.000000 0.000000 0.000000
1.102629 -0.100526 0.112642 128 128 255 0.000000 0.000000 0.000000
1.102629 -0.100526 0.112992 128 128 255 0.000000 0.000000 0.000000
1.102629 -0.100526 0.113312 128 128 255 0.000000 0.000000 0.000000
1.102629 -0.100526 0.113599 128 128 255 0.000000 0.000000 0.000000
1.102629 -0.100526 0.113849 128 128 255 0.000000 0.000000 0.000000
1.102629 -0.100526 0.114059 128 128 255 0.000000 0.000000 0.000000
1.102629 -0.100526 0.114228 128 128 255 0.000000 0.000000 0.000000
1.102629 -0.100526 0.114353 128 128 255 0.000804 -1.000000 0.000000
1.501438 -0.100205 0.114362 128 128 255 0.000804 -1.000000 0.000000
-0.902629 -0.100526 0.114464 128 128 255 0.000000 0.000000 0.000000
-0.902629 -0.100526 0.114504 128 128 255 0.000000 0.000000 0.000000
-0.902629 -0.100526 0.114498 128 128 255 0.000000 0.000000 0.000000
-0.902629 -0.100526 0.114445 128 128 255 0.000000 0.000000 0.000000
-0.902629 -0.100526 0.114347 128 128 255 0.000000 0.000000 0.000000
-0.902629 -0.100526 0.114205 128 128 255 0.000000 0.000000 0.000000
-0.902629 -0.100526 0.114020 128 128 255 0.000000 0.000000 0.000000
-0.902629 -0.100526 0.113795 128 128 255 0.000000 0.000000 0.000000
-0.902629 -0.100526 0.113532 128 128 255 0.000000 0.000000 0.000000
-0.902629 -0.100526 0.113234 128 128 255 0.000000 0.000000 0.000000
-0.902629 -0.100526 0.112905 128 128 255 0.000109 1.000000 0.000000
-0.501708 -0.100569 0.112675 128 128 255 0.000109 1.000000 0.000000
-0.501708 -0.100569 0.112294 128 128 255 0.000000 0.000000 0.000000
-0.501708 -0.100569 0.111894 128 128 255 0.000000 0.000000 0.000000
-0.501708 -0.100569 0.111479 128 128 255 0.000000 0.000000 0.000000
-0.501708 -0.100569 0.111054 128 128 255 0.000000 0.000000 0.000000
-0.501708 -0.100569 0.110623 128 128 255 0.000000 0.000000 0.000000
-0.501708 -0.100569 0.110191 128 128 255 0.000000 0.000000 0.000000
-0.501708 -0.100569 0.109764 128 128 255 0.000000 0.000000 0.000000
-0.501708 -0.100569 0.109346 128 128 255 0.000000 0.000000 0.000000
-0.501708 -0.100569 0.108943 128 128 255 0.000000 0.000000 0.000000
-0.501708 -0.100569 0.108558 128 128 255 -0.000526 1.000000 0.000000
-0.100358 -0.100358 0.108377 128 128 255 -0.000526 1.000000 0.000000
-0.100358 -0.100358 0.108044 128 128 255 0.000000 0.000000 0.000000
-0.100358 -0.100358 0.107744 128 128 255 0.000000 0.000000 0.000000
-0.100358 -0.100358 0.107480 128 128 255 0.000000 0.000000 0.000000
-0.100358 -0.100358 0.107256 128 128 255 0.000000 0.000000 0.000000
-0.100358 -0.100358 0.107074 128 128 255 0.000000 0.000000 0.000000
-0.100358 -0.100358 0.106936 128 128 255 0.000000 0.000000 0.000000
-0.100358 -0.100358 0.106841 128 128 255 0.000000 0.000000 0.000000
-0.100358 -0.100358 0.106785 128 128 255 0.000000 0.000000 0.000000
-0.100358 -0.100358 0.106752 128 128 255 0.000000 -1.000000 0.000000
0.300358 -0.100358 0.106716 128 128 255 0.000000 -1.000000 0.000000
0.300358 -0.100358 0.106656 128 128 255 0.000000 0.000000 0.000000
0.300358 -0.100358 0.106593 128 128 255 0.000000 0.000000 0.000000
0.300358 -0.100358 0.106556 128 128 255 0.000000 0.000000 0.000000
0.300358 -0.100358 0.106561 128 128 255 0.000000 0.000000 0.000000
0.300358 -0.100358 0.106612 128 128 255 0.000000 0.000000 0.000000
0.300358 -0.100358 0.106711 128 128 255 0.000000 0.000000 0.000000
0.300358 -0.100358 0.106858 128 128 255 0.000000 0.000000 0.000000
0.300358 -0.100358 0.107051 128 128 255 0.000000 0.000000 0.000000
0.300358 -0.100358 0.107286 128 128 255 0.000000 0.000000 0.000000
0.300358 -0.100358 0.107562 128 128 255 -0.000526 -1.000000 0.000000
0.701708 -0.100569 0.107693 128 128 255 -0.000526 -1.000000 0.000000
0.701708 -0.100569 0.108037 128 128 255 0.000000 0.000000 0.000000
0.701708 -0.100569 0.108408 128 128 255 0.000000 0.000000 0.000000
0.701708 -0.100569 0.108803 128 128 255 0.000000 0.000000 0.000000
0.701708 -0.100569 0.109216 128 128 255 0.000000 0.000000 0.000000
0.701708 -0.100569 0.109643 128 128 255 0.000000 0.000000 0.000000
0.701708 -0.100569 0.110078 128 128 255 0.000000 0.000000 0.000000
0.701708 -0.100569 0.110518 128 128 255 0.000000 0.000000 0.000000
0.701708 -0.100569 0.110956 128 128 255 0.000000 0.000000 0.000000
0.701708 -0.100569 0.111389 128 128 255 0.000000 0.000000 0.000000
0.701708 -0.100569 0.111810 128 128 255 0.000109 -1.000000 0.000000
1.102629 -0.100526 0.112090 128 128 255 0.000109 -1.000000 0.000000
1.102629 -0.100526 0.112477 128 128 255 0.000000 0.000000 0.000000
1.102629 -0.100526 0.112839 128 128 255 0.000000 0.000000 0.000000
1.102629 -0.100526 0.113173 128 128 255 0.000000 0.000000 0.000000
1.102629 -0.100526 0.113475 128 128 255 0.000000 0.000000 0.000000
1.102629 -0.100526 0.113743 128 128 255 0.000000 0.000000 0.000000
1.102629 -0.100526 0.113972 128 128 255 0.000000 0.000000 0.000000
1.102629 -0.100526 0.114161 128 128 255 0.000000 0.000000 0.000000
1.102629 -0.100526 0.114307 128 128 255 0.000000 0.000000 0.000000
1.102629 -0.100526 0.114408 128 128 255 0.000804 -1.000000 0.000000
1.501438 -0.100205 0.114394 128 128 255 0.000804 -1.000000 0.000000
-0.902629 -0.100526 0.114483 128 128 255 -1.000000 0.000000 0.000000
-0.902629 -0.100526 0.114499 128 128 255 1.000000 0.000000 0.000000
-0.902629 -0.100526 0.114469 128 128 255 1.000000 0.000000 0.000000
-0.902629 -0.100526 0.114392 128 128 255 1.000000 0.000000 0.000000
-0.902629 -0.100526 0.114271 128 128 255 1.000000 0.000000 0.000000
-0.902629 -0.100526 0.114106 128 128 255 1.000000 0.000000 0.000000
-0.902629 -0.100526 0.113900 128 128 255 1.000000 0.000000 0.000000
-0.902629 -0.100526 0.113655 128 128 255 1.000000 0.000000 0.000000
-0.902629 -0.100526 0.113374 128 128 255 1.000000 0.000000 0.000000
-0.902629 -0.100526 0.113059 128 128 255 1.000000 0.000000 0.000000
-0.902629 -0.100526 0.112714 128 128 255 0.001054 0.000752 0.999999
-0.501708 -0.100569 0.112470 128 128 255 0.002591 0.001516 0.999995
-0.501708 -0.100569 0.112078 128 128 255 1.000000 0.000000 0.000000
-0.501708 -0.100569 0.111669 128 128 255 1.000000 0.000000 0.000000
-0.501708 -0.100569 0.111247 128 128 255 1.000000 0.000000 0.000000
-0.501708 -0.100569 0.110817 128 128 255 1.000000 0.000000 0.000000
-0.501708 -0.100569 0.110384 128 128 255 1.000000 0.000000 0.000000
-0.501708 -0.100569 0.109952 128 128 255 1.000000 0.000000 0.000000
-0.501708 -0.100569 0.109528 128 128 255 1.000000 0.000000 0.000000
-0.501708 -0.100569 0.109115 128 128 255 1.000000 0.000000 0.000000
-0.501708 -0.100569 0.108719 128 128 255 1.000000 0.000000 0.000000
-0.501708 -0.100569 0.108344 128 128 255 0.000870 0.000788 0.999999
-0.100358 -0.100358 0.108176 128 128 255 0.001963 0.001539 0.999997
-0.100358 -0.100358 0.107859 128 128 255 1.000000 0.000000 0.000000
-0.100358 -0.100358 0.107577 128 128 255 1.000000 0.000000 0.000000
-0.100358 -0.100358 0.107333 128 128 255 1.000000 0.000000 0.000000
-0.100358 -0.100358 0.107132 128 128 255 1.000000 0.000000 0.000000
-0.100358 -0.100358 0.106977 128 128 255 1.000000 0.000000 0.000000
-0.100358 -0.100358 0.106871 128 128 255 1.000000 0.000000 0.000000
-0.100358 -0.100358 0.106814 128 128 255 1.000000 0.000000 0.000000
-0.100358 -0.100358 0.106806 128 128 255 -1.000000 0.000000 0.000000
-0.100358 -0.100358 0.106837 128 128 255 -0.000241 -0.000353 1.000000
0.300358 -0.100358 0.106855 128 128 255 0.000479 -0.000963 0.999999
0.300358 -0.100358 0.106789 128 128 255 1.000000 0.000000 0.000000
0.300358 -0.100358 0.106711 128 128 255 1.000000 0.000000 0.000000
0.300358 -0.100358 0.106672 128 128 255 -1.000000 0.000000 0.000000
0.300358 -0.100358 0.106683 128 128 255 -1.000000 0.000000 0.000000
0.300358 -0.100358 0.106746 128 128 255 -1.000000 0.000000 0.000000
0.300358 -0.100358 0.106860 128 128 255 -1.000000 0.000000 0.000000
0.300358 -0.100358 0.107022 128 128 255 -1.000000 0.000000 0.000000
0.300358 -0.100358 0.107230 128 128 255 -1.000000 0.000000 0.000000
0.300358 -0.100358 0.107480 128 128 255 -1.000000 0.000000 0.000000
0.300358 -0.100358 0.107768 128 128 255 -0.000732 -0.000784 0.999999
0.701708 -0.100569 0.107912 128 128 255 -0.002147 -0.001601 0.999996
0.701708 -0.100569 0.108266 128 128 255 -1.000000 0.000000 0.000000
0.701708 -0.100569 0.108645 128 128 255 -1.000000 0.000000 0.000000
0.701708 -0.100569 0.109046 128 128 255 -1.000000 0.000000 0.000000
0.701708 -0.100569 0.109464 128 128 255 -1.000000 0.000000 0.000000
0.701708 -0.100569 0.109893 128 128 255 -1.000000 0.000000 0.000000
0.701708 -0.100569 0.110328 128 128 255 -1.000000 0.000000 0.000000
0.701708 -0.100569 0.110766 128 128 255 -1.000000 0.000000 0.000000
0.701708 -0.100569 0.111199 128 128 255 -1.000000 0.000000 0.000000
0.701708 -0.100569 0.111625 128 128 255 -1.000000 0.000000 0.000000
0.701708 -0.100569 0.112037 128 128 255 -0.001170 -0.000817 0.999999
1.102629 -0.100526 0.112306 128 128 255 -0.002497 -0.001624 0.999996
1.102629 -0.100526 0.112679 128 128 255 -1.000000 0.000000 0.000000
1.102629 -0.100526 0.113027 128 128 255 -1.000000 0.000000 0.000000
1.102629 -0.100526 0.113344 128 128 255 -1.000000 0.000000 0.000000
1.102629 -0.100526 0.113628 128 128 255 -1.000000 0.000000 0.000000
1.102629 -0.100526 0.113875 128 128 255 -1.000000 0.000000 0.000000
1.102629 -0.100526 0.114083 128 128 255 -1.000000 0.000000 0.000000
1.102629 -0.100526 0.114250 128 128 255 -1.000000 0.000000 0.000000
1.102629 -0.100526 0.114373 128 128 255 -1.000000 0.000000 0.000000
1.102629 -0.100526 0.114451 128 128 255 0.000029 -0.000099 1.000000
1.501438 -0.100205 0.114413 128 128 255 0.000096 -0.000169 1.000000
-0.902629 0.300526 0.114489 128 128 255 1.000000 0.000000 0.000000
-0.902629 0.300526 0.114481 128 128 255 1.000000 0.000000 0.000000
-0.902629 0.300526 0.114427 128 128 255 1.000000 0.000000 0.000000
-0.902629 0.300526 0.114327 128 128 255 1.000000 0.000000 0.000000
-0.902629 0.300526 0.114183 128 128 255 1.000000 0.000000 0.000000
-0.902629 0.300526 0.113997 128 128 255 1.000000 0.000000 0.000000
-0.902629 0.300526 0.113770 128 128 255 1.000000 0.000000 0.000000
-0.902629 0.300526 0.113505 128 128 255 1.000000 0.000000 0.000000
-0.902629 0.300526 0.113205 128 128 255 1.000000 0.000000 0.000000
-0.902629 0.300526 0.112874 128 128 255 1.000000 0.000000 0.000000
-0.902629 0.300526 0.112514 128 128 255 0.002395 0.001566 0.999996
-0.501708 0.300569 0.112258 128 128 255 0.001127 0.000789 0.999999
-0.501708 0.300569 0.111855 128 128 255 1.000000 0.000000 0.000000
-0.501708 0.300569 0.111437 128 128 255 1.000000 0.000000 0.000000
-0.501708 0.300569 0.111009 128 128 255 1.000000 0.000000 0.000000
-0.501708 0.300569 0.110575 128 128 255 1.000000 0.000000 0.000000
-0.501708 0.300569 0.110140 128 128 255 1.000000 0.000000 0.000000
-0.501708 0.300569 0.109710 128 128 255 1.000000 0.000000 0.000000
-0.501708 0.300569 0.109288 128 128 255 1.000000 0.000000 0.000000
-0.501708 0.300569 0.108881 128 128 255 1.000000 0.000000 0.000000
-0.501708 0.300569 0.108493 128 128 255 1.000000 0.000000 0.000000
-0.501708 0.300569 0.108129 128 128 255 0.002229 0.001590 0.999996
-0.100358 0.300358 0.107973 128 128 255 0.000780 0.000778 0.999999
-0.100358 0.300358 0.107671 128 128 255 1.000000 0.000000 0.000000
-0.100358 0.300358 0.107405 128 128 255 1.000000 0.000000 0.000000
-0.100358 0.300358 0.107181 128 128 255 1.000000 0.000000 0.000000
-0.100358 0.300358 0.107001 128 128 255 1.000000 0.000000 0.000000
-0.100358 0.300358 0.106869 128 128 255 1.000000 0.000000 0.000000
-0.100358 0.300358 0.106788 128 128 255 1.000000 0.000000 0.000000
-0.100358 0.300358 0.106760 128 128 255 1.000000 0.000000 0.000000
-0.100358 0.300358 0.106788 128 128 255 -1.000000 0.000000 0.000000
-0.100358 0.300358 0.106873 128 128 255 -0.000649 0.000524 1.000000
0.300358 0.300358 0.107017 128 128 255 -0.000023 -0.000045 1.000000
0.300358 0.300358 0.106873 128 128 255 1.000000 0.000000 0.000000
0.300358 0.300358 0.106788 128 128 255 1.000000 0.000000 0.000000
0.300358 0.300358 0.106760 128 128 255 1.000000 0.000000 0.000000
0.300358 0.300358 0.106788 128 128 255 -1.000000 0.000000 0.000000
0.300358 0.300358 0.106869 128 128 255 -1.000000 0.000000 0.000000
0.300358 0.300358 0.107001 128 128 255 -1.000000 0.000000 0.000000
0.300358 0.300358 0.107181 128 128 255 -1.000000 0.000000 0.000000
