ply
format ascii 1.0
element vertex 685
property float x
property float y
property float z
property uchar red
property uchar green
property uchar blue
property float nx
property float ny
property float nz
end_header
-2.608387 3.977708 -88.087967 128 128 255 -0.070616 0.997084 0.028912
-7.598229 5.915217 -175.686203 128 128 255 -0.908065 0.417758 0.029937
-8.543278 2.161454 -195.667709 128 128 255 0.031264 -0.999169 -0.026133
-0.521725 2.832021 -104.660126 128 128 255 -0.991256 -0.131157 0.014476
0.475583 -25.444494 -1.008235 128 128 255 -0.999899 0.013529 0.004392
-0.007909 -21.175850 -0.823112 128 128 255 -0.988527 -0.009306 0.150759
0.334099 -18.799356 -0.009333 128 128 255 -0.822632 0.041007 -0.567093
-0.071359 -18.476107 -0.000204 128 128 255 0.999648 -0.012526 -0.023371
-0.497148 0.321142 -35.025162 128 128 255 0.994866 -0.097530 -0.026996
-0.085694 2.223088 -47.916660 128 128 255 0.678395 0.734660 0.007417
-2.216580 3.717051 -82.034111 128 128 255 0.122378 0.992255 0.021275
-7.094770 5.940997 -165.537537 128 128 255 -0.821654 0.569385 0.026163
-8.802350 2.699626 -202.800842 128 128 255 -0.017765 -0.999609 -0.021603
-0.581470 3.276778 -112.429497 128 128 255 -0.015525 -0.999679 -0.020043
-0.152963 0.466393 -60.700302 128 128 255 -0.910660 0.412071 0.029931
0.135674 0.102839 0.123776 128 128 255 0.079317 -0.996849 0.000000
-0.007152 0.091474 0.122359 128 128 255 0.079317 -0.996849 0.000000
-0.321864 0.066433 0.123667 128 128 255 0.079317 -0.996849 0.000000
-0.552630 0.048072 0.124322 128 128 255 -0.801964 -0.597353 0.004862
-0.453895 -0.910718 -101.340790 128 128 255 -0.900491 -0.434781 0.009068
-0.096293 -1.792062 -56.651497 128 128 255 0.881065 0.472949 -0.006664
0.156578 0.104502 0.113709 128 128 255 0.962724 0.270156 -0.013316
0.202386 0.108147 0.118088 128 128 255 0.079317 -0.996849 0.000000
0.213731 0.109049 0.122222 128 128 255 0.079317 -0.996849 0.000000
0.197921 0.107791 0.124305 128 128 255 0.079317 -0.996849 0.000000
0.144651 0.103553 0.123920 128 128 255 0.079317 -0.996849 0.000000
0.014378 0.093187 0.122451 128 128 255 0.079317 -0.996849 0.000000
-0.280254 0.069744 0.123329 128 128 255 0.079317 -0.996849 0.000000
-0.559724 0.047507 0.124818 128 128 255 -0.798699 -0.601718 0.003799
-0.505905 -0.707956 -108.169624 128 128 255 -0.895007 -0.445956 0.009275
-0.121733 -1.750703 -59.820335 128 128 255 0.843325 0.537381 -0.004950
0.148764 0.103880 0.113340 128 128 255 0.957799 0.287135 -0.013209
0.199485 0.107916 0.117598 128 128 255 0.079317 -0.996849 0.000000
0.213802 0.109055 0.121862 128 128 255 0.079317 -0.996849 0.000000
0.201007 0.108037 0.124208 128 128 255 0.079318 -0.996849 0.000000
0.152831 0.104204 0.124051 128 128 255 0.079317 -0.996849 0.000000
0.034038 0.094752 0.122570 128 128 255 0.079317 -0.996849 0.000000
-0.239890 0.072956 0.123028 128 128 255 0.079317 -0.996849 0.000000
-0.557290 0.047701 0.125139 128 128 255 -0.805009 -0.593256 0.002686
-0.558704 -0.473397 -115.340988 128 128 255 -0.902046 -0.431550 0.008818
-0.150020 -1.705432 -63.290630 128 128 255 0.803239 0.595648 -0.003229
0.140187 0.103198 0.113001 128 128 255 0.951571 0.307148 -0.013118
0.196203 0.107655 0.117106 128 128 255 0.079317 -0.996849 0.000000
0.213586 0.109038 0.121480 128 128 255 0.079317 -0.996849 0.000000
0.203722 0.108253 0.124082 128 128 255 0.079318 -0.996849 0.000000
0.160281 0.104796 0.124165 128 128 255 0.079317 -0.996849 0.000000
0.051976 0.096179 0.122712 128 128 255 0.079317 -0.996849 0.000000
-0.201332 0.076024 0.122774 128 128 255 0.079317 -0.996849 0.000000
-0.545486 0.048640 0.125287 128 128 255 -0.783698 -0.621140 0.001803
-0.622364 -0.211102 -122.766685 128 128 255 -0.902775 -0.430023 0.008771
-0.180049 -1.645242 -67.088524 128 128 255 0.775936 0.630810 -0.001520
0.130778 0.102449 0.112698 128 128 255 0.948760 0.315747 -0.012601
0.192517 0.107361 0.116617 128 128 255 0.079317 -0.996849 0.000000
0.213082 0.108998 0.121076 128 128 255 0.079318 -0.996849 0.000000
0.206085 0.108441 0.123927 128 128 255 0.079317 -0.996849 0.000000
0.167060 0.105336 0.124262 128 128 255 0.980995 -0.192326 -0.025678
-0.860414 2.728063 -58.805630 128 128 255 0.549277 0.835580 0.010020
-4.653120 5.209647 -114.561783 128 128 255 -0.483734 0.874517 0.034938
-8.730962 4.697411 -196.803009 128 128 255 -0.024308 -0.999469 -0.021720
-0.771271 5.891937 -146.793121 128 128 255 0.099766 -0.994536 -0.030725
-0.232753 1.334298 -75.864395 128 128 255 -0.995231 0.095093 0.021738
0.255352 -22.984344 -0.922019 128 128 255 -0.999481 0.029928 0.011925
-0.180332 -19.701794 -0.760397 128 128 255 -0.998413 -0.009095 -0.055574
0.165491 -17.870623 0.028409 128 128 255 0.999875 -0.015240 -0.004254
0.021222 0.264926 -30.244238 128 128 255 0.999334 0.032316 -0.016930
-0.913829 0.298505 -37.284271 128 128 255 0.999768 -0.004886 -0.020974
-0.660077 2.586974 -55.621353 128 128 255 0.771484 0.636247 -0.001814
-3.995572 4.799920 -105.600670 128 128 255 -0.371980 0.927581 0.034986
-8.545829 5.083735 -191.531952 128 128 255 0.110403 -0.993568 -0.025167
-0.844504 6.661822 -156.394913 128 128 255 0.012911 -0.999548 -0.027148
-0.269723 1.606023 -81.029503 128 128 255 -0.994938 0.097940 0.022502
0.308923 -23.367260 -0.944288 128 128 255 -0.999283 0.035121 0.014173
-0.138894 -19.934130 -0.773138 128 128 255 -0.997981 -0.008894 -0.062881
0.208240 -17.923763 0.026732 128 128 255 0.999848 -0.016848 -0.004388
0.097272 0.263643 -29.884823 128 128 255 0.999478 0.027571 -0.016860
-0.788803 0.293363 -36.160351 128 128 255 0.999169 -0.034282 -0.022045
-0.480620 2.461908 -52.750168 128 128 255 0.814807 0.579730 -0.001845
-3.458658 4.480479 -97.567841 128 128 255 -0.192501 0.980854 0.029478
-8.167132 5.330217 -184.531647 128 128 255 0.322627 -0.946049 -0.030062
-0.915065 7.465018 -165.793304 128 128 255 -0.058474 -0.997992 -0.024352
-0.313553 1.925095 -86.703606 128 128 255 -0.995329 0.093956 0.022191
0.364115 -23.748211 -0.967499 128 128 255 -0.999278 0.035059 0.014653
-0.096620 -20.165792 -0.786869 128 128 255 -0.994646 -0.008045 -0.103025
0.251128 -17.997849 0.024931 128 128 255 -0.990547 0.004717 -0.137095
-0.165419 -18.100397 0.037135 128 128 255 0.999610 -0.005229 -0.027426
-0.676298 0.289733 -35.144470 128 128 255 0.998509 -0.050645 -0.020394
-0.320024 2.357207 -50.158054 128 128 255 0.844448 0.535609 -0.005587
-2.934533 4.128964 -90.376884 128 128 255 -0.094398 0.995123 0.028625
-7.846376 5.577572 -176.231537 128 128 255 -0.906062 0.421852 0.033042
-7.870636 1.400017 -177.818268 128 128 255 -0.371569 -0.928323 -0.012358
-0.361503 2.284981 -92.921974 128 128 255 -0.919633 -0.392700 0.007935
0.422103 -24.214947 -0.991609 128 128 255 -0.999335 0.033434 0.014547
-0.053567 -20.405035 -0.801599 128 128 255 -0.987543 -0.006452 -0.157216
0.294321 -18.094347 0.023004 128 128 255 -0.992663 0.006845 -0.120717
-0.119025 -18.001358 0.036357 128 128 255 0.999697 -0.002116 -0.024521
-0.561589 0.284171 -34.227917 128 128 255 0.998344 -0.053790 -0.020405
-0.173249 2.261595 -47.815224 128 128 255 0.865780 0.500378 -0.006929
-2.495687 3.841233 -83.942528 128 128 255 -0.031068 0.999093 0.029117
-7.416158 5.710686 -167.071976 128 128 255 -0.866059 0.498691 0.035329
-8.321568 1.934631 -185.992661 128 128 255 -0.367675 -0.929866 -0.012858
-0.412927 2.686194 -99.713257 128 128 255 -0.922250 -0.386509 0.008053
0.484107 -24.808531 -1.016564 128 128 255 -0.999363 0.032556 0.014583
-0.009770 -20.670465 -0.817337 128 128 255 -0.981530 -0.004399 -0.191260
0.338000 -18.214989 0.020951 128 128 255 -0.994983 0.008743 -0.099658
-0.073637 -17.925659 0.035462 128 128 255 0.999711 -0.002977 -0.023858
-0.457240 0.279837 -33.403049 128 128 255 0.998204 -0.056327 -0.020395
-0.037131 2.151653 -45.695591 128 128 255 0.891261 0.453441 -0.006731
-2.118713 3.597935 -78.184074 128 128 255 0.001581 0.999512 0.031193
-6.967542 5.783748 -157.459076 128 128 255 -0.797248 0.602700 0.033888
-8.607423 2.473630 -192.738190 128 128 255 -0.323939 -0.945923 -0.017118
-0.474083 3.165540 -107.094337 128 128 255 0.260550 -0.965075 -0.027262
-0.092250 0.396693 -57.893517 128 128 255 -0.930321 0.365698 0.027721
0.135674 0.102839 0.108067 128 128 255 -0.079317 0.996849 0.000000
-0.007152 0.091474 0.113249 128 128 255 -0.079317 0.996849 0.000000
-0.321864 0.066433 0.124566 128 128 255 -0.079317 0.996849 0.000000
-0.552630 0.048072 0.134894 128 128 255 -0.846975 -0.531617 0.004042
-0.343993 -1.017378 -96.307457 128 128 255 -0.901722 -0.432221 0.009092
-0.037991 -1.860493 -53.892075 128 128 255 0.853857 0.520471 -0.006175
0.156578 0.104502 0.123281 128 128 255 0.961102 0.275863 -0.013497
0.202386 0.108147 0.117742 128 128 255 -0.079317 0.996849 0.000000
0.213731 0.109049 0.112089 128 128 255 -0.079317 0.996849 0.000000
0.197921 0.107791 0.108176 128 128 255 -0.079317 0.996849 0.000000
0.144651 0.103553 0.107834 128 128 255 -0.079317 0.996849 0.000000
0.014378 0.093187 0.112428 128 128 255 -0.079317 0.996849 0.000000
-0.280254 0.069744 0.123121 128 128 255 -0.079317 0.996849 0.000000
-0.559724 0.047507 0.134503 128 128 255 -0.830094 -0.557613 0.003375
-0.390358 -0.827386 -102.780563 128 128 255 -0.901523 -0.432641 0.008846
-0.060048 -1.821347 -56.902599 128 128 255 0.834849 0.550458 -0.004856
0.148764 0.103880 0.123803 128 128 255 0.957208 0.289098 -0.013265
0.199485 0.107916 0.118359 128 128 255 -0.079317 0.996849 0.000000
0.213802 0.109055 0.112636 128 128 255 -0.079317 0.996849 0.000000
0.201007 0.108037 0.108448 128 128 255 -0.079318 0.996849 0.000000
0.152831 0.104204 0.107656 128 128 255 -0.079317 0.996849 0.000000
0.034038 0.094752 0.111678 128 128 255 -0.079317 0.996849 0.000000
-0.239890 0.072956 0.121714 128 128 255 -0.079317 0.996849 0.000000
-0.557290 0.047701 0.133896 128 128 255 -0.811052 -0.584968 0.002632
-0.440324 -0.608006 -109.575928 128 128 255 -0.905367 -0.424545 0.008540
-0.084355 -1.777496 -60.199051 128 128 255 0.807238 0.590216 -0.003465
0.140187 0.103198 0.124312 128 128 255 0.951800 0.306441 -0.013097
0.196203 0.107655 0.118971 128 128 255 -0.079316 0.996849 0.000000
0.213586 0.109038 0.113201 128 128 255 -0.079317 0.996849 0.000000
0.203722 0.108253 0.108759 128 128 255 -0.079318 0.996849 0.000000
0.160281 0.104796 0.107533 128 128 255 -0.079317 0.996849 0.000000
0.051976 0.096179 0.110996 128 128 255 -0.079317 0.996849 0.000000
-0.201332 0.076024 0.120360 128 128 255 -0.079317 0.996849 0.000000
-0.545486 0.048640 0.133079 128 128 255 -0.783280 -0.621666 0.001806
-0.494321 -0.354857 -116.609673 128 128 255 -0.902686 -0.430209 0.008784
-0.110640 -1.722690 -63.806107 128 128 255 0.772926 0.634494 -0.001529
0.130778 0.102449 0.124807 128 128 255 0.948557 0.316354 -0.012613
0.192517 0.107361 0.119578 128 128 255 -0.079321 0.996849 0.000000
0.213082 0.108998 0.113780 128 128 255 -0.079318 0.996849 0.000000
0.206085 0.108441 0.109105 128 128 255 -0.079317 0.996849 0.000000
0.167060 0.105336 0.107462 128 128 255 0.986819 -0.159994 -0.024286
-0.799748 2.658215 -55.960449 128 128 255 0.570341 0.821374 0.007536
-4.509253 5.047031 -108.844810 128 128 255 -0.409527 0.911755 0.031471
-8.524010 4.464218 -186.584122 128 128 255 0.013101 -0.999643 -0.023285
-0.622807 5.735448 -139.342056 128 128 255 0.036428 -0.999054 -0.023755
-0.152736 1.237616 -72.135185 128 128 255 -0.995874 0.088349 0.020718
0.259662 -22.422224 -0.906546 128 128 255 -0.999571 0.027507 0.010072
-0.185155 -19.129379 -0.750878 128 128 255 -0.994227 -0.003332 -0.107247
0.167364 -17.392044 0.041960 128 128 255 0.999846 -0.017164 -0.003660
0.051941 0.230407 -28.808756 128 128 255 0.999288 0.033562 -0.017239
-0.880780 0.255483 -35.508011 128 128 255 0.999660 -0.014627 -0.021568
-0.603399 2.523163 -52.935783 128 128 255 0.775881 0.630878 -0.001107
-3.899136 4.689759 -100.355156 128 128 255 -0.275498 0.960848 0.029544
-8.269230 4.813332 -181.611343 128 128 255 0.184758 -0.982190 -0.034160
-0.687009 6.502386 -148.421310 128 128 255 0.024194 -0.999299 -0.028561
-0.186667 1.511240 -77.037384 128 128 255 -0.996052 0.086331 0.020671
0.315496 -22.900053 -0.928609 128 128 255 -0.999476 0.030199 0.011646
-0.143562 -19.406404 -0.762737 128 128 255 -0.995153 -0.001894 -0.098318
0.210987 -17.437023 0.041360 128 128 255 0.999822 -0.018482 -0.003755
0.128173 0.228882 -28.466227 128 128 255 0.999404 0.029854 -0.017307
-0.752096 0.250876 -34.439072 128 128 255 0.999410 -0.026983 -0.021266
-0.428265 2.408023 -50.208107 128 128 255 0.812344 0.583165 -0.004113
-3.326095 4.326108 -92.741699 128 128 255 -0.212350 0.976721 0.030376
-7.935436 5.087516 -175.005051 128 128 255 0.296146 -0.954610 -0.031910
-0.747829 7.294776 -157.303925 128 128 255 -0.034425 -0.999099 -0.024832
-0.226562 1.833833 -82.421219 128 128 255 -0.995701 0.090065 0.021642
0.372717 -23.311708 -0.951715 128 128 255 -0.999360 0.033215 0.013262
-0.100896 -19.684479 -0.775630 128 128 255 -0.994164 -0.000288 -0.107879
0.254691 -17.499212 0.040678 128 128 255 -0.994966 0.011143 -0.099596
-0.170147 -17.584610 0.044389 128 128 255 0.999738 0.002192 -0.022805
-0.632511 0.246613 -33.472763 128 128 255 0.998246 -0.055369 -0.020943
-0.269272 2.304134 -47.745209 128 128 255 0.838932 0.544217 -0.004479
-2.851961 4.036544 -85.923561 128 128 255 -0.064682 0.997542 0.026954
-7.625199 5.342805 -167.169022 128 128 255 -0.898389 0.437951 0.033110
-7.651620 1.186576 -168.663971 128 128 255 -0.351403 -0.936117 -0.014166
-0.267923 2.186096 -88.319748 128 128 255 -0.910707 -0.412980 0.007706
0.431588 -23.706797 -0.975829 128 128 255 -0.999308 0.034405 0.014153
-0.057076 -19.955359 -0.789572 128 128 255 -0.988657 0.001647 -0.150184
0.298619 -17.579706 0.039908 128 128 255 -0.993640 0.012317 -0.111925
-0.123019 -17.502043 0.044235 128 128 255 0.999664 -0.004891 -0.025473
-0.528426 0.244350 -32.600826 128 128 255 0.998116 -0.057766 -0.020665
-0.122128 2.190237 -45.518879 128 128 255 0.855675 0.517489 -0.005074
-2.416778 3.753282 -79.820740 128 128 255 0.062855 0.997760 0.022903
-7.163284 5.454131 -158.517761 128 128 255 -0.861818 0.505939 0.035987
-8.091995 1.707507 -176.381577 128 128 255 -0.347138 -0.937722 -0.013143
-0.313466 2.585809 -94.759598 128 128 255 -0.912872 -0.408173 0.007708
0.493629 -24.184340 -1.000899 128 128 255 -0.999406 0.031578 0.013797
-0.012145 -20.220119 -0.804579 128 128 255 -0.977694 0.003946 -0.209999
0.342932 -17.680237 0.039043 128 128 255 -0.993132 0.013412 -0.116232
-0.076808 -17.438545 0.044037 128 128 255 0.999637 -0.007457 -0.025871
-0.426773 0.241635 -31.816000 128 128 255 0.998046 -0.059152 -0.020117
0.009996 2.095413 -43.504406 128 128 255 0.898281 0.439331 -0.008961
-2.026389 3.487102 -74.357338 128 128 255 0.169304 0.985369 0.019608
-6.714941 5.526115 -149.433990 128 128 255 -0.803235 0.594607 0.035446
-8.394364 2.242910 -182.747787 128 128 255 -0.332075 -0.943161 -0.013183
-0.361257 3.025305 -101.756233 128 128 255 0.308560 -0.950714 -0.030554
-0.031955 0.327432 -55.069763 128 128 255 -0.915415 0.401416 0.029668
0.135674 0.102839 0.124636 128 128 255 0.079317 -0.996849 0.000000
-0.007152 0.091474 0.128710 128 128 255 0.079317 -0.996849 0.000000
-0.321864 0.066433 0.133133 128 128 255 0.079317 -0.996849 0.000000
-0.552630 0.048072 0.133360 128 128 255 -0.818906 -0.573909 0.004686
-0.242132 -1.141702 -91.327484 128 128 255 -0.905786 -0.423645 0.008773
0.020632 -1.923366 -51.172981 128 128 255 0.857597 0.514279 -0.006626
0.156578 0.104502 0.107603 128 128 255 0.957299 0.288762 -0.013956
0.202386 0.108147 0.108703 128 128 255 -0.079317 0.996849 0.000000
0.213731 0.109049 0.113071 128 128 255 -0.079317 0.996849 0.000000
0.197921 0.107791 0.118813 128 128 255 -0.079317 0.996849 0.000000
0.144651 0.103553 0.124143 128 128 255 0.079317 -0.996849 0.000000
0.014378 0.093187 0.128306 128 128 255 0.079317 -0.996849 0.000000
-0.280254 0.069744 0.132624 128 128 255 0.079317 -0.996849 0.000000
-0.559724 0.047507 0.134074 128 128 255 -0.819121 -0.573610 0.003570
-0.281276 -0.957405 -97.447372 128 128 255 -0.905684 -0.423868 0.008492
0.001738 -1.890154 -54.026165 128 128 255 0.841996 0.539459 -0.005208
0.148764 0.103880 0.107743 128 128 255 0.955395 0.295024 -0.013461
0.199485 0.107916 0.108403 128 128 255 -0.079317 0.996849 0.000000
0.213802 0.109055 0.112512 128 128 255 -0.079317 0.996849 0.000000
0.201007 0.108037 0.118202 128 128 255 -0.079317 0.996849 0.000000
0.152831 0.104204 0.123636 128 128 255 0.079317 -0.996849 0.000000
0.034038 0.094752 0.127903 128 128 255 0.079317 -0.996849 0.000000
-0.239890 0.072956 0.132112 128 128 255 0.079317 -0.996849 0.000000
-0.557290 0.047701 0.134574 128 128 255 -0.803281 -0.595594 0.002730
-0.323175 -0.744686 -103.869621 128 128 255 -0.904399 -0.426602 0.008559
-0.018868 -1.849199 -57.149761 128 128 255 0.811405 0.584473 -0.003574
0.140187 0.103198 0.107938 128 128 255 0.951076 0.308675 -0.013166
0.196203 0.107655 0.108142 128 128 255 -0.079318 0.996849 0.000000
0.213586 0.109038 0.111970 128 128 255 -0.079317 0.996849 0.000000
0.203722 0.108253 0.117587 128 128 255 -0.079317 0.996849 0.000000
0.160281 0.104796 0.123115 128 128 255 0.079317 -0.996849 0.000000
0.051976 0.096179 0.127500 128 128 255 0.079317 -0.996849 0.000000
-0.201332 0.076024 0.131608 128 128 255 0.079317 -0.996849 0.000000
-0.545486 0.048640 0.134861 128 128 255 -0.781802 -0.623524 0.001817
-0.366756 -0.497829 -110.514633 128 128 255 -0.902257 -0.431108 0.008808
-0.041320 -1.799504 -60.567005 128 128 255 0.772641 0.634841 -0.001526
0.130778 0.102449 0.108189 128 128 255 0.947498 0.319510 -0.012702
0.192517 0.107361 0.107922 128 128 255 -0.079317 0.996849 0.000000
0.213082 0.108998 0.111448 128 128 255 -0.079318 0.996849 0.000000
0.206085 0.108441 0.116970 128 128 255 -0.079318 0.996849 0.000000
0.167060 0.105336 0.122580 128 128 255 0.985972 -0.165096 -0.024531
-0.740097 2.591305 -53.094707 128 128 255 0.580856 0.813980 0.006568
-4.392193 4.913233 -103.145851 128 128 255 -0.382060 0.923626 0.030747
-8.320663 4.232955 -176.471573 128 128 255 0.033015 -0.999070 -0.027747
-0.469949 5.543947 -131.968674 128 128 255 0.085765 -0.995933 -0.027618
-0.073668 1.141962 -68.452126 128 128 255 -0.995581 0.091605 0.020673
0.263463 -21.736544 -0.920588 128 128 255 -0.999598 0.026913 0.008960
-0.189215 -18.473660 -0.757603 128 128 255 -0.993052 -0.013465 -0.116905
0.169482 -16.932358 0.059135 128 128 255 0.999853 -0.017081 -0.001647
0.083447 0.193646 -27.354406 128 128 255 0.999204 0.035931 -0.017352
-0.833206 0.210314 -33.703709 128 128 255 0.999732 -0.008770 -0.021444
-0.547964 2.464056 -50.227875 128 128 255 0.784494 0.620136 -0.000353
-3.788403 4.563190 -95.120674 128 128 255 -0.362418 0.931394 0.034033
-8.013934 4.556823 -171.789352 128 128 255 0.148352 -0.988586 -0.026239
-0.518189 6.241026 -140.531601 128 128 255 0.028862 -0.999199 -0.027702
-0.104430 1.421863 -73.092979 128 128 255 -0.995485 0.092578 0.020951
0.321276 -22.286098 -0.943259 128 128 255 -0.999582 0.027229 0.009748
-0.147235 -18.763359 -0.770375 128 128 255 -0.992646 -0.012095 -0.120450
0.214171 -16.977123 0.057499 128 128 255 0.999813 -0.019220 -0.002057
0.158664 0.192890 -27.030369 128 128 255 0.999389 0.030229 -0.017521
-0.715278 0.208324 -32.690113 128 128 255 0.999036 -0.036927 -0.023746
-0.374953 2.350976 -47.642189 128 128 255 0.809012 0.587790 -0.001582
-3.234794 4.222572 -87.920593 128 128 255 -0.186987 0.981934 0.029002
-7.709786 4.849555 -165.567749 128 128 255 0.329066 -0.943697 -0.033928
-0.571863 7.044822 -148.904877 128 128 255 0.010066 -0.999533 -0.028851
-0.134984 1.717174 -78.188362 128 128 255 -0.995337 0.093977 0.021755
0.381332 -22.805576 -0.966948 128 128 255 -0.999389 0.032802 0.012064
-0.104310 -19.077929 -0.784147 128 128 255 -0.992924 -0.011172 -0.118221
0.258938 -17.037527 0.055821 128 128 255 -0.997347 0.018190 -0.070492
-0.176178 -17.117735 0.070169 128 128 255 0.999666 -0.003188 -0.025650
-0.601609 0.206159 -31.773905 128 128 255 0.998222 -0.056100 -0.020129
-0.215666 2.233381 -45.307243 128 128 255 0.828259 0.560343 -0.001432
-2.747955 3.915534 -81.470116 128 128 255 -0.145434 0.988858 0.031775
-7.385133 5.096296 -158.185532 128 128 255 -0.910430 0.412240 0.034286
-7.449899 0.976912 -159.609421 128 128 255 -0.360596 -0.932646 -0.011903
-0.169142 2.055115 -83.769150 128 128 255 -0.911705 -0.410774 0.007592
0.442774 -23.249401 -0.991622 128 128 255 -0.999166 0.038282 0.014230
-0.060131 -19.402916 -0.798934 128 128 255 -0.991307 -0.010473 -0.131154
0.303905 -17.113276 0.054099 128 128 255 -0.995303 0.021127 -0.094478
-0.127953 -17.040203 0.068819 128 128 255 0.999731 -0.001147 -0.023157
-0.489336 0.203260 -30.947250 128 128 255 0.998071 -0.058769 -0.020004
-0.072137 2.124816 -43.196373 128 128 255 0.875652 0.482913 -0.005349
-2.333991 3.659817 -75.694351 128 128 255 0.046283 0.998644 0.023849
-6.954237 5.231019 -150.031952 128 128 255 -0.821522 0.569303 0.031556
-7.861868 1.481974 -166.876526 128 128 255 -0.360230 -0.932780 -0.012502
-0.207220 2.442493 -89.860077 128 128 255 -0.906954 -0.421162 0.007543
0.505801 -23.659441 -1.017233 128 128 255 -0.999070 0.040318 0.015294
-0.014517 -19.722040 -0.814752 128 128 255 -0.984353 -0.009670 -0.175945
0.349194 -17.204458 0.052333 128 128 255 -0.991841 0.024595 -0.125083
-0.080624 -16.978613 0.067432 128 128 255 0.999723 -0.003474 -0.023298
-0.387887 0.201212 -30.203276 128 128 255 0.997885 -0.061732 -0.020369
0.056688 2.053636 -41.286240 128 128 255 0.898388 0.439098 -0.009570
-1.950525 3.402361 -70.522125 128 128 255 0.141875 0.989641 0.021936
-6.581458 5.363831 -141.466827 128 128 255 -0.785977 0.617279 0.034733
-8.145089 2.004436 -172.868484 128 128 255 -0.341505 -0.939758 -0.015156
-0.247942 2.874087 -96.475204 128 128 255 0.295494 -0.954853 -0.030641
0.027739 0.258922 -52.286629 128 128 255 -0.907836 0.418217 0.030467
0.135674 0.102839 0.112702 128 128 255 -0.079317 0.996849 0.000000
-0.007152 0.091474 0.112025 128 128 255 -0.079317 0.996849 0.000000
-0.321864 0.066433 0.117941 128 128 255 0.079317 -0.996849 0.000000
-0.552630 0.048072 0.125348 128 128 255 -0.827760 -0.561065 0.004449
-0.136580 -1.251836 -86.360085 128 128 255 -0.901246 -0.433212 0.009137
0.079084 -1.980491 -48.433838 128 128 255 0.839716 0.542987 -0.006535
0.156578 0.104502 0.124188 128 128 255 0.955308 0.295271 -0.014205
0.202386 0.108147 0.124130 128 128 255 0.079317 -0.996849 0.000000
0.213731 0.109049 0.121566 128 128 255 0.079317 -0.996849 0.000000
0.197921 0.107791 0.117196 128 128 255 0.079317 -0.996849 0.000000
0.144651 0.103553 0.113019 128 128 255 0.079317 -0.996849 0.000000
0.014378 0.093187 0.111839 128 128 255 -0.079317 0.996849 0.000000
-0.280254 0.069744 0.116977 128 128 255 0.079309 -0.996850 0.000000
-0.559724 0.047507 0.125105 128 128 255 -0.796635 -0.604447 0.004041
-0.170187 -1.083019 -92.132401 128 128 255 -0.899450 -0.436929 0.009115
0.063462 -1.956346 -51.131733 128 128 255 0.832152 0.554523 -0.005157
0.148764 0.103880 0.124074 128 128 255 0.954704 0.297248 -0.013539
0.199485 0.107916 0.124252 128 128 255 0.079317 -0.996849 0.000000
0.213802 0.109055 0.121945 128 128 255 0.079317 -0.996849 0.000000
0.201007 0.108037 0.117689 128 128 255 0.079317 -0.996849 0.000000
0.152831 0.104204 0.113370 128 128 255 0.079317 -0.996849 0.000000
0.034038 0.094752 0.111726 128 128 255 -0.079317 0.996849 0.000000
-0.239890 0.072956 0.116078 128 128 255 -0.079317 0.996849 0.000000
-0.557290 0.047701 0.124686 128 128 255 -0.790087 -0.612988 0.002939
-0.204525 -0.878705 -98.187668 128 128 255 -0.900331 -0.435115 0.008910
0.046429 -1.920428 -54.084789 128 128 255 0.807809 0.589433 -0.003516
0.140187 0.103198 0.123945 128 128 255 0.951581 0.307120 -0.013112
0.196203 0.107655 0.124344 128 128 255 0.079318 -0.996849 0.000000
0.213586 0.109038 0.122302 128 128 255 0.079317 -0.996849 0.000000
0.203722 0.108253 0.118182 128 128 255 0.079317 -0.996849 0.000000
0.160281 0.104796 0.113750 128 128 255 0.079317 -0.996849 0.000000
0.051976 0.096179 0.111680 128 128 255 -0.079317 0.996849 0.000000
-0.201332 0.076024 0.115256 128 128 255 -0.079317 0.996849 0.000000
-0.545486 0.048640 0.124096 128 128 255 -0.779708 -0.626141 0.001839
-0.239603 -0.639606 -104.450569 128 128 255 -0.901663 -0.432348 0.008853
0.027855 -1.875692 -57.314816 128 128 255 0.770539 0.637391 -0.001528
0.130778 0.102449 0.123804 128 128 255 0.947799 0.318617 -0.012673
0.192517 0.107361 0.124408 128 128 255 0.079317 -0.996849 0.000000
0.213082 0.108998 0.122635 128 128 255 0.079318 -0.996849 0.000000
0.206085 0.108441 0.118670 128 128 255 0.079317 -0.996849 0.000000
0.167060 0.105336 0.114157 128 128 255 0.983998 -0.176414 -0.025026
-0.680696 2.525368 -50.269665 128 128 255 0.571088 0.820850 0.008007
-4.285692 4.790729 -97.508827 128 128 255 -0.421147 0.906396 0.032882
-8.064067 3.976463 -166.474396 128 128 255 0.001342 -0.999694 -0.024689
-0.315139 5.315896 -124.645325 128 128 255 0.067778 -0.997303 -0.028152
0.003984 1.051828 -64.760628 128 128 255 -0.994961 0.097986 0.021252
0.267647 -21.051685 -0.902546 128 128 255 -0.999543 0.028876 0.008998
-0.194117 -17.839834 -0.734950 128 128 255 -0.996467 -0.001364 -0.083979
0.171489 -16.400040 0.092535 128 128 255 0.999869 -0.016159 0.000834
0.114598 0.158683 -25.906385 128 128 255 0.999253 0.034934 -0.016534
-0.802368 0.167178 -31.924873 128 128 255 0.999703 -0.010049 -0.022217
-0.491629 2.402274 -47.559399 128 128 255 0.771453 0.636285 -0.001452
-3.639709 4.393044 -89.943962 128 128 255 -0.328523 0.943955 0.031971
-7.780558 4.313766 -162.079102 128 128 255 0.156149 -0.987286 -0.029735
-0.361287 6.086946 -132.701660 128 128 255 0.020079 -0.999447 -0.026497
-0.020366 1.320336 -69.143738 128 128 255 -0.995487 0.092570 0.020886
0.326468 -21.559015 -0.926271 128 128 255 -0.999562 0.028102 0.009325
-0.150964 -18.092379 -0.747774 128 128 255 -0.993120 0.000669 -0.117097
0.217214 -16.452101 0.091698 128 128 255 0.999848 -0.017404 0.001405
0.190004 0.158233 -25.598680 128 128 255 0.999367 0.031424 -0.016698
-0.673866 0.165340 -30.964815 128 128 255 0.999118 -0.034662 -0.023686
-0.318954 2.280940 -45.114437 128 128 255 0.797338 0.603530 -0.002084
-3.114416 4.083058 -83.153862 128 128 255 -0.207938 0.977676 0.030178
-7.489430 4.615723 -156.236938 128 128 255 0.295852 -0.954845 -0.027262
-0.398205 6.792963 -140.575745 128 128 255 -0.045164 -0.998677 -0.024592
-0.045916 1.611966 -73.954735 128 128 255 -0.995564 0.091730 0.020939
0.388723 -22.134756 -0.951129 128 128 255 -0.999543 0.028515 0.010001
-0.107203 -18.388245 -0.761693 128 128 255 -0.991456 0.002451 -0.130421
0.263093 -16.521858 0.090787 128 128 255 -0.996376 0.002240 -0.085034
-0.182264 -16.613304 0.096945 128 128 255 0.999697 -0.000029 -0.024634
-0.559946 0.164100 -30.096834 128 128 255 0.998074 -0.058577 -0.020443
-0.162314 2.160916 -42.906147 128 128 255 0.835429 0.549569 -0.005669
-2.639182 3.787962 -77.068260 128 128 255 -0.069967 0.997189 0.026798
-7.140172 4.847951 -149.302277 128 128 255 -0.902937 0.428443 0.033782
-7.265229 0.769824 -150.637863 128 128 255 -0.338689 -0.940795 -0.013916
-0.075558 1.959519 -79.222359 128 128 255 -0.913991 -0.405677 0.006863
0.453677 -22.696512 -0.977087 128 128 255 -0.999443 0.031350 0.011423
-0.062466 -18.724348 -0.776727 128 128 255 -0.991100 0.004082 -0.133054
0.309257 -16.608152 0.089799 128 128 255 -0.995746 0.003704 -0.092067
-0.132709 -16.525045 0.096508 128 128 255 0.999628 -0.005927 -0.026625
-0.457244 0.163423 -29.313541 128 128 255 0.997976 -0.060327 -0.020108
-0.023803 2.079277 -40.909412 128 128 255 0.874780 0.484469 -0.007034
-2.224663 3.527307 -71.617241 128 128 255 -0.025348 0.999252 0.029209
-6.808367 5.053992 -141.639648 128 128 255 -0.846372 0.531527 0.033672
-7.634739 1.258728 -157.464523 128 128 255 -0.345850 -0.938152 -0.016098
-0.106263 2.334809 -84.969498 128 128 255 -0.910677 -0.413057 0.007229
0.520036 -23.176725 -1.004094 128 128 255 -0.999221 0.037069 0.013555
-0.016352 -19.087730 -0.792892 128 128 255 -0.989102 0.005641 -0.147127
0.355824 -16.709602 0.088727 128 128 255 -0.993395 0.005686 -0.114605
-0.084165 -16.453922 0.096033 128 128 255 0.999625 -0.007576 -0.026331
-0.356673 0.162446 -28.608442 128 128 255 0.997873 -0.062062 -0.019933
0.103909 1.989190 -39.102234 128 128 255 0.886886 0.461951 -0.005772
-1.876239 3.320352 -66.734215 128 128 255 0.165723 0.985977 0.019639
-6.346056 5.121665 -133.586472 128 128 255 -0.795430 0.605040 0.034890
-7.884622 1.765901 -163.091202 128 128 255 -0.337311 -0.941311 -0.012460
-0.139832 2.760774 -91.208916 128 128 255 0.282530 -0.958788 -0.030035
0.086966 0.191094 -49.483295 128 128 255 -0.927904 0.371774 0.027889
0.135674 0.102839 0.116043 128 128 255 -0.079317 0.996849 0.000000
-0.007152 0.091474 0.124401 128 128 255 -0.079317 0.996849 0.000000
-0.321864 0.066433 0.134720 128 128 255 -0.079317 0.996849 0.000000
-0.552630 0.048072 0.140249 128 128 255 -0.836848 -0.547420 0.004160
-0.032836 -1.365634 -81.413017 128 128 255 -0.903349 -0.428818 0.008674
0.136976 -2.035632 -45.716927 128 128 255 0.847857 0.530184 -0.006607
0.156578 0.104502 0.112195 128 128 255 0.954402 0.298179 -0.014330
0.202386 0.108147 0.107431 128 128 255 -0.079317 0.996849 0.000000
0.213731 0.109049 0.106411 128 128 255 -0.079317 0.996849 0.000000
0.197921 0.107791 0.109257 128 128 255 -0.079317 0.996849 0.000000
0.144651 0.103553 0.115269 128 128 255 -0.079317 0.996849 0.000000
0.014378 0.093187 0.123434 128 128 255 -0.079317 0.996849 0.000000
-0.280254 0.069744 0.133579 128 128 255 -0.079317 0.996849 0.000000
-0.559724 0.047507 0.140498 128 128 255 -0.823678 -0.567048 0.003356
-0.057762 -1.195785 -86.839294 128 128 255 -0.900375 -0.435022 0.008948
0.124900 -2.019725 -48.258522 128 128 255 0.818574 0.574380 -0.005057
0.148764 0.103880 0.112888 128 128 255 0.953048 0.302508 -0.013748
0.199485 0.107916 0.107766 128 128 255 -0.079317 0.996849 0.000000
0.213802 0.109055 0.106331 128 128 255 -0.079317 0.996849 0.000000
0.201007 0.108037 0.108791 128 128 255 -0.079318 0.996849 0.000000
0.152831 0.104204 0.114518 128 128 255 -0.079317 0.996849 0.000000
0.034038 0.094752 0.122491 128 128 255 -0.079317 0.996849 0.000000
-0.239890 0.072956 0.132431 128 128 255 -0.079317 0.996849 0.000000
-0.557290 0.047701 0.140505 128 128 255 -0.789627 -0.613580 0.002953
-0.085020 -1.005608 -92.529610 128 128 255 -0.898124 -0.439647 0.009144
0.111511 -1.991044 -51.040115 128 128 255 0.801369 0.598160 -0.003421
0.140187 0.103198 0.113613 128 128 255 0.950884 0.309265 -0.013192
0.196203 0.107655 0.108142 128 128 255 -0.079318 0.996849 0.000000
0.213586 0.109038 0.106295 128 128 255 -0.079317 0.996849 0.000000
0.203722 0.108253 0.108361 128 128 255 -0.079318 0.996849 0.000000
0.160281 0.104796 0.113792 128 128 255 -0.079317 0.996849 0.000000
0.051976 0.096179 0.121569 128 128 255 -0.079317 0.996849 0.000000
-0.201332 0.076024 0.131290 128 128 255 -0.079318 0.996849 0.000000
-0.545486 0.048640 0.140274 128 128 255 -0.777524 -0.628850 0.001875
-0.113012 -0.779535 -98.412910 128 128 255 -0.900935 -0.433863 0.008916
0.096837 -1.951297 -54.082127 128 128 255 0.768886 0.639384 -0.001532
0.130778 0.102449 0.114370 128 128 255 0.947083 0.320735 -0.012745
0.192517 0.107361 0.108559 128 128 255 -0.079317 0.996849 0.000000
0.213082 0.108998 0.106303 128 128 255 -0.079318 0.996849 0.000000
0.206085 0.108441 0.107969 128 128 255 -0.079317 0.996849 0.000000
0.167060 0.105336 0.113092 128 128 255 0.979791 -0.198323 -0.026044
-0.620757 2.457998 -47.428822 128 128 255 0.554336 0.832230 0.010248
-4.156600 4.644064 -91.872536 128 128 255 -0.488769 0.871646 0.036573
-7.789908 3.713777 -156.548553 128 128 255 -0.000711 -0.999678 -0.025345
-0.167193 5.160761 -117.363113 128 128 255 0.042002 -0.998764 -0.026576
0.081306 0.965460 -61.089722 128 128 255 -0.994970 0.097929 0.021083
0.273144 -20.470442 -0.908003 128 128 255 -0.999430 0.032453 0.009255
-0.201041 -17.287590 -0.744161 128 128 255 -0.999159 -0.017000 -0.037305
0.173174 -15.754550 0.098216 128 128 255 0.999875 -0.015577 0.002612
0.145455 0.122700 -24.474960 128 128 255 0.999225 0.036096 -0.015719
-0.756093 0.122924 -30.144178 128 128 255 0.999528 -0.019681 -0.023602
-0.433260 2.332536 -44.875664 128 128 255 0.769735 0.638364 -0.000347
-3.547422 4.287647 -84.763229 128 128 255 -0.282474 0.958824 0.029410
-7.556843 4.076920 -152.433838 128 128 255 0.172729 -0.984590 -0.027322
-0.197875 5.834320 -124.918518 128 128 255 0.023962 -0.999353 -0.026819
0.062972 1.216447 -65.215034 128 128 255 -0.994565 0.101783 0.021919
0.332649 -20.870790 -0.931309 128 128 255 -0.999443 0.031917 0.009776
-0.156245 -17.495405 -0.756696 128 128 255 -0.996309 -0.014089 -0.084672
0.219713 -15.812109 0.097245 128 128 255 0.999848 -0.017171 0.003017
0.219738 0.122677 -24.185398 128 128 255 0.999396 0.030958 -0.015797
-0.641039 0.123061 -29.239559 128 128 255 0.999083 -0.036025 -0.023125
-0.262194 2.204692 -42.572197 128 128 255 0.798832 0.601555 -0.000522
-3.015317 3.969853 -78.379387 128 128 255 -0.188980 0.981546 0.029241
-7.276262 4.386977 -146.963333 128 128 255 0.332109 -0.942629 -0.033967
-0.231802 6.629621 -132.299423 128 128 255 -0.029465 -0.999251 -0.025101
0.042280 1.517690 -69.741920 128 128 255 -0.995381 0.093666 0.021076
0.395651 -21.371195 -0.955771 128 128 255 -0.999517 0.029545 0.009632
-0.110925 -17.736605 -0.770288 128 128 255 -0.991991 -0.011013 -0.125830
0.266490 -15.890334 0.096296 128 128 255 -0.993659 0.016348 -0.111240
-0.187053 -15.994820 0.106605 128 128 255 0.999597 -0.004098 -0.028075
-0.526839 0.122996 -28.421745 128 128 255 0.998154 -0.057467 -0.019659
-0.111348 2.105508 -40.491535 128 128 255 0.848975 0.528422 -0.003360
-2.560870 3.701392 -72.655785 128 128 255 -0.056335 0.998078 0.025817
-6.926887 4.621586 -140.467651 128 128 255 -0.874477 0.484060 0.031249
-7.075841 0.562632 -141.728119 128 128 255 -0.357216 -0.933933 -0.012855
0.020782 1.830778 -74.697075 128 128 255 -0.910370 -0.413750 0.006153
0.462859 -21.964256 -0.981362 128 128 255 -0.999484 0.030384 0.010377
-0.064904 -18.022606 -0.784960 128 128 255 -0.989264 -0.008145 -0.145910
0.313679 -15.988713 0.095367 128 128 255 -0.995283 0.017261 -0.095470
-0.136338 -15.894067 0.105347 128 128 255 0.999655 -0.003207 -0.026073
-0.417659 0.122826 -27.683773 128 128 255 0.997948 -0.060831 -0.019994
0.025399 2.024199 -38.610088 128 128 255 0.864327 0.502882 -0.006920
-2.137314 3.426903 -67.527351 128 128 255 0.060365 0.997914 0.022869
-6.570199 4.811252 -133.287170 128 128 255 -0.857525 0.513185 0.035931
-7.410325 1.037647 -148.120438 128 128 255 -0.354767 -0.934876 -0.012140
-0.003448 2.204449 -80.101624 128 128 255 -0.913648 -0.406457 0.006357
0.533466 -22.567223 -1.008042 128 128 255 -0.999367 0.033564 0.011797
-0.017845 -18.360088 -0.800734 128 128 255 -0.988620 -0.005635 -0.150330
0.361441 -16.106283 0.094452 128 128 255 -0.995746 0.018473 -0.090264
-0.086798 -15.814220 0.104138 128 128 255 0.999647 -0.005409 -0.026001
-0.318725 0.122807 -27.019527 128 128 255 0.997836 -0.062747 -0.019655
0.150600 1.924963 -36.907177 128 128 255 0.900221 0.435365 -0.007664
-1.789140 3.217444 -62.931999 128 128 255 0.060423 0.997776 0.028146
-6.206813 4.954888 -125.737335 128 128 255 -0.799723 0.599350 0.034958
-7.632245 1.531835 -153.386963 128 128 255 -0.323547 -0.946058 -0.017094
-0.029877 2.628786 -85.967087 128 128 255 0.314877 -0.948595 -0.031928
0.146082 0.123562 -46.703529 128 128 255 -0.919195 0.392720 0.029180
0.135674 0.102839 0.122403 128 128 255 0.079317 -0.996849 0.000000
-0.007152 0.091474 0.120438 128 128 255 0.079317 -0.996849 0.000000
-0.321864 0.066433 0.121918 128 128 255 0.079317 -0.996849 0.000000
-0.552630 0.048072 0.123400 128 128 255 -0.814639 -0.579946 0.004983
0.070166 -1.485840 -76.513397 128 128 255 -0.899503 -0.436821 0.009044
0.194451 -2.094506 -43.011955 128 128 255 0.864212 0.503086 -0.006527
0.156578 0.104502 0.115618 128 128 255 0.956844 0.290266 -0.013963
0.202386 0.108147 0.119864 128 128 255 0.079317 -0.996849 0.000000
0.213731 0.109049 0.123200 128 128 255 0.079317 -0.996849 0.000000
0.197921 0.107791 0.124118 128 128 255 0.079317 -0.996849 0.000000
0.144651 0.103553 0.122640 128 128 255 0.079317 -0.996849 0.000000
0.014378 0.093187 0.120556 128 128 255 0.079317 -0.996849 0.000000
-0.280254 0.069744 0.121528 128 128 255 0.079317 -0.996849 0.000000
-0.559724 0.047507 0.123786 128 128 255 -0.821105 -0.570766 0.003430
0.051721 -1.323766 -81.598732 128 128 255 -0.904003 -0.427444 0.008385
0.185871 -2.080940 -45.400253 128 128 255 0.829543 0.558418 -0.005231
0.148764 0.103880 0.115219 128 128 255 0.952809 0.303258 -0.013783
0.199485 0.107916 0.119422 128 128 255 0.079317 -0.996849 0.000000
0.213802 0.109055 0.122948 128 128 255 0.079317 -0.996849 0.000000
0.201007 0.108037 0.124149 128 128 255 0.079318 -0.996849 0.000000
0.152831 0.104204 0.122869 128 128 255 0.079317 -0.996849 0.000000
0.034038 0.094752 0.120708 128 128 255 0.079317 -0.996849 0.000000
-0.239890 0.072956 0.121182 128 128 255 0.079317 -0.996849 0.000000
-0.557290 0.047701 0.124001 128 128 255 -0.803392 -0.595445 0.002608
0.032778 -1.130206 -86.929512 128 128 255 -0.900683 -0.434387 0.008849
0.176340 -2.060902 -48.013504 128 128 255 0.800632 0.599147 -0.003449
0.140187 0.103198 0.114844 128 128 255 0.950914 0.309173 -0.013190
0.196203 0.107655 0.118971 128 128 255 0.079317 -0.996849 0.000000
0.213586 0.109038 0.122669 128 128 255 0.079317 -0.996849 0.000000
0.203722 0.108253 0.124151 128 128 255 0.079318 -0.996849 0.000000
0.160281 0.104796 0.123088 128 128 255 0.079317 -0.996849 0.000000
0.051976 0.096179 0.120891 128 128 255 0.079317 -0.996849 0.000000
-0.201332 0.076024 0.120892 128 128 255 0.079317 -0.996849 0.000000
-0.545486 0.048640 0.124048 128 128 255 -0.776245 -0.630428 0.001894
0.012626 -0.917012 -92.438965 128 128 255 -0.900700 -0.434350 0.008955
0.165595 -2.026390 -50.870758 128 128 255 0.768603 0.639724 -0.001545
0.130778 0.102449 0.114495 128 128 255 0.947119 0.320629 -0.012743
0.192517 0.107361 0.118514 128 128 255 0.079317 -0.996849 0.000000
0.213082 0.108998 0.122364 128 128 255 0.079318 -0.996849 0.000000
0.206085 0.108441 0.124123 128 128 255 0.079317 -0.996849 0.000000
0.167060 0.105336 0.123292 128 128 255 0.971457 -0.235579 -0.027821
-0.559777 2.387232 -44.605038 128 128 255 0.546448 0.837431 0.010151
-4.003363 4.471725 -86.294098 128 128 255 -0.493643 0.868890 0.036696
-7.532916 3.461262 -146.752991 128 128 255 0.002926 -0.999656 -0.026078
-0.017772 4.979822 -110.162254 128 128 255 0.087681 -0.995707 -0.029661
0.158967 0.878289 -57.445255 128 128 255 -0.995001 0.097753 0.020446
0.279480 -19.911713 -0.905784 128 128 255 -0.999463 0.031947 0.007331
-0.208915 -16.738605 -0.728623 128 128 255 -0.998412 -0.008048 -0.055760
0.174803 -15.064795 0.137072 128 128 255 0.999853 -0.016524 0.004468
0.176980 0.087186 -23.017815 128 128 255 0.999232 0.036227 -0.014943
-0.721639 0.079177 -28.353672 128 128 255 0.999706 -0.008755 -0.022620
-0.373562 2.256017 -42.206020 128 128 255 0.764709 0.644372 0.002099
-3.428086 4.151195 -79.633995 128 128 255 -0.360666 0.932057 0.034479
-7.333932 3.841450 -142.913376 128 128 255 0.166203 -0.985644 -0.029694
-0.040441 5.670287 -117.225197 128 128 255 0.004621 -0.999661 -0.025612
0.145387 1.123138 -61.316719 128 128 255 -0.994864 0.098983 0.021171
0.340826 -20.291212 -0.930775 128 128 255 -0.999366 0.034377 0.009252
-0.163005 -16.949608 -0.742317 128 128 255 -0.997039 -0.007229 -0.076552
0.222044 -15.118279 0.135705 128 128 255 0.999838 -0.017283 0.005116
0.251640 0.087585 -22.745321 128 128 255 0.999369 0.032271 -0.014862
-0.597193 0.080583 -27.502378 128 128 255 0.999304 -0.030243 -0.021857
-0.207338 2.137073 -40.041191 128 128 255 0.811736 0.584014 -0.003525
-2.902113 3.839085 -73.650818 128 128 255 -0.184817 0.982343 0.029061
-7.072536 4.164353 -137.807465 128 128 255 0.311232 -0.949887 -0.029144
-0.061378 6.365628 -124.121613 128 128 255 -0.017319 -0.999495 -0.026651
0.130890 1.403690 -65.563744 128 128 255 -0.994474 0.102606 0.022214
0.404545 -20.687132 -0.956972 128 128 255 -0.999344 0.034735 0.010213
-0.116205 -17.169285 -0.757128 128 128 255 -0.992504 -0.005894 -0.122072
0.269525 -15.192238 0.134322 128 128 255 -0.991755 0.003306 -0.128103
-0.190906 -15.293484 0.147083 128 128 255 0.999593 -0.002884 -0.028392
-0.487790 0.081678 -26.732710 128 128 255 0.998002 -0.059863 -0.020199
-0.060698 2.055771 -38.085392 128 128 255 0.843405 0.537243 -0.006076
-2.439600 3.556565 -68.284241 128 128 255 -0.072639 0.996990 0.027088
-6.756885 4.423415 -131.742615 128 128 255 -0.886004 0.462566 0.032101
-6.850721 0.354609 -132.928223 128 128 255 -0.356066 -0.934349 -0.014463
0.115225 1.730885 -70.211029 128 128 255 -0.902747 -0.430134 0.005728
0.472080 -21.172373 -0.984349 128 128 255 -0.999430 0.032211 0.010129
-0.068519 -17.407160 -0.773078 128 128 255 -0.985378 -0.004155 -0.170332
0.317448 -15.287467 0.132922 128 128 255 -0.994129 0.005183 -0.108080
-0.139401 -15.195798 0.145750 128 128 255 0.999546 -0.006827 -0.029345
-0.386017 0.082621 -26.038139 128 128 255 0.997907 -0.061632 -0.019563
0.074887 1.952534 -36.316547 128 128 255 0.864067 0.503364 -0.003698
-2.061463 3.343708 -63.473919 128 128 255 0.058172 0.998044 0.022897
-6.367078 4.594400 -125.035637 128 128 255 -0.826208 0.562452 0.032080
-7.185176 0.818320 -138.894547 128 128 255 -0.349402 -0.936877 -0.013367
0.098042 2.086318 -75.277985 128 128 255 -0.909370 -0.415945 0.006015
0.544705 -21.770651 -1.012862 128 128 255 -0.999455 0.031315 0.010412
-0.019883 -17.678854 -0.790188 128 128 255 -0.980376 -0.002222 -0.197125
0.366022 -15.404723 0.131504 128 128 255 -0.996009 0.006970 -0.088983
-0.089125 -15.120237 0.144422 128 128 255 0.999556 -0.007881 -0.028720
-0.286863 0.083575 -25.412920 128 128 255 0.997793 -0.063547 -0.019242
0.197917 1.882552 -34.715294 128 128 255 0.902314 0.430999 -0.008321
-1.695304 3.102970 -59.162151 128 128 255 0.136373 0.990417 0.021819
-5.974580 4.717035 -117.980461 128 128 255 -0.800903 0.597787 0.034706
-7.391716 1.302473 -143.808029 128 128 255 -0.342172 -0.939567 -0.011498
0.079645 2.480340 -80.774971 128 128 255 0.296849 -0.954436 -0.030549
0.205393 0.055912 -43.935074 128 128 255 -0.910912 0.411490 0.030241
0.135674 0.102839 0.108452 128 128 255 -0.079317 0.996849 0.000000
-0.007152 0.091474 0.114673 128 128 255 -0.079317 0.996849 0.000000
-0.321864 0.066433 0.126497 128 128 255 -0.079317 0.996849 0.000000
-0.552630 0.048072 0.136609 128 128 255 -0.842617 -0.538501 0.003763
0.172681 -1.587762 -71.607498 128 128 255 -0.900228 -0.435327 0.008883
0.252074 -2.160734 -40.293690 128 128 255 0.866093 0.499843 -0.006417
0.156578 0.104502 0.121900 128 128 255 0.959429 0.281627 -0.013516
0.202386 0.108147 0.115820 128 128 255 -0.079317 0.996849 0.000000
0.213731 0.109049 0.110344 128 128 255 -0.079317 0.996849 0.000000
0.197921 0.107791 0.107262 128 128 255 -0.079317 0.996849 0.000000
0.144651 0.103553 0.108093 128 128 255 -0.079317 0.996849 0.000000
0.014378 0.093187 0.113763 128 128 255 -0.079317 0.996849 0.000000
-0.280254 0.069744 0.125032 128 128 255 -0.079317 0.996849 0.000000
-0.559724 0.047507 0.136275 128 128 255 -0.799587 -0.600535 0.004224
0.161553 -1.450338 -76.354996 128 128 255 -0.899080 -0.437694 0.008934
0.246340 -2.141514 -42.528034 128 128 255 0.831572 0.555391 -0.005291
0.148764 0.103880 0.122515 128 128 255 0.953138 0.302225 -0.013729
0.199485 0.107916 0.116461 128 128 255 -0.079317 0.996849 0.000000
0.213802 0.109055 0.110839 128 128 255 -0.079317 0.996849 0.000000
0.201007 0.108037 0.107424 128 128 255 -0.079318 0.996849 0.000000
0.152831 0.104204 0.107788 128 128 255 -0.079317 0.996849 0.000000
0.034038 0.094752 0.112917 128 128 255 -0.079317 0.996849 0.000000
-0.239890 0.072956 0.123596 128 128 255 -0.079317 0.996849 0.000000
-0.557290 0.047701 0.135717 128 128 255 -0.808851 -0.588009 0.002447
0.149150 -1.262770 -81.329926 128 128 255 -0.903206 -0.429125 0.008421
0.240867 -2.129864 -44.972527 128 128 255 0.804541 0.593886 -0.003552
0.140187 0.103198 0.123122 128 128 255 0.950864 0.309326 -0.013193
0.196203 0.107655 0.117106 128 128 255 -0.079317 0.996849 0.000000
0.213586 0.109038 0.111358 128 128 255 -0.079317 0.996849 0.000000
0.203722 0.108253 0.107628 128 128 255 -0.079318 0.996849 0.000000
0.160281 0.104796 0.107538 128 128 255 -0.079317 0.996849 0.000000
0.051976 0.096179 0.112134 128 128 255 -0.079317 0.996849 0.000000
-0.201332 0.076024 0.122205 128 128 255 -0.079317 0.996849 0.000000
-0.545486 0.048640 0.134941 128 128 255 -0.777548 -0.628821 0.001868
0.136875 -1.052138 -86.469749 128 128 255 -0.900756 -0.434234 0.008932
0.234108 -2.101048 -47.644875 128 128 255 0.766579 0.642148 -0.001586
0.130778 0.102449 0.123721 128 128 255 0.947199 0.320393 -0.012729
0.192517 0.107361 0.117753 128 128 255 -0.079318 0.996849 0.000000
0.213082 0.108998 0.111900 128 128 255 -0.079318 0.996849 0.000000
0.206085 0.108441 0.107874 128 128 255 -0.079317 0.996849 0.000000
0.167060 0.105336 0.107339 128 128 255 0.969456 -0.243641 -0.028189
-0.497760 2.312407 -41.799850 128 128 255 0.547478 0.836774 0.008792
-3.866057 4.316485 -80.738365 128 128 255 -0.426334 0.903988 0.032315
-7.296054 3.219420 -137.028000 128 128 255 -0.000834 -0.999710 -0.024057
0.130738 4.758330 -102.982330 128 128 255 0.086012 -0.995874 -0.028933
0.236372 0.788017 -53.788136 128 128 255 -0.994948 0.098422 0.019780
0.285063 -19.191992 -0.892272 128 128 255 -0.999576 0.028793 0.004256
-0.215365 -16.061722 -0.721480 128 128 255 -0.993195 -0.005523 -0.116334
0.176902 -14.432696 0.151647 128 128 255 0.999802 -0.018950 0.006039
0.207455 0.051845 -21.595266 128 128 255 0.999104 0.039484 -0.015222
-0.680908 0.035520 -26.593914 128 128 255 0.999551 -0.019296 -0.022905
-0.314347 2.179655 -39.556072 128 128 255 0.768372 0.640001 -0.001628
-3.290981 3.994333 -74.524597 128 128 255 -0.312974 0.949239 0.031494
-7.108481 3.605769 -133.459686 128 128 255 0.147967 -0.988609 -0.027515
0.117724 5.445152 -109.560196 128 128 255 0.030231 -0.999159 -0.027703
0.228327 1.032503 -57.406609 128 128 255 -0.994886 0.098907 0.020491
0.349483 -19.667940 -0.917010 128 128 255 -0.999470 0.031885 0.006527
-0.169214 -16.313696 -0.734277 128 128 255 -0.993586 -0.004122 -0.113004
0.225080 -14.476877 0.151272 128 128 255 0.999766 -0.020919 0.005538
0.280780 0.052751 -21.339598 128 128 255 0.999297 0.034262 -0.015233
-0.565711 0.037806 -25.796825 128 128 255 0.999267 -0.031457 -0.021811
-0.154319 2.081684 -37.531055 128 128 255 0.814149 0.580650 -0.002662
-2.800841 3.723123 -68.940109 128 128 255 -0.179487 0.983336 0.028895
-6.875946 3.946205 -128.713165 128 128 255 0.321644 -0.946373 -0.030382
0.105306 6.167147 -115.979958 128 128 255 -0.049797 -0.998479 -0.023647
0.218730 1.300742 -61.375099 128 128 255 -0.994792 0.099676 0.021314
0.415963 -20.092983 -0.943066 128 128 255 -0.999335 0.035400 0.008789
-0.121800 -16.570496 -0.748225 128 128 255 -0.991993 -0.002550 -0.126270
0.273427 -14.538072 0.150947 128 128 255 -0.994958 0.011998 -0.099569
-0.195918 -14.622167 0.156721 128 128 255 0.999605 -0.002819 -0.027973
-0.452364 0.040401 -25.076082 128 128 255 0.997840 -0.062689 -0.019617
-0.008734 1.990894 -35.701344 128 128 255 0.831881 0.554946 -0.002861
-2.357898 3.465449 -63.929317 128 128 255 -0.076204 0.996704 0.027839
-6.570255 4.214780 -123.073189 128 128 255 -0.892833 0.449158 0.033273
-6.601093 0.149017 -124.175247 128 128 255 -0.358396 -0.933471 -0.013595
0.209351 1.612754 -65.716377 128 128 255 -0.894666 -0.446710 0.004870
0.484625 -20.496824 -0.970420 128 128 255 -0.999257 0.037134 0.010293
-0.073014 -16.826971 -0.763353 128 128 255 -0.985966 -0.000721 -0.166947
0.322128 -14.617306 0.150668 128 128 255 -0.994610 0.013039 -0.102866
-0.143638 -14.540881 0.155762 128 128 255 0.999637 -0.003155 -0.026767
-0.346490 0.042793 -24.425583 128 128 255 0.997631 -0.065985 -0.019461
0.123733 1.894521 -34.046349 128 128 255 0.876407 0.481524 -0.006760
-1.961023 3.223536 -59.436443 128 128 255 -0.038674 0.998772 0.030961
-6.215494 4.413565 -116.833450 128 128 255 -0.852798 0.521044 0.035341
-6.954037 0.600579 -129.723557 128 128 255 -0.349475 -0.936822 -0.015212
0.199238 1.966999 -70.448212 128 128 255 -0.893420 -0.449188 0.005558
0.557107 -20.962421 -0.999038 128 128 255 -0.999318 0.035390 0.010564
-0.022859 -17.084532 -0.779689 128 128 255 -0.975115 0.001389 -0.221694
