ply
format ascii 1.0
element vertex 684
property float x
property float y
property float z
property uchar red
property uchar green
property uchar blue
property float nx
property float ny
property float nz
end_header
466.766663 -133.233337 -199.899994 128 128 255 0.577350 -0.577350 -0.577350
633.433350 33.433334 -199.899994 128 128 255 0.930175 0.271644 0.246949
200.100006 800.099976 -199.899994 128 128 255 0.771478 0.335269 0.540755
200.100006 633.433350 -33.233334 128 128 255 -0.577350 -0.577350 -0.577350
200.100006 466.766663 133.433334 128 128 255 -0.577350 -0.577350 -0.577350
200.100006 300.100006 300.100006 128 128 255 -0.577350 -0.577350 -0.577350
200.100006 133.433334 466.766663 128 128 255 -0.577350 -0.577350 -0.577350
200.100006 -33.233334 633.433350 128 128 255 0.444668 0.655293 -0.610624
0.366667 -0.966667 0.366667 128 128 255 0.617616 0.770937 -0.155588
0.144444 -0.744444 0.366667 128 128 255 -0.707107 -0.707107 -0.000000
-0.077778 -0.522222 0.366667 128 128 255 -0.707107 -0.707107 0.000000
-0.300000 -0.300000 0.366667 128 128 255 -0.707107 -0.707107 0.000000
-0.522222 -0.077778 0.366667 128 128 255 -0.707107 -0.707107 0.000000
-0.744444 0.144444 0.366667 128 128 255 -0.697025 0.194069 -0.690284
-0.166667 1.166667 0.366667 128 128 255 -0.593441 0.283930 -0.753135
-0.108696 0.760870 0.134783 128 128 255 0.408248 -0.408248 0.816497
-0.071429 0.500000 -0.014286 128 128 255 0.408248 -0.408248 0.816497
-0.045455 0.318182 -0.118182 128 128 255 0.408248 -0.408248 0.816497
-0.026316 0.184211 -0.194737 128 128 255 0.408248 -0.408248 0.816497
-0.011628 0.081395 -0.253488 128 128 255 -0.304213 0.331115 0.893206
0.000000 -0.300000 0.000000 128 128 255 -0.555807 0.444963 0.702201
0.012500 -0.300000 0.012500 128 128 255 0.577350 -0.577350 -0.577350
0.093750 -0.218750 0.012500 128 128 255 0.577350 -0.577350 -0.577350
0.175000 -0.137500 0.012500 128 128 255 0.577350 -0.577350 -0.577350
0.256250 -0.056250 0.012500 128 128 255 0.577350 -0.577350 -0.577350
0.337500 0.025000 0.012500 128 128 255 0.577350 -0.577350 -0.577350
0.418750 0.106250 0.012500 128 128 255 0.918297 0.295452 0.263512
0.187500 0.500000 0.012500 128 128 255 0.760269 0.357974 0.542075
0.187500 0.418750 0.093750 128 128 255 -0.577350 -0.577350 -0.577350
0.187500 0.337500 0.175000 128 128 255 -0.577350 -0.577350 -0.577350
0.187500 0.256250 0.256250 128 128 255 -0.577350 -0.577350 -0.577350
0.187500 0.175000 0.337500 128 128 255 -0.577350 -0.577350 -0.577350
0.187500 0.093750 0.418750 128 128 255 0.590154 0.561754 -0.579785
0.756410 -0.556410 0.243590 128 128 255 0.793159 0.607166 0.047410
0.623077 -0.423077 0.243590 128 128 255 -0.707107 -0.707107 0.000000
0.489744 -0.289744 0.243590 128 128 255 -0.707107 -0.707107 -0.000000
0.356410 -0.156410 0.243590 128 128 255 -0.707107 -0.707107 0.000000
0.223077 -0.023077 0.243590 128 128 255 -0.707107 -0.707107 0.000000
0.089744 0.110256 0.243590 128 128 255 -0.707107 -0.707107 -0.000000
-0.556410 0.756410 0.243590 128 128 255 -0.707107 -0.707107 -0.000000
-0.527692 0.727692 0.112308 128 128 255 0.707107 0.707106 0.000000
-0.484615 0.684615 -0.084615 128 128 255 0.707107 0.707107 0.000000
-0.412821 0.612821 -0.412821 128 128 255 0.707107 0.707107 0.000000
-0.269231 0.469231 -1.069231 128 128 255 0.707107 0.707107 0.000000
0.161538 0.038462 -3.038461 128 128 255 -0.701358 -0.000404 -0.712809
175.100006 -799.900024 -174.899994 128 128 255 -0.674740 0.290330 -0.678554
12.600000 -637.400024 -174.899994 128 128 255 0.577350 0.577350 0.577350
-149.899994 -474.899994 -174.899994 128 128 255 0.577350 0.577350 0.577350
-312.399994 -312.399994 -174.899994 128 128 255 0.577350 0.577350 0.577350
-474.899994 -149.899994 -174.899994 128 128 255 0.577350 0.577350 0.577350
-637.400024 12.600000 -174.899994 128 128 255 0.918297 -0.295452 -0.263512
-174.899994 800.099976 -174.899994 128 128 255 0.760269 -0.357974 -0.542075
-174.899994 637.599976 -12.400000 128 128 255 -0.577350 0.577350 0.577350
-174.899994 475.100006 150.100006 128 128 255 -0.577350 0.577350 0.577350
-174.899994 312.600006 312.600006 128 128 255 -0.577350 0.577350 0.577350
-174.899994 150.100006 475.100006 128 128 255 -0.577350 0.577350 0.577350
-174.899994 -12.400000 637.599976 128 128 255 0.452314 -0.661923 0.597721
-0.124000 -0.924000 0.324000 128 128 255 0.617580 -0.770981 0.155511
0.084000 -0.716000 0.324000 128 128 255 -0.707107 0.707107 -0.000000
0.292000 -0.508000 0.324000 128 128 255 -0.707107 0.707107 -0.000000
0.500000 -0.300000 0.324000 128 128 255 -0.707107 0.707107 0.000000
0.708000 -0.092000 0.324000 128 128 255 -0.707107 0.707107 0.000000
0.916000 0.116000 0.324000 128 128 255 -0.686169 -0.211987 0.695869
0.324000 1.124000 0.324000 128 128 255 -0.583233 -0.296176 0.756385
0.277778 0.747619 0.112698 128 128 255 0.408248 0.408248 -0.816496
0.247368 0.500000 -0.026316 128 128 255 0.408248 0.408248 -0.816497
0.225843 0.324719 -0.124719 128 128 255 0.408248 0.408248 -0.816497
0.209804 0.194118 -0.198039 128 128 255 0.408248 0.408248 -0.816497
0.197391 0.093043 -0.254783 128 128 255 -0.318386 -0.350107 -0.880940
0.187500 -0.300000 0.012500 128 128 255 -0.545538 -0.414429 -0.728448
0.106250 -0.218750 0.012500 128 128 255 0.577350 0.577350 0.577350
0.025000 -0.137500 0.012500 128 128 255 0.577350 0.577350 0.577350
-0.056250 -0.056250 0.012500 128 128 255 0.577350 0.577350 0.577350
-0.137500 0.025000 0.012500 128 128 255 0.577350 0.577350 0.577350
-0.218750 0.106250 0.012500 128 128 255 0.918297 -0.295452 -0.263511
0.012500 0.500000 0.012500 128 128 255 0.760269 -0.357974 -0.542075
0.012500 0.418750 0.093750 128 128 255 -0.577350 0.577350 0.577350
0.012500 0.337500 0.175000 128 128 255 -0.577350 0.577350 0.577350
0.012500 0.256250 0.256250 128 128 255 -0.577350 0.577350 0.577350
0.012500 0.175000 0.337500 128 128 255 -0.577350 0.577350 0.577350
0.012500 0.093750 0.418750 128 128 255 0.590154 -0.561754 0.579785
-0.556410 -0.556410 0.243590 128 128 255 0.793159 -0.607166 -0.047410
-0.423077 -0.423077 0.243590 128 128 255 -0.707107 0.707107 0.000000
-0.289744 -0.289744 0.243590 128 128 255 -0.707107 0.707107 0.000000
-0.156410 -0.156410 0.243590 128 128 255 -0.707107 0.707107 0.000000
-0.023077 -0.023077 0.243590 128 128 255 -0.707107 0.707107 0.000000
0.110256 0.110256 0.243590 128 128 255 -0.707107 0.707107 0.000000
0.756410 0.756410 0.243590 128 128 255 -0.707107 0.707107 0.000000
0.727692 0.727692 0.112308 128 128 255 0.707107 -0.707107 0.000000
0.684615 0.684615 -0.084615 128 128 255 0.707107 -0.707107 0.000000
0.612821 0.612821 -0.412821 128 128 255 0.707107 -0.707107 0.000000
0.469231 0.469231 -1.069231 128 128 255 0.707107 -0.707107 0.000000
0.038462 0.038462 -3.038461 128 128 255 -0.701358 0.000404 0.712809
-174.899994 -799.900024 -174.899994 128 128 255 -0.674740 -0.290330 0.678554
-12.400000 -637.400024 -174.899994 128 128 255 0.577350 -0.577350 -0.577350
150.100006 -474.899994 -174.899994 128 128 255 0.577350 -0.577350 -0.577350
312.600006 -312.399994 -174.899994 128 128 255 0.577350 -0.577350 -0.577350
475.100006 -149.899994 -174.899994 128 128 255 0.577350 -0.577350 -0.577350
637.599976 12.600000 -174.899994 128 128 255 0.918297 0.295452 0.263512
175.100006 800.099976 -174.899994 128 128 255 0.760269 0.357974 0.542076
175.100006 637.599976 -12.400000 128 128 255 -0.577350 -0.577350 -0.577350
175.100006 475.100006 150.100006 128 128 255 -0.577350 -0.577350 -0.577350
175.100006 312.600006 312.600006 128 128 255 -0.577350 -0.577350 -0.577350
175.100006 150.100006 475.100006 128 128 255 -0.577350 -0.577350 -0.577350
175.100006 -12.400000 637.599976 128 128 255 0.452314 0.661923 -0.597721
0.324000 -0.924000 0.324000 128 128 255 0.617580 0.770981 -0.155511
0.116000 -0.716000 0.324000 128 128 255 -0.707107 -0.707107 0.000000
-0.092000 -0.508000 0.324000 128 128 255 -0.707107 -0.707107 0.000000
-0.300000 -0.300000 0.324000 128 128 255 -0.707107 -0.707107 -0.000000
-0.508000 -0.092000 0.324000 128 128 255 -0.707107 -0.707107 -0.000000
-0.716000 0.116000 0.324000 128 128 255 -0.686169 0.211987 -0.695869
-0.124000 1.124000 0.324000 128 128 255 -0.583233 0.296176 -0.756385
-0.077778 0.747619 0.112698 128 128 255 0.408248 -0.408248 0.816496
-0.047368 0.500000 -0.026316 128 128 255 0.408248 -0.408248 0.816497
-0.025843 0.324719 -0.124719 128 128 255 0.408248 -0.408248 0.816497
-0.009804 0.194118 -0.198039 128 128 255 0.408248 -0.408248 0.816497
0.002609 0.093043 -0.254783 128 128 255 -0.318386 0.350107 0.880940
0.012500 -0.300000 0.012500 128 128 255 -0.555557 0.454871 0.696024
0.025000 -0.300000 0.025000 128 128 255 0.577350 -0.577350 -0.577350
0.104167 -0.220833 0.025000 128 128 255 0.577350 -0.577350 -0.577350
0.183333 -0.141667 0.025000 128 128 255 0.577350 -0.577350 -0.577350
0.262500 -0.062500 0.025000 128 128 255 0.577350 -0.577350 -0.577350
0.341667 0.016667 0.025000 128 128 255 0.577350 -0.577350 -0.577350
0.420833 0.095833 0.025000 128 128 255 0.906296 0.317591 0.278860
0.175000 0.500000 0.025000 128 128 255 0.749804 0.378134 0.542962
0.175000 0.420833 0.104167 128 128 255 -0.577350 -0.577350 -0.577350
0.175000 0.341667 0.183333 128 128 255 -0.577350 -0.577350 -0.577350
0.175000 0.262500 0.262500 128 128 255 -0.577350 -0.577350 -0.577350
0.175000 0.183333 0.341667 128 128 255 -0.577350 -0.577350 -0.577350
0.175000 0.104167 0.420833 128 128 255 0.615393 0.592855 -0.519436
0.773684 -0.573684 0.226316 128 128 255 0.786705 0.615633 0.045732
0.640351 -0.440351 0.226316 128 128 255 -0.707107 -0.707107 0.000000
0.507018 -0.307018 0.226316 128 128 255 -0.707107 -0.707107 -0.000000
0.373684 -0.173684 0.226316 128 128 255 -0.707107 -0.707107 -0.000000
0.240351 -0.040351 0.226316 128 128 255 -0.707107 -0.707107 -0.000000
0.107018 0.092982 0.226316 128 128 255 -0.707107 -0.707107 0.000000
-0.573684 0.773684 0.226316 128 128 255 -0.707107 -0.707107 0.000000
-0.548421 0.748421 0.091579 128 128 255 0.707107 0.707107 0.000000
-0.510526 0.710526 -0.110526 128 128 255 0.707107 0.707107 -0.000000
-0.447368 0.647368 -0.447368 128 128 255 0.707107 0.707107 -0.000000
-0.321053 0.521053 -1.121053 128 128 255 0.707107 0.707107 0.000000
0.057895 0.142105 -3.142105 128 128 255 -0.701052 -0.000841 -0.713110
150.100006 -799.900024 -149.899994 128 128 255 -0.676805 0.280114 -0.680787
-8.233334 -641.566650 -149.899994 128 128 255 0.577350 0.577350 0.577350
-166.566666 -483.233337 -149.899994 128 128 255 0.577350 0.577350 0.577350
-324.899994 -324.899994 -149.899994 128 128 255 0.577350 0.577350 0.577350
-483.233337 -166.566666 -149.899994 128 128 255 0.577350 0.577350 0.577350
-641.566650 -8.233334 -149.899994 128 128 255 0.906296 -0.317591 -0.278861
-149.899994 800.099976 -149.899994 128 128 255 0.749804 -0.378134 -0.542962
-149.899994 641.766663 8.433333 128 128 255 -0.577351 0.577350 0.577350
-149.899994 483.433319 166.766663 128 128 255 -0.577350 0.577350 0.577350
-149.899994 325.100006 325.100006 128 128 255 -0.577350 0.577350 0.577350
-149.899994 166.766663 483.433319 128 128 255 -0.577350 0.577350 0.577350
-149.899994 8.433333 641.766663 128 128 255 0.459761 -0.668306 0.584797
-0.084615 -0.884615 0.284615 128 128 255 0.617547 -0.771021 0.155444
0.110256 -0.689744 0.284615 128 128 255 -0.707107 0.707107 0.000000
0.305128 -0.494872 0.284615 128 128 255 -0.707107 0.707107 0.000000
0.500000 -0.300000 0.284615 128 128 255 -0.707107 0.707107 -0.000000
0.694872 -0.105128 0.284615 128 128 255 -0.707107 0.707107 -0.000000
0.889744 0.089744 0.284615 128 128 255 -0.675720 -0.228660 0.700797
0.284615 1.084615 0.284615 128 128 255 -0.573781 -0.307255 0.759190
0.248454 0.735052 0.091753 128 128 255 0.408248 0.408248 -0.816497
0.224138 0.500000 -0.037931 128 128 255 0.408248 0.408248 -0.816496
0.206667 0.331111 -0.131111 128 128 255 0.408248 0.408248 -0.816496
0.193506 0.203896 -0.201299 128 128 255 0.408248 0.408248 -0.816497
0.183237 0.104624 -0.256069 128 128 255 -0.331534 -0.367800 -0.868797
0.175000 -0.300000 0.025000 128 128 255 -0.546306 -0.429436 -0.719121
0.095833 -0.220833 0.025000 128 128 255 0.577350 0.577350 0.577350
0.016667 -0.141667 0.025000 128 128 255 0.577350 0.577350 0.577350
-0.062500 -0.062500 0.025000 128 128 255 0.577350 0.577350 0.577350
-0.141667 0.016667 0.025000 128 128 255 0.577350 0.577350 0.577350
-0.220833 0.095833 0.025000 128 128 255 0.906296 -0.317591 -0.278861
0.025000 0.500000 0.025000 128 128 255 0.749804 -0.378134 -0.542962
0.025000 0.420833 0.104167 128 128 255 -0.577350 0.577350 0.577350
0.025000 0.341667 0.183333 128 128 255 -0.577350 0.577350 0.577350
0.025000 0.262500 0.262500 128 128 255 -0.577351 0.577350 0.577350
0.025000 0.183333 0.341667 128 128 255 -0.577350 0.577350 0.577350
0.025000 0.104167 0.420833 128 128 255 0.615393 -0.592855 0.519436
-0.573684 -0.573684 0.226316 128 128 255 0.786705 -0.615633 -0.045732
-0.440351 -0.440351 0.226316 128 128 255 -0.707107 0.707107 0.000000
-0.307018 -0.307018 0.226316 128 128 255 -0.707107 0.707107 0.000000
-0.173684 -0.173684 0.226316 128 128 255 -0.707107 0.707107 0.000000
-0.040351 -0.040351 0.226316 128 128 255 -0.707107 0.707107 0.000000
0.092982 0.092982 0.226316 128 128 255 -0.707107 0.707107 0.000000
0.773684 0.773684 0.226316 128 128 255 -0.707107 0.707107 0.000000
0.748421 0.748421 0.091579 128 128 255 0.707107 -0.707107 0.000000
0.710526 0.710526 -0.110526 128 128 255 0.707107 -0.707107 0.000000
0.647368 0.647368 -0.447368 128 128 255 0.707107 -0.707107 0.000000
0.521053 0.521053 -1.121053 128 128 255 0.707107 -0.707107 0.000000
0.142105 0.142105 -3.142105 128 128 255 -0.701052 0.000841 0.713110
-149.899994 -799.900024 -149.899994 128 128 255 -0.676805 -0.280114 0.680787
8.433333 -641.566650 -149.899994 128 128 255 0.577350 -0.577350 -0.577350
166.766663 -483.233337 -149.899994 128 128 255 0.577350 -0.577350 -0.577350
325.100006 -324.899994 -149.899994 128 128 255 0.577350 -0.577350 -0.577350
483.433319 -166.566666 -149.899994 128 128 255 0.577350 -0.577350 -0.577350
641.766663 -8.233334 -149.899994 128 128 255 0.906296 0.317591 0.278860
150.100006 800.099976 -149.899994 128 128 255 0.749805 0.378134 0.542962
150.100006 641.766663 8.433333 128 128 255 -0.577350 -0.577350 -0.577350
150.100006 483.433319 166.766663 128 128 255 -0.577350 -0.577350 -0.577350
150.100006 325.100006 325.100006 128 128 255 -0.577350 -0.577350 -0.577350
150.100006 166.766663 483.433319 128 128 255 -0.577350 -0.577350 -0.577350
150.100006 8.433333 641.766663 128 128 255 0.459761 0.668306 -0.584797
0.284615 -0.884615 0.284615 128 128 255 0.617547 0.771021 -0.155444
0.089744 -0.689744 0.284615 128 128 255 -0.707107 -0.707107 -0.000000
-0.105128 -0.494872 0.284615 128 128 255 -0.707107 -0.707107 -0.000000
-0.300000 -0.300000 0.284615 128 128 255 -0.707107 -0.707107 -0.000000
-0.494872 -0.105128 0.284615 128 128 255 -0.707107 -0.707107 -0.000000
-0.689744 0.089744 0.284615 128 128 255 -0.675720 0.228660 -0.700797
-0.084615 1.084615 0.284615 128 128 255 -0.573781 0.307255 -0.759190
-0.048454 0.735052 0.091753 128 128 255 0.408248 -0.408248 0.816497
-0.024138 0.500000 -0.037931 128 128 255 0.408248 -0.408248 0.816497
-0.006667 0.331111 -0.131111 128 128 255 0.408248 -0.408248 0.816497
0.006494 0.203896 -0.201299 128 128 255 0.408248 -0.408248 0.816497
0.016763 0.104624 -0.256069 128 128 255 -0.331534 0.367800 0.868797
0.025000 -0.300000 0.025000 128 128 255 -0.555258 0.463985 0.690222
0.037500 -0.300000 0.037500 128 128 255 0.577350 -0.577350 -0.577350
0.114583 -0.222917 0.037500 128 128 255 0.577350 -0.577350 -0.577350
0.191667 -0.145833 0.037500 128 128 255 0.577350 -0.577350 -0.577350
0.268750 -0.068750 0.037500 128 128 255 0.577350 -0.577350 -0.577350
0.345833 0.008333 0.037500 128 128 255 0.577350 -0.577350 -0.577350
0.422917 0.085417 0.037500 128 128 255 0.894282 0.338174 0.293083
0.162500 0.500000 0.037500 128 128 255 0.740048 0.396125 0.543520
0.162500 0.422917 0.114583 128 128 255 -0.577351 -0.577350 -0.577350
0.162500 0.345833 0.191667 128 128 255 -0.577350 -0.577350 -0.577350
0.162500 0.268750 0.268750 128 128 255 -0.577351 -0.577350 -0.577350
0.162500 0.191667 0.345833 128 128 255 -0.577351 -0.577350 -0.577350
0.162500 0.114583 0.422917 128 128 255 0.634668 0.617288 -0.464922
0.791892 -0.591892 0.208108 128 128 255 0.780846 0.623161 0.044152
0.658559 -0.458559 0.208108 128 128 255 -0.707107 -0.707107 0.000000
0.525225 -0.325225 0.208108 128 128 255 -0.707107 -0.707107 0.000000
0.391892 -0.191892 0.208108 128 128 255 -0.707107 -0.707107 -0.000000
0.258559 -0.058559 0.208108 128 128 255 -0.707107 -0.707107 -0.000000
0.125225 0.074775 0.208108 128 128 255 -0.707107 -0.707107 -0.000000
-0.591892 0.791892 0.208108 128 128 255 -0.707107 -0.707107 0.000000
-0.570270 0.770270 0.069730 128 128 255 0.707107 0.707107 -0.000000
-0.537838 0.737838 -0.137838 128 128 255 0.707107 0.707107 -0.000000
-0.483784 0.683784 -0.483784 128 128 255 0.707107 0.707107 -0.000000
-0.375676 0.575676 -1.175676 128 128 255 0.707107 0.707107 -0.000000
-0.051351 0.251351 -3.251351 128 128 255 -0.700720 -0.001318 -0.713435
125.099998 -799.900024 -124.900002 128 128 255 -0.678759 0.270008 -0.682922
-29.066668 -645.733337 -124.900002 128 128 255 0.577350 0.577350 0.577350
-183.233337 -491.566681 -124.900002 128 128 255 0.577350 0.577350 0.577350
-337.399994 -337.399994 -124.900002 128 128 255 0.577350 0.577350 0.577350
-491.566681 -183.233337 -124.900002 128 128 255 0.577350 0.577350 0.577350
-645.733337 -29.066668 -124.900002 128 128 255 0.894282 -0.338174 -0.293084
-124.900002 800.099976 -124.900002 128 128 255 0.740048 -0.396125 -0.543520
-124.900002 645.933350 29.266666 128 128 255 -0.577350 0.577350 0.577350
-124.900002 491.766663 183.433334 128 128 255 -0.577351 0.577350 0.577350
-124.900002 337.600006 337.600006 128 128 255 -0.577350 0.577350 0.577350
-124.900002 183.433334 491.766663 128 128 255 -0.577350 0.577350 0.577350
-124.900002 29.266666 645.933350 128 128 255 0.467009 -0.674445 0.571863
-0.048148 -0.848148 0.248148 128 128 255 0.617518 -0.771056 0.155385
0.134568 -0.665432 0.248148 128 128 255 -0.707107 0.707107 -0.000000
0.317284 -0.482716 0.248148 128 128 255 -0.707107 0.707107 -0.000000
0.500000 -0.300000 0.248148 128 128 255 -0.707107 0.707107 0.000000
0.682716 -0.117284 0.248148 128 128 255 -0.707107 0.707107 -0.000000
0.865432 0.065432 0.248148 128 128 255 -0.665679 -0.244195 0.705153
0.248148 1.048148 0.248148 128 128 255 -0.565019 -0.317309 0.761622
0.220603 0.723116 0.071859 128 128 255 0.408248 0.408248 -0.816497
0.201695 0.500000 -0.049153 128 128 255 0.408248 0.408248 -0.816497
0.187912 0.337363 -0.137363 128 128 255 0.408248 0.408248 -0.816497
0.177419 0.213548 -0.204516 128 128 255 0.408248 0.408248 -0.816497
0.169164 0.116138 -0.257349 128 128 255 -0.343730 -0.384280 -0.856842
0.162500 -0.300000 0.037500 128 128 255 -0.546851 -0.442812 -0.710543
0.085417 -0.222917 0.037500 128 128 255 0.577350 0.577350 0.577350
0.008333 -0.145833 0.037500 128 128 255 0.577350 0.577350 0.577350
-0.068750 -0.068750 0.037500 128 128 255 0.577350 0.577350 0.577350
-0.145833 0.008333 0.037500 128 128 255 0.577350 0.577350 0.577350
-0.222917 0.085417 0.037500 128 128 255 0.894282 -0.338174 -0.293084
0.037500 0.500000 0.037500 128 128 255 0.740048 -0.396125 -0.543520
0.037500 0.422917 0.114583 128 128 255 -0.577351 0.577350 0.577350
0.037500 0.345833 0.191667 128 128 255 -0.577350 0.577350 0.577350
0.037500 0.268750 0.268750 128 128 255 -0.577351 0.577350 0.577350
0.037500 0.191667 0.345833 128 128 255 -0.577350 0.577350 0.577350
0.037500 0.114583 0.422917 128 128 255 0.634668 -0.617288 0.464922
-0.591892 -0.591892 0.208108 128 128 255 0.780846 -0.623161 -0.044152
-0.458559 -0.458559 0.208108 128 128 255 -0.707107 0.707107 0.000000
-0.325225 -0.325225 0.208108 128 128 255 -0.707107 0.707107 0.000000
-0.191892 -0.191892 0.208108 128 128 255 -0.707107 0.707107 0.000000
-0.058559 -0.058559 0.208108 128 128 255 -0.707107 0.707107 0.000000
0.074775 0.074775 0.208108 128 128 255 -0.707107 0.707107 0.000000
0.791892 0.791892 0.208108 128 128 255 -0.707107 0.707107 0.000000
0.770270 0.770270 0.069730 128 128 255 0.707107 -0.707107 0.000000
0.737838 0.737838 -0.137838 128 128 255 0.707107 -0.707107 0.000000
0.683784 0.683784 -0.483784 128 128 255 0.707107 -0.707107 0.000000
0.575676 0.575676 -1.175676 128 128 255 0.707107 -0.707107 0.000000
0.251351 0.251351 -3.251351 128 128 255 -0.700720 0.001318 0.713435
-124.900002 -799.900024 -124.900002 128 128 255 -0.678759 -0.270008 0.682922
29.266666 -645.733337 -124.900002 128 128 255 0.577350 -0.577350 -0.577350
183.433334 -491.566681 -124.900002 128 128 255 0.577350 -0.577350 -0.577350
337.600006 -337.399994 -124.900002 128 128 255 0.577350 -0.577350 -0.577350
491.766663 -183.233337 -124.900002 128 128 255 0.577350 -0.577350 -0.577350
645.933350 -29.066668 -124.900002 128 128 255 0.894282 0.338174 0.293084
125.099998 800.099976 -124.900002 128 128 255 0.740048 0.396125 0.543520
125.099998 645.933350 29.266666 128 128 255 -0.577350 -0.577350 -0.577350
125.099998 491.766663 183.433334 128 128 255 -0.577350 -0.577350 -0.577350
125.099998 337.600006 337.600006 128 128 255 -0.577350 -0.577350 -0.577350
125.099998 183.433334 491.766663 128 128 255 -0.577350 -0.577350 -0.577350
125.099998 29.266666 645.933350 128 128 255 0.467009 0.674445 -0.571863
0.248148 -0.848148 0.248148 128 128 255 0.617518 0.771056 -0.155385
0.065432 -0.665432 0.248148 128 128 255 -0.707107 -0.707107 0.000000
-0.117284 -0.482716 0.248148 128 128 255 -0.707107 -0.707107 0.000000
-0.300000 -0.300000 0.248148 128 128 255 -0.707107 -0.707107 0.000000
-0.482716 -0.117284 0.248148 128 128 255 -0.707107 -0.707107 0.000000
-0.665432 0.065432 0.248148 128 128 255 -0.665679 0.244195 -0.705153
-0.048148 1.048148 0.248148 128 128 255 -0.565019 0.317309 -0.761622
-0.020603 0.723116 0.071859 128 128 255 0.408248 -0.408248 0.816497
-0.001695 0.500000 -0.049153 128 128 255 0.408248 -0.408248 0.816497
0.012088 0.337363 -0.137363 128 128 255 0.408248 -0.408248 0.816497
0.022581 0.213548 -0.204516 128 128 255 0.408248 -0.408248 0.816497
0.030836 0.116138 -0.257349 128 128 255 -0.343730 0.384280 0.856842
0.037500 -0.300000 0.037500 128 128 255 -0.554921 0.472394 0.684767
0.050000 -0.300000 0.050000 128 128 255 0.577350 -0.577350 -0.577350
0.125000 -0.225000 0.050000 128 128 255 0.577350 -0.577350 -0.577350
0.200000 -0.150000 0.050000 128 128 255 0.577350 -0.577350 -0.577350
0.275000 -0.075000 0.050000 128 128 255 0.577350 -0.577350 -0.577350
0.350000 0.000000 0.050000 128 128 255 0.577350 -0.577350 -0.577350
0.425000 0.075000 0.050000 128 128 255 0.882342 0.357312 0.306268
0.150000 0.500000 0.050000 128 128 255 0.730954 0.412258 0.543829
0.150000 0.425000 0.125000 128 128 255 -0.577350 -0.577350 -0.577350
0.150000 0.350000 0.200000 128 128 255 -0.577350 -0.577350 -0.577350
0.150000 0.275000 0.275000 128 128 255 -0.577350 -0.577350 -0.577350
0.150000 0.200000 0.350000 128 128 255 -0.577350 -0.577350 -0.577350
0.150000 0.125000 0.425000 128 128 255 0.649368 0.636495 -0.416167
0.811111 -0.611111 0.188889 128 128 255 0.775509 0.629894 0.042655
0.677778 -0.477778 0.188889 128 128 255 -0.707107 -0.707107 -0.000000
0.544444 -0.344444 0.188889 128 128 255 -0.707107 -0.707107 0.000000
0.411111 -0.211111 0.188889 128 128 255 -0.707107 -0.707107 0.000000
0.277778 -0.077778 0.188889 128 128 255 -0.707107 -0.707107 0.000000
0.144444 0.055556 0.188889 128 128 255 -0.707107 -0.707107 0.000000
-0.611111 0.811111 0.188889 128 128 255 -0.707107 -0.707107 -0.000000
-0.593333 0.793333 0.046667 128 128 255 0.707107 0.707107 0.000000
-0.566667 0.766667 -0.166667 128 128 255 0.707107 0.707107 -0.000000
-0.522222 0.722222 -0.522222 128 128 255 0.707107 0.707107 0.000000
-0.433333 0.633333 -1.233333 128 128 255 0.707107 0.707107 0.000000
-0.166667 0.366667 -3.366667 128 128 255 -0.700361 -0.001841 -0.713787
100.099998 -799.900024 -99.900002 128 128 255 -0.680604 0.260011 -0.684962
-49.900002 -649.900024 -99.900002 128 128 255 0.577350 0.577350 0.577350
-199.899994 -499.899994 -99.900002 128 128 255 0.577350 0.577350 0.577350
-349.899994 -349.899994 -99.900002 128 128 255 0.577350 0.577350 0.577350
-499.899994 -199.899994 -99.900002 128 128 255 0.577350 0.577350 0.577350
-649.900024 -49.900002 -99.900002 128 128 255 0.882342 -0.357312 -0.306268
-99.900002 800.099976 -99.900002 128 128 255 0.730954 -0.412258 -0.543829
-99.900002 650.099976 50.099998 128 128 255 -0.577350 0.577350 0.577350
-99.900002 500.100006 200.100006 128 128 255 -0.577350 0.577350 0.577350
-99.900002 350.100006 350.100006 128 128 255 -0.577350 0.577350 0.577350
-99.900002 200.100006 500.100006 128 128 255 -0.577350 0.577350 0.577350
-99.900002 50.099998 650.099976 128 128 255 0.474057 -0.680342 0.558932
-0.014286 -0.814286 0.214286 128 128 255 0.617492 -0.771087 0.155333
0.157143 -0.642857 0.214286 128 128 255 -0.707107 0.707107 0.000000
0.328571 -0.471429 0.214286 128 128 255 -0.707107 0.707107 0.000000
0.500000 -0.300000 0.214286 128 128 255 -0.707107 0.707107 -0.000000
0.671429 -0.128571 0.214286 128 128 255 -0.707107 0.707107 -0.000000
0.842857 0.042857 0.214286 128 128 255 -0.656040 -0.258689 0.709007
0.214286 1.014286 0.214286 128 128 255 -0.556885 -0.326461 0.763742
0.194118 0.711765 0.052941 128 128 255 0.408248 0.408248 -0.816497
0.180000 0.500000 -0.060000 128 128 255 0.408248 0.408248 -0.816497
0.169565 0.343478 -0.143478 128 128 255 0.408248 0.408248 -0.816497
0.161538 0.223077 -0.207692 128 128 255 0.408248 0.408248 -0.816497
0.155172 0.127586 -0.258621 128 128 255 -0.355045 -0.399633 -0.845125
0.150000 -0.300000 0.050000 128 128 255 -0.547227 -0.454800 -0.702638
0.075000 -0.225000 0.050000 128 128 255 0.577350 0.577350 0.577350
-0.000000 -0.150000 0.050000 128 128 255 0.577350 0.577350 0.577350
-0.075000 -0.075000 0.050000 128 128 255 0.577350 0.577350 0.577350
-0.150000 -0.000000 0.050000 128 128 255 0.577350 0.577350 0.577350
-0.225000 0.075000 0.050000 128 128 255 0.882342 -0.357312 -0.306267
0.050000 0.500000 0.050000 128 128 255 0.730954 -0.412258 -0.543830
0.050000 0.425000 0.125000 128 128 255 -0.577350 0.577350 0.577350
0.050000 0.350000 0.200000 128 128 255 -0.577350 0.577350 0.577350
0.050000 0.275000 0.275000 128 128 255 -0.577350 0.577350 0.577350
0.050000 0.200000 0.350000 128 128 255 -0.577350 0.577350 0.577350
0.050000 0.125000 0.425000 128 128 255 0.649368 -0.636495 0.416167
-0.611111 -0.611111 0.188889 128 128 255 0.775509 -0.629894 -0.042655
-0.477778 -0.477778 0.188889 128 128 255 -0.707107 0.707107 0.000000
-0.344444 -0.344444 0.188889 128 128 255 -0.707107 0.707107 0.000000
-0.211111 -0.211111 0.188889 128 128 255 -0.707107 0.707107 0.000000
-0.077778 -0.077778 0.188889 128 128 255 -0.707107 0.707107 0.000000
0.055556 0.055556 0.188889 128 128 255 -0.707107 0.707107 0.000000
0.811111 0.811111 0.188889 128 128 255 -0.707107 0.707107 0.000000
0.793333 0.793333 0.046667 128 128 255 0.707107 -0.707107 0.000000
0.766667 0.766667 -0.166667 128 128 255 0.707107 -0.707107 0.000000
0.722222 0.722222 -0.522222 128 128 255 0.707107 -0.707107 0.000000
0.633333 0.633333 -1.233333 128 128 255 0.707107 -0.707107 0.000000
0.366667 0.366667 -3.366667 128 128 255 -0.700361 0.001841 0.713787
-99.900002 -799.900024 -99.900002 128 128 255 -0.680604 -0.260011 0.684962
50.099998 -649.900024 -99.900002 128 128 255 0.577350 -0.577350 -0.577350
200.100006 -499.899994 -99.900002 128 128 255 0.577350 -0.577350 -0.577350
350.100006 -349.899994 -99.900002 128 128 255 0.577350 -0.577350 -0.577350
500.100006 -199.899994 -99.900002 128 128 255 0.577350 -0.577350 -0.577350
650.099976 -49.900002 -99.900002 128 128 255 0.882342 0.357312 0.306268
100.099998 800.099976 -99.900002 128 128 255 0.730953 0.412258 0.543830
100.099998 650.099976 50.099998 128 128 255 -0.577350 -0.577350 -0.577350
100.099998 500.100006 200.100006 128 128 255 -0.577350 -0.577350 -0.577350
100.099998 350.100006 350.100006 128 128 255 -0.577350 -0.577350 -0.577350
100.099998 200.100006 500.100006 128 128 255 -0.577350 -0.577350 -0.577350
100.099998 50.099998 650.099976 128 128 255 0.474057 0.680342 -0.558932
0.214286 -0.814286 0.214286 128 128 255 0.617492 0.771087 -0.155333
0.042857 -0.642857 0.214286 128 128 255 -0.707107 -0.707107 0.000000
-0.128571 -0.471429 0.214286 128 128 255 -0.707107 -0.707107 -0.000000
-0.300000 -0.300000 0.214286 128 128 255 -0.707107 -0.707107 -0.000000
-0.471429 -0.128571 0.214286 128 128 255 -0.707107 -0.707107 0.000000
-0.642857 0.042857 0.214286 128 128 255 -0.656040 0.258690 -0.709007
-0.014286 1.014286 0.214286 128 128 255 -0.556885 0.326461 -0.763742
0.005882 0.711765 0.052941 128 128 255 0.408248 -0.408248 0.816497
0.020000 0.500000 -0.060000 128 128 255 0.408248 -0.408248 0.816497
0.030435 0.343478 -0.143478 128 128 255 0.408248 -0.408248 0.816497
0.038462 0.223077 -0.207692 128 128 255 0.408248 -0.408248 0.816497
0.044828 0.127586 -0.258621 128 128 255 -0.355045 0.399633 0.845125
0.050000 -0.300000 0.050000 128 128 255 -0.554559 0.480175 0.679630
0.062500 -0.300000 0.062500 128 128 255 0.577350 -0.577350 -0.577350
0.135417 -0.227083 0.062500 128 128 255 0.577350 -0.577350 -0.577350
0.208333 -0.154167 0.062500 128 128 255 0.577350 -0.577350 -0.577350
0.281250 -0.081250 0.062500 128 128 255 0.577350 -0.577350 -0.577350
0.354167 -0.008333 0.062500 128 128 255 0.577350 -0.577350 -0.577350
0.427083 0.064583 0.062500 128 128 255 0.870547 0.375114 0.318493
0.137500 0.500000 0.062500 128 128 255 0.722475 0.426790 0.543949
0.137500 0.427083 0.135417 128 128 255 -0.577350 -0.577350 -0.577350
0.137500 0.354167 0.208333 128 128 255 -0.577350 -0.577350 -0.577350
0.137500 0.281250 0.281250 128 128 255 -0.577350 -0.577350 -0.577350
0.137500 0.208333 0.354167 128 128 255 -0.577350 -0.577350 -0.577350
0.137500 0.135417 0.427083 128 128 255 0.660593 0.651643 -0.372798
0.831429 -0.631429 0.168571 128 128 255 0.770629 0.635949 0.041229
0.698095 -0.498095 0.168571 128 128 255 -0.707107 -0.707107 -0.000000
0.564762 -0.364762 0.168571 128 128 255 -0.707107 -0.707107 -0.000000
0.431429 -0.231429 0.168571 128 128 255 -0.707107 -0.707107 0.000000
0.298095 -0.098095 0.168571 128 128 255 -0.707107 -0.707107 -0.000000
0.164762 0.035238 0.168571 128 128 255 -0.707107 -0.707107 0.000000
-0.631429 0.831429 0.168571 128 128 255 -0.707107 -0.707107 0.000000
-0.617714 0.817714 0.022286 128 128 255 0.707107 0.707107 -0.000000
-0.597143 0.797143 -0.197143 128 128 255 0.707107 0.707107 -0.000000
-0.562857 0.762857 -0.562857 128 128 255 0.707107 0.707107 0.000000
-0.494286 0.694286 -1.294286 128 128 255 0.707107 0.707107 -0.000000
-0.288571 0.488571 -3.488571 128 128 255 -0.699970 -0.002415 -0.714169
75.099998 -799.900024 -74.900002 128 128 255 -0.682343 0.250122 -0.686911
-70.733330 -654.066650 -74.900002 128 128 255 0.577350 0.577350 0.577350
-216.566666 -508.233337 -74.900002 128 128 255 0.577350 0.577350 0.577350
-362.399994 -362.399994 -74.900002 128 128 255 0.577350 0.577350 0.577350
-508.233337 -216.566666 -74.900002 128 128 255 0.577350 0.577350 0.577350
-654.066650 -70.733330 -74.900002 128 128 255 0.870547 -0.375114 -0.318493
-74.900002 800.099976 -74.900002 128 128 255 0.722475 -0.426790 -0.543949
-74.900002 654.266663 70.933334 128 128 255 -0.577350 0.577350 0.577350
-74.900002 508.433319 216.766663 128 128 255 -0.577350 0.577350 0.577350
-74.900002 362.600006 362.600006 128 128 255 -0.577350 0.577350 0.577350
-74.900002 216.766663 508.433319 128 128 255 -0.577350 0.577350 0.577350
-74.900002 70.933334 654.266663 128 128 255 0.480907 -0.686001 0.546015
0.017241 -0.782759 0.182759 128 128 255 0.617468 -0.771116 0.155286
0.178161 -0.621839 0.182759 128 128 255 -0.707107 0.707107 0.000000
0.339080 -0.460920 0.182759 128 128 255 -0.707107 0.707107 0.000000
0.500000 -0.300000 0.182759 128 128 255 -0.707107 0.707107 0.000000
0.660920 -0.139080 0.182759 128 128 255 -0.707107 0.707107 -0.000000
0.821839 0.021839 0.182759 128 128 255 -0.646795 -0.272230 0.712423
0.182759 0.982759 0.182759 128 128 255 -0.549325 -0.334817 0.765598
0.168900 0.700957 0.034928 128 128 255 0.408249 0.408248 -0.816496
0.159016 0.500000 -0.070492 128 128 255 0.408248 0.408248 -0.816497
0.151613 0.349462 -0.149462 128 128 255 0.408248 0.408248 -0.816497
0.145860 0.232484 -0.210828 128 128 255 0.408248 0.408248 -0.816497
0.141261 0.138968 -0.259885 128 128 255 -0.365545 -0.413940 -0.833685
0.137500 -0.300000 0.062500 128 128 255 -0.547471 -0.465595 -0.695339
0.064583 -0.227083 0.062500 128 128 255 0.577350 0.577350 0.577350
-0.008333 -0.154167 0.062500 128 128 255 0.577350 0.577350 0.577350
-0.081250 -0.081250 0.062500 128 128 255 0.577350 0.577350 0.577350
-0.154167 -0.008333 0.062500 128 128 255 0.577350 0.577350 0.577350
-0.227083 0.064583 0.062500 128 128 255 0.870547 -0.375114 -0.318493
0.062500 0.500000 0.062500 128 128 255 0.722475 -0.426790 -0.543948
0.062500 0.427083 0.135417 128 128 255 -0.577350 0.577350 0.577350
0.062500 0.354167 0.208333 128 128 255 -0.577350 0.577350 0.577350
0.062500 0.281250 0.281250 128 128 255 -0.577350 0.577350 0.577350
0.062500 0.208333 0.354167 128 128 255 -0.577350 0.577350 0.577350
0.062500 0.135417 0.427083 128 128 255 0.660593 -0.651643 0.372798
-0.631429 -0.631429 0.168571 128 128 255 0.770629 -0.635949 -0.041229
-0.498095 -0.498095 0.168571 128 128 255 -0.707107 0.707107 0.000000
-0.364762 -0.364762 0.168571 128 128 255 -0.707107 0.707107 0.000000
-0.231429 -0.231429 0.168571 128 128 255 -0.707107 0.707107 0.000000
-0.098095 -0.098095 0.168571 128 128 255 -0.707107 0.707107 0.000000
0.035238 0.035238 0.168571 128 128 255 -0.707107 0.707107 0.000000
0.831429 0.831429 0.168571 128 128 255 -0.707107 0.707107 0.000000
0.817714 0.817714 0.022286 128 128 255 0.707107 -0.707107 0.000000
0.797143 0.797143 -0.197143 128 128 255 0.707107 -0.707107 0.000000
0.762857 0.762857 -0.562857 128 128 255 0.707107 -0.707107 0.000000
0.694286 0.694286 -1.294286 128 128 255 0.707107 -0.707107 0.000000
0.488571 0.488571 -3.488571 128 128 255 -0.699970 0.002415 0.714169
-74.900002 -799.900024 -74.900002 128 128 255 -0.682343 -0.250122 0.686911
70.933334 -654.066650 -74.900002 128 128 255 0.577350 -0.577350 -0.577350
216.766663 -508.233337 -74.900002 128 128 255 0.577350 -0.577350 -0.577350
362.600006 -362.399994 -74.900002 128 128 255 0.577350 -0.577350 -0.577350
508.433319 -216.566666 -74.900002 128 128 255 0.577350 -0.577350 -0.577350
654.266663 -70.733330 -74.900002 128 128 255 0.870547 0.375114 0.318492
75.099998 800.099976 -74.900002 128 128 255 0.722475 0.426790 0.543948
75.099998 654.266663 70.933334 128 128 255 -0.577350 -0.577350 -0.577350
75.099998 508.433319 216.766663 128 128 255 -0.577350 -0.577350 -0.577350
75.099998 362.600006 362.600006 128 128 255 -0.577350 -0.577350 -0.577350
75.099998 216.766663 508.433319 128 128 255 -0.577350 -0.577350 -0.577350
75.099998 70.933334 654.266663 128 128 255 0.480907 0.686001 -0.546015
0.182759 -0.782759 0.182759 128 128 255 0.617468 0.771116 -0.155286
0.021839 -0.621839 0.182759 128 128 255 -0.707107 -0.707107 -0.000000
-0.139080 -0.460920 0.182759 128 128 255 -0.707107 -0.707107 0.000000
-0.300000 -0.300000 0.182759 128 128 255 -0.707107 -0.707107 -0.000000
-0.460920 -0.139080 0.182759 128 128 255 -0.707107 -0.707107 -0.000000
-0.621839 0.021839 0.182759 128 128 255 -0.646795 0.272230 -0.712423
0.017241 0.982759 0.182759 128 128 255 -0.549325 0.334817 -0.765598
0.031100 0.700957 0.034928 128 128 255 0.408249 -0.408248 0.816496
0.040984 0.500000 -0.070492 128 128 255 0.408248 -0.408248 0.816497
0.048387 0.349462 -0.149462 128 128 255 0.408248 -0.408248 0.816497
0.054140 0.232484 -0.210828 128 128 255 0.408248 -0.408248 0.816497
0.058739 0.138968 -0.259885 128 128 255 -0.365545 0.413940 0.833685
0.062500 -0.300000 0.062500 128 128 255 -0.554176 0.487392 0.674787
0.075000 -0.300000 0.075000 128 128 255 0.577350 -0.577350 -0.577350
0.145833 -0.229167 0.075000 128 128 255 0.577350 -0.577350 -0.577350
0.216667 -0.158333 0.075000 128 128 255 0.577350 -0.577350 -0.577350
0.287500 -0.087500 0.075000 128 128 255 0.577350 -0.577350 -0.577350
0.358333 -0.016667 0.075000 128 128 255 0.577350 -0.577350 -0.577350
0.429167 0.054167 0.075000 128 128 255 0.858949 0.391681 0.329837
0.125000 0.500000 0.075000 128 128 255 0.714565 0.439937 0.543923
0.125000 0.429167 0.145833 128 128 255 -0.577350 -0.577350 -0.577350
0.125000 0.358333 0.216667 128 128 255 -0.577350 -0.577350 -0.577350
0.125000 0.287500 0.287500 128 128 255 -0.577350 -0.577350 -0.577350
0.125000 0.216667 0.358333 128 128 255 -0.577350 -0.577350 -0.577350
0.125000 0.145833 0.429167 128 128 255 0.669187 0.663648 -0.334307
0.852941 -0.652941 0.147059 128 128 255 0.766153 0.641421 0.039862
0.719608 -0.519608 0.147059 128 128 255 -0.707107 -0.707107 0.000000
0.586275 -0.386275 0.147059 128 128 255 -0.707107 -0.707107 -0.000000
0.452941 -0.252941 0.147059 128 128 255 -0.707107 -0.707107 -0.000000
0.319608 -0.119608 0.147059 128 128 255 -0.707107 -0.707107 -0.000000
0.186275 0.013725 0.147059 128 128 255 -0.707107 -0.707107 -0.000000
-0.652941 0.852941 0.147059 128 128 255 -0.707107 -0.707107 -0.000000
-0.643529 0.843529 -0.003529 128 128 255 0.707107 0.707107 0.000000
-0.629412 0.829412 -0.229412 128 128 255 0.707107 0.707107 0.000000
-0.605882 0.805882 -0.605882 128 128 255 0.707107 0.707107 0.000000
-0.558824 0.758824 -1.358824 128 128 255 0.707107 0.707107 0.000000
-0.417647 0.617647 -3.617647 128 128 255 -0.699543 -0.003047 -0.714584
50.099998 -799.900024 -49.900002 128 128 255 -0.683979 0.240338 -0.688775
-91.566666 -658.233337 -49.900002 128 128 255 0.577350 0.577350 0.577351
-233.233337 -516.566650 -49.900002 128 128 255 0.577350 0.577350 0.577350
-374.899994 -374.899994 -49.900002 128 128 255 0.577350 0.577350 0.577350
-516.566650 -233.233337 -49.900002 128 128 255 0.577350 0.577350 0.577350
-658.233337 -91.566666 -49.900002 128 128 255 0.858949 -0.391681 -0.329836
-49.900002 800.099976 -49.900002 128 128 255 0.714565 -0.439937 -0.543922
-49.900002 658.433350 91.766670 128 128 255 -0.577350 0.577350 0.577350
-49.900002 516.766663 233.433334 128 128 255 -0.577350 0.577350 0.577350
-49.900002 375.100006 375.100006 128 128 255 -0.577350 0.577350 0.577350
-49.900002 233.433334 516.766663 128 128 255 -0.577350 0.577350 0.577350
-49.900002 91.766670 658.433350 128 128 255 0.487558 -0.691424 0.533123
0.046667 -0.753333 0.153333 128 128 255 0.617447 -0.771141 0.155245
0.197778 -0.602222 0.153333 128 128 255 -0.707107 0.707107 0.000000
0.348889 -0.451111 0.153333 128 128 255 -0.707107 0.707107 0.000000
0.500000 -0.300000 0.153333 128 128 255 -0.707107 0.707107 0.000000
0.651111 -0.148889 0.153333 128 128 255 -0.707107 0.707107 0.000000
0.802222 0.002222 0.153333 128 128 255 -0.637933 -0.284899 0.715454
0.153333 0.953333 0.153333 128 128 255 -0.542286 -0.342468 0.767229
0.144860 0.690654 0.017757 128 128 255 0.408248 0.408248 -0.816497
0.138710 0.500000 -0.080645 128 128 255 0.408248 0.408248 -0.816497
0.134043 0.355319 -0.155319 128 128 255 0.408248 0.408248 -0.816497
0.130380 0.241772 -0.213924 128 128 255 0.408248 0.408248 -0.816496
0.127429 0.150286 -0.261143 128 128 255 -0.375294 -0.427278 -0.822550
0.125000 -0.300000 0.075000 128 128 255 -0.547615 -0.475362 -0.688585
0.054167 -0.229167 0.075000 128 128 255 0.577350 0.577350 0.577350
-0.016667 -0.158333 0.075000 128 128 255 0.577350 0.577350 0.577350
-0.087500 -0.087500 0.075000 128 128 255 0.577350 0.577350 0.577350
-0.158333 -0.016667 0.075000 128 128 255 0.577350 0.577350 0.577350
-0.229167 0.054167 0.075000 128 128 255 0.858949 -0.391681 -0.329837
0.075000 0.500000 0.075000 128 128 255 0.714565 -0.439937 -0.543923
0.075000 0.429167 0.145833 128 128 255 -0.577350 0.577350 0.577350
0.075000 0.358333 0.216667 128 128 255 -0.577350 0.577350 0.577350
0.075000 0.287500 0.287500 128 128 255 -0.577350 0.577350 0.577350
0.075000 0.216667 0.358333 128 128 255 -0.577350 0.577350 0.577350
0.075000 0.145833 0.429167 128 128 255 0.669187 -0.663648 0.334306
-0.652941 -0.652941 0.147059 128 128 255 0.766152 -0.641421 -0.039862
-0.519608 -0.519608 0.147059 128 128 255 -0.707107 0.707107 0.000000
-0.386275 -0.386275 0.147059 128 128 255 -0.707107 0.707107 0.000000
-0.252941 -0.252941 0.147059 128 128 255 -0.707107 0.707107 0.000000
-0.119608 -0.119608 0.147059 128 128 255 -0.707107 0.707107 0.000000
0.013725 0.013725 0.147059 128 128 255 -0.707107 0.707107 0.000000
0.852941 0.852941 0.147059 128 128 255 -0.707107 0.707107 0.000000
0.843529 0.843529 -0.003529 128 128 255 0.707107 -0.707107 0.000000
0.829412 0.829412 -0.229412 128 128 255 0.707107 -0.707107 0.000000
0.805882 0.805882 -0.605882 128 128 255 0.707107 -0.707107 0.000000
0.758824 0.758824 -1.358824 128 128 255 0.707107 -0.707107 0.000000
0.617647 0.617647 -3.617647 128 128 255 -0.699543 0.003047 0.714584
-49.900002 -799.900024 -49.900002 128 128 255 -0.683979 -0.240338 0.688775
91.766670 -658.233337 -49.900002 128 128 255 0.577350 -0.577350 -0.577351
233.433334 -516.566650 -49.900002 128 128 255 0.577350 -0.577350 -0.577350
375.100006 -374.899994 -49.900002 128 128 255 0.577350 -0.577350 -0.577350
516.766663 -233.233337 -49.900002 128 128 255 0.577350 -0.577350 -0.577350
658.433350 -91.566666 -49.900002 128 128 255 0.858949 0.391681 0.329837
50.099998 800.099976 -49.900002 128 128 255 0.714565 0.439937 0.543922
50.099998 658.433350 91.766670 128 128 255 -0.577350 -0.577350 -0.577350
50.099998 516.766663 233.433334 128 128 255 -0.577350 -0.577350 -0.577350
50.099998 375.100006 375.100006 128 128 255 -0.577350 -0.577350 -0.577350
50.099998 233.433334 516.766663 128 128 255 -0.577350 -0.577350 -0.577350
50.099998 91.766670 658.433350 128 128 255 0.487558 0.691424 -0.533123
0.153333 -0.753333 0.153333 128 128 255 0.617447 0.771141 -0.155245
0.002222 -0.602222 0.153333 128 128 255 -0.707107 -0.707107 -0.000000
-0.148889 -0.451111 0.153333 128 128 255 -0.707107 -0.707107 -0.000000
-0.300000 -0.300000 0.153333 128 128 255 -0.707107 -0.707107 -0.000000
-0.451111 -0.148889 0.153333 128 128 255 -0.707107 -0.707107 -0.000000
-0.602222 0.002222 0.153333 128 128 255 -0.637933 0.284899 -0.715454
0.046667 0.953333 0.153333 128 128 255 -0.542286 0.342468 -0.767230
0.055140 0.690654 0.017757 128 128 255 0.408248 -0.408248 0.816497
0.061290 0.500000 -0.080645 128 128 255 0.408248 -0.408248 0.816497
0.065957 0.355319 -0.155319 128 128 255 0.408248 -0.408248 0.816497
0.069620 0.241772 -0.213924 128 128 255 0.408248 -0.408248 0.816497
0.072571 0.150286 -0.261143 128 128 255 -0.375294 0.427278 0.822550
0.075000 -0.300000 0.075000 128 128 255 -0.553781 0.494104 0.670215
0.087500 -0.300000 0.087500 128 128 255 0.577350 -0.577350 -0.577350
0.156250 -0.231250 0.087500 128 128 255 0.577350 -0.577350 -0.577350
0.225000 -0.162500 0.087500 128 128 255 0.577350 -0.577350 -0.577350
0.293750 -0.093750 0.087500 128 128 255 0.577350 -0.577350 -0.577350
0.362500 -0.025000 0.087500 128 128 255 0.577350 -0.577350 -0.577350
0.431250 0.043750 0.087500 128 128 255 0.847590 0.407110 0.340371
0.112500 0.500000 0.087500 128 128 255 0.707178 0.451879 0.543787
0.112500 0.431250 0.156250 128 128 255 -0.577350 -0.577350 -0.577350
0.112500 0.362500 0.225000 128 128 255 -0.577351 -0.577350 -0.577350
0.112500 0.293750 0.293750 128 128 255 -0.577351 -0.577350 -0.577350
0.112500 0.225000 0.362500 128 128 255 -0.577350 -0.577350 -0.577350
0.112500 0.156250 0.431250 128 128 255 0.675789 0.673214 -0.300153
0.875758 -0.675758 0.124242 128 128 255 0.762034 0.646389 0.038548
0.742424 -0.542424 0.124242 128 128 255 -0.707107 -0.707107 0.000000
0.609091 -0.409091 0.124242 128 128 255 -0.707107 -0.707107 0.000000
0.475758 -0.275758 0.124242 128 128 255 -0.707107 -0.707107 -0.000000
0.342424 -0.142424 0.124242 128 128 255 -0.707107 -0.707107 0.000000
0.209091 -0.009091 0.124242 128 128 255 -0.707107 -0.707107 0.000000
-0.675758 0.875758 0.124242 128 128 255 -0.707107 -0.707107 0.000000
-0.670909 0.870909 -0.030909 128 128 255 0.707107 0.707107 0.000000
-0.663636 0.863636 -0.263636 128 128 255 0.707107 0.707107 0.000000
-0.651515 0.851515 -0.651515 128 128 255 0.707107 0.707107 0.000000
-0.627273 0.827273 -1.427273 128 128 255 0.707107 0.707107 -0.000000
-0.554545 0.754545 -3.754545 128 128 255 -0.699077 -0.003743 -0.715036
25.100000 -799.900024 -24.900000 128 128 255 -0.685513 0.230657 -0.690557
-112.400002 -662.400024 -24.900000 128 128 255 0.577350 0.577350 0.577350
-249.899994 -524.900024 -24.900000 128 128 255 0.577350 0.577350 0.577350
-387.399994 -387.399994 -24.900000 128 128 255 0.577350 0.577350 0.577350
-524.900024 -249.899994 -24.900000 128 128 255 0.577350 0.577350 0.577350
-662.400024 -112.400002 -24.900000 128 128 255 0.847590 -0.407110 -0.340371
-24.900000 800.099976 -24.900000 128 128 255 0.707178 -0.451879 -0.543787
-24.900000 662.599976 112.599998 128 128 255 -0.577350 0.577350 0.577350
-24.900000 525.099976 250.100006 128 128 255 -0.577350 0.577350 0.577350
-24.900000 387.600006 387.600006 128 128 255 -0.577350 0.577350 0.577350
-24.900000 250.100006 525.099976 128 128 255 -0.577350 0.577350 0.577350
-24.900000 112.599998 662.599976 128 128 255 0.494012 -0.696616 0.520267
0.074194 -0.725806 0.125806 128 128 255 0.617428 -0.771164 0.155208
0.216129 -0.583871 0.125806 128 128 255 -0.707107 0.707107 -0.000000
0.358065 -0.441935 0.125806 128 128 255 -0.707107 0.707107 -0.000000
0.500000 -0.300000 0.125806 128 128 255 -0.707107 0.707107 -0.000000
0.641935 -0.158065 0.125806 128 128 255 -0.707107 0.707107 0.000000
0.783871 -0.016129 0.125806 128 128 255 -0.629440 -0.296767 0.718147
0.125806 0.925806 0.125806 128 128 255 -0.535724 -0.349493 0.768670
0.121918 0.680822 0.001370 128 128 255 0.408248 0.408248 -0.816497
0.119048 0.500000 -0.090476 128 128 255 0.408248 0.408248 -0.816497
0.116842 0.361053 -0.161053 128 128 255 0.408248 0.408248 -0.816497
0.115094 0.250943 -0.216981 128 128 255 0.408248 0.408248 -0.816497
0.113675 0.161538 -0.262393 128 128 255 -0.384351 -0.439721 -0.811739
0.112500 -0.300000 0.087500 128 128 255 -0.547679 -0.484237 -0.682322
0.043750 -0.231250 0.087500 128 128 255 0.577350 0.577350 0.577350
-0.025000 -0.162500 0.087500 128 128 255 0.577350 0.577350 0.577350
-0.093750 -0.093750 0.087500 128 128 255 0.577350 0.577350 0.577350
-0.162500 -0.025000 0.087500 128 128 255 0.577350 0.577350 0.577350
-0.231250 0.043750 0.087500 128 128 255 0.847590 -0.407110 -0.340371
0.087500 0.500000 0.087500 128 128 255 0.707178 -0.451879 -0.543787
0.087500 0.431250 0.156250 128 128 255 -0.577350 0.577350 0.577350
0.087500 0.362500 0.225000 128 128 255 -0.577351 0.577350 0.577350
0.087500 0.293750 0.293750 128 128 255 -0.577351 0.577350 0.577350
0.087500 0.225000 0.362500 128 128 255 -0.577350 0.577350 0.577350
0.087500 0.156250 0.431250 128 128 255 0.675789 -0.673214 0.300153
-0.675758 -0.675758 0.124242 128 128 255 0.762034 -0.646389 -0.038549
-0.542424 -0.542424 0.124242 128 128 255 -0.707107 0.707107 0.000000
-0.409091 -0.409091 0.124242 128 128 255 -0.707107 0.707107 0.000000
-0.275758 -0.275758 0.124242 128 128 255 -0.707107 0.707107 0.000000
-0.142424 -0.142424 0.124242 128 128 255 -0.707107 0.707107 0.000000
-0.009091 -0.009091 0.124242 128 128 255 -0.707107 0.707107 0.000000
0.875758 0.875758 0.124242 128 128 255 -0.707107 0.707107 0.000000
0.870909 0.870909 -0.030909 128 128 255 0.707107 -0.707107 0.000000
0.863636 0.863636 -0.263636 128 128 255 0.707107 -0.707107 0.000000
0.851515 0.851515 -0.651515 128 128 255 0.707107 -0.707107 0.000000
0.827273 0.827273 -1.427273 128 128 255 0.707107 -0.707107 0.000000
0.754545 0.754545 -3.754545 128 128 255 -0.699077 0.003743 0.715036
-24.900000 -799.900024 -24.900000 128 128 255 -0.685513 -0.230657 0.690557
112.599998 -662.400024 -24.900000 128 128 255 0.577350 -0.577350 -0.577350
250.100006 -524.900024 -24.900000 128 128 255 0.577350 -0.577350 -0.577350
387.600006 -387.399994 -24.900000 128 128 255 0.577350 -0.577350 -0.577351
525.099976 -249.899994 -24.900000 128 128 255 0.577350 -0.577350 -0.577350
662.599976 -112.400002 -24.900000 128 128 255 0.847590 0.407110 0.340371
25.100000 800.099976 -24.900000 128 128 255 0.707178 0.451879 0.543787
25.100000 662.599976 112.599998 128 128 255 -0.577350 -0.577350 -0.577350
25.100000 525.099976 250.100006 128 128 255 -0.577350 -0.577350 -0.577350
