ply
format ascii 1.0
element vertex 693
property float x
property float y
property float z
property uchar red
property uchar green
property uchar blue
property float nx
property float ny
property float nz
end_header
0.535427 -1.038788 0.973823 128 128 255 0.290233 -0.759252 0.582496
0.488229 -1.049481 0.982028 128 128 255 0.258773 -0.766372 0.587971
0.440614 -1.058943 0.989288 128 128 255 0.227036 -0.772673 0.592817
0.392635 -1.067164 0.995596 128 128 255 0.195056 -0.778146 0.597027
0.344343 -1.074135 1.000946 128 128 255 0.162866 -0.782787 0.600599
0.295789 -1.079849 1.005330 128 128 255 0.130503 -0.786590 0.603528
0.247026 -1.084300 1.008745 128 128 255 0.098000 -0.789550 0.605810
0.198105 -1.087482 1.011187 128 128 255 0.065391 -0.791666 0.607445
0.149079 -1.089393 1.012653 128 128 255 0.032713 -0.792934 0.608429
0.100000 -1.090030 1.013142 128 128 255 -0.000000 -0.793353 0.608761
0.050921 -1.089393 1.012653 128 128 255 -0.032712 -0.792924 0.608442
0.001895 -1.087482 1.011187 128 128 255 -0.065392 -0.791644 0.607473
-0.047026 -1.084300 1.008745 128 128 255 -0.098000 -0.789518 0.605852
-0.095789 -1.079849 1.005330 128 128 255 -0.130503 -0.786547 0.603583
-0.144343 -1.074135 1.000946 128 128 255 -0.162866 -0.782734 0.600668
-0.192635 -1.067164 0.995596 128 128 255 -0.195056 -0.778083 0.597110
-0.240614 -1.058943 0.989288 128 128 255 -0.227036 -0.772599 0.592913
-0.288229 -1.049481 0.982028 128 128 255 -0.258773 -0.766288 0.588081
-0.335427 -1.038788 0.973823 128 128 255 -0.290233 -0.759157 0.582619
-0.382159 -1.026875 0.964682 128 128 255 -0.321382 -0.751213 0.576535
-0.428375 -1.013756 0.954615 128 128 255 -0.352187 -0.742465 0.569833
-0.474025 -0.999444 0.943633 128 128 255 -0.382615 -0.732923 0.562521
-0.519061 -0.983955 0.931748 128 128 255 -0.412633 -0.722596 0.554607
-0.563433 -0.967305 0.918972 128 128 255 -0.442210 -0.711496 0.546099
-0.607095 -0.949513 0.905319 128 128 255 -0.471313 -0.699634 0.537007
-0.650000 -0.930596 0.890804 128 128 255 -0.499911 -0.687024 0.527340
-0.692102 -0.910576 0.875442 128 128 255 -0.527973 -0.673678 0.517109
-0.733355 -0.889474 0.859250 128 128 255 -0.555471 -0.659611 0.506325
-0.773717 -0.867312 0.842245 128 128 255 -0.582374 -0.644839 0.494999
-0.813142 -0.844114 0.824444 128 128 255 -0.608653 -0.629376 0.483143
-0.851590 -0.819906 0.805868 128 128 255 -0.634280 -0.613241 0.470770
-0.889019 -0.794712 0.786537 128 128 255 -0.659228 -0.596449 0.457894
-0.925388 -0.768560 0.766470 128 128 255 -0.683471 -0.579019 0.444528
-0.960660 -0.741478 0.745689 128 128 255 -0.706981 -0.560970 0.430686
-0.994796 -0.713495 0.724217 128 128 255 -0.729734 -0.542322 0.416384
-1.027760 -0.684641 0.702076 128 128 255 -0.751705 -0.523093 0.401637
-1.059516 -0.654947 0.679291 128 128 255 -0.772873 -0.503305 0.386461
-1.090030 -0.624444 0.655886 128 128 255 -0.793212 -0.482980 0.370872
-1.119270 -0.593166 0.631885 128 128 255 -0.812701 -0.462139 0.354886
-1.147204 -0.561145 0.607315 128 128 255 -0.831321 -0.440804 0.338522
-1.173803 -0.528417 0.582201 128 128 255 -0.849050 -0.419000 0.321796
-1.199038 -0.495015 0.556571 128 128 255 -0.865871 -0.396748 0.304727
-1.222882 -0.460976 0.530452 128 128 255 -0.881764 -0.374074 0.287334
-1.245309 -0.426337 0.503872 128 128 255 -0.896712 -0.351003 0.269636
-1.266296 -0.391134 0.476860 128 128 255 -0.910701 -0.327559 0.251652
-1.285819 -0.355405 0.449444 128 128 255 -0.923715 -0.303768 0.233401
-1.303859 -0.319188 0.421654 128 128 255 -0.935739 -0.279659 0.214905
-1.320395 -0.282523 0.393520 128 128 255 -0.946761 -0.255256 0.196184
-1.335410 -0.245447 0.365071 128 128 255 -0.956769 -0.230589 0.177260
-1.348889 -0.208002 0.336339 128 128 255 -0.965753 -0.205689 0.158156
-1.360816 -0.170228 0.307353 128 128 255 -0.973703 -0.180584 0.138896
-1.371178 -0.132163 0.278145 128 128 255 -0.980610 -0.155313 0.119507
-1.379965 -0.093851 0.248747 128 128 255 -0.986467 -0.129919 0.100024
-1.387167 -0.055330 0.219189 128 128 255 -0.991267 -0.104459 0.080489
-1.392777 -0.016643 0.189504 128 128 255 -0.995005 -0.079030 0.060978
-1.396788 0.022168 0.159722 128 128 255 -0.997677 -0.053881 0.041681
-1.399197 0.061063 0.129877 128 128 255 -0.999271 -0.030125 0.023453
-1.400000 0.099961 0.100030 128 128 255 -0.999866 -0.012831 0.010183
1.600000 0.100000 0.100000 128 128 255 0.999866 -0.013455 0.009313
1.599197 0.060107 0.128587 128 128 255 0.999271 -0.031181 0.022015
1.596788 0.020256 0.157144 128 128 255 0.997677 -0.055527 0.039461
1.592777 -0.019509 0.185639 128 128 255 0.995005 -0.081295 0.057927
1.587167 -0.059147 0.214043 128 128 255 0.991267 -0.107345 0.076596
1.579965 -0.098614 0.242324 128 128 255 0.986467 -0.133429 0.095289
1.571178 -0.137868 0.270454 128 128 255 0.980610 -0.159447 0.113935
1.560815 -0.176867 0.298400 128 128 255 0.973703 -0.185337 0.132490
1.548889 -0.215570 0.326134 128 128 255 0.965753 -0.211054 0.150921
1.535411 -0.253935 0.353627 128 128 255 0.956769 -0.236564 0.169204
1.520395 -0.291921 0.380847 128 128 255 0.946761 -0.261833 0.187315
1.503859 -0.329488 0.407767 128 128 255 0.935739 -0.286831 0.205232
1.485819 -0.366594 0.434357 128 128 255 0.923714 -0.311531 0.222936
1.466296 -0.403201 0.460589 128 128 255 0.910701 -0.335901 0.240403
1.445309 -0.439269 0.486435 128 128 255 0.896712 -0.359917 0.257617
1.422882 -0.474760 0.511867 128 128 255 0.881763 -0.383551 0.274558
1.399038 -0.509635 0.536858 128 128 255 0.865871 -0.406776 0.291206
1.373803 -0.543857 0.561382 128 128 255 0.849051 -0.429568 0.307545
1.347204 -0.577390 0.585411 128 128 255 0.831321 -0.451903 0.323556
1.319270 -0.610198 0.608920 128 128 255 0.812701 -0.473756 0.339221
1.290030 -0.642245 0.631885 128 128 255 0.793212 -0.495104 0.354525
1.259516 -0.673497 0.654280 128 128 255 0.772873 -0.515921 0.369449
1.227760 -0.703921 0.676081 128 128 255 0.751706 -0.536189 0.383980
1.194796 -0.733484 0.697266 128 128 255 0.729734 -0.555883 0.398100
1.160660 -0.762154 0.717811 128 128 255 0.706981 -0.574982 0.411794
1.125389 -0.789901 0.737694 128 128 255 0.683470 -0.593467 0.425047
1.089019 -0.816696 0.756895 128 128 255 0.659228 -0.611317 0.437846
1.051590 -0.842508 0.775392 128 128 255 0.634280 -0.628514 0.450178
1.013142 -0.867312 0.793166 128 128 255 0.608653 -0.645037 0.462027
0.973717 -0.891080 0.810198 128 128 255 0.582374 -0.660871 0.473381
0.933355 -0.913786 0.826469 128 128 255 0.555471 -0.675998 0.484230
0.892102 -0.935407 0.841962 128 128 255 0.527974 -0.690401 0.494560
0.850000 -0.955919 0.856661 128 128 255 0.499911 -0.704066 0.504361
0.807095 -0.975300 0.870549 128 128 255 0.471313 -0.716977 0.513623
0.763433 -0.993530 0.883613 128 128 255 0.442210 -0.729121 0.522335
0.719061 -1.010589 0.895837 128 128 255 0.412633 -0.740484 0.530487
0.674025 -1.026459 0.907209 128 128 255 0.382615 -0.751055 0.538072
0.628375 -1.041122 0.917717 128 128 255 0.352187 -0.760822 0.545082
0.582159 -1.054564 0.927348 128 128 255 0.321382 -0.769775 0.551508
0.535427 -1.066769 0.936095 128 128 255 0.290233 -0.777904 0.557343
0.488229 -1.077724 0.943945 128 128 255 0.258773 -0.785200 0.562581
0.440614 -1.087419 0.950892 128 128 255 0.227036 -0.791656 0.567218
0.392635 -1.095842 0.956928 128 128 255 0.195056 -0.797264 0.571247
0.344343 -1.102985 0.962047 128 128 255 0.162866 -0.802019 0.574666
0.295789 -1.108839 0.966242 128 128 255 0.130502 -0.805915 0.577468
0.247026 -1.113399 0.969509 128 128 255 0.098000 -0.808949 0.579653
0.198105 -1.116660 0.971846 128 128 255 0.065391 -0.811117 0.581217
0.149079 -1.118617 0.973249 128 128 255 0.032713 -0.812417 0.582159
0.100000 -1.119270 0.973717 128 128 255 -0.000000 -0.812847 0.582478
0.050921 -1.118617 0.973249 128 128 255 -0.032713 -0.812406 0.582173
0.001895 -1.116660 0.971846 128 128 255 -0.065391 -0.811097 0.581245
-0.047026 -1.113399 0.969509 128 128 255 -0.098000 -0.808919 0.579695
-0.095789 -1.108839 0.966242 128 128 255 -0.130503 -0.805874 0.577525
-0.144343 -1.102985 0.962047 128 128 255 -0.162867 -0.801968 0.574736
-0.192635 -1.095842 0.956928 128 128 255 -0.195056 -0.797203 0.571332
-0.240614 -1.087419 0.950892 128 128 255 -0.227036 -0.791585 0.567317
-0.288229 -1.077724 0.943945 128 128 255 -0.258773 -0.785119 0.562694
-0.335427 -1.066769 0.936095 128 128 255 -0.290233 -0.777813 0.557469
-0.382159 -1.054564 0.927348 128 128 255 -0.321382 -0.769675 0.551647
-0.428375 -1.041122 0.917717 128 128 255 -0.352187 -0.760712 0.545235
-0.474025 -1.026459 0.907209 128 128 255 -0.382615 -0.750936 0.538239
-0.519061 -1.010589 0.895837 128 128 255 -0.412633 -0.740355 0.530667
-0.563433 -0.993530 0.883613 128 128 255 -0.442210 -0.728983 0.522527
-0.607095 -0.975300 0.870549 128 128 255 -0.471313 -0.716830 0.513828
-0.650000 -0.955919 0.856661 128 128 255 -0.499911 -0.703910 0.504579
-0.692102 -0.935407 0.841962 128 128 255 -0.527973 -0.690237 0.494790
-0.733355 -0.913786 0.826469 128 128 255 -0.555471 -0.675825 0.484472
-0.773717 -0.891080 0.810198 128 128 255 -0.582374 -0.660689 0.473635
-0.813142 -0.867312 0.793166 128 128 255 -0.608653 -0.644847 0.462292
-0.851590 -0.842508 0.775392 128 128 255 -0.634280 -0.628316 0.450454
-0.889019 -0.816696 0.756895 128 128 255 -0.659228 -0.611112 0.438133
-0.925388 -0.789901 0.737694 128 128 255 -0.683470 -0.593254 0.425345
-0.960660 -0.762154 0.717811 128 128 255 -0.706981 -0.574762 0.412101
-0.994796 -0.733484 0.697266 128 128 255 -0.729734 -0.555655 0.398417
-1.027760 -0.703921 0.676081 128 128 255 -0.751706 -0.535954 0.384307
-1.059516 -0.673497 0.654280 128 128 255 -0.772872 -0.515681 0.369786
-1.090030 -0.642245 0.631885 128 128 255 -0.793212 -0.494856 0.354870
-1.119270 -0.610198 0.608920 128 128 255 -0.812701 -0.473503 0.339575
-1.147204 -0.577390 0.585411 128 128 255 -0.831321 -0.451644 0.323917
-1.173803 -0.543857 0.561382 128 128 255 -0.849050 -0.429304 0.307915
-1.199038 -0.509635 0.536858 128 128 255 -0.865871 -0.406506 0.291583
-1.222882 -0.474760 0.511867 128 128 255 -0.881764 -0.383275 0.274941
-1.245309 -0.439269 0.486435 128 128 255 -0.896712 -0.359637 0.258008
-1.266296 -0.403201 0.460589 128 128 255 -0.910701 -0.335617 0.240800
-1.285819 -0.366594 0.434357 128 128 255 -0.923715 -0.311242 0.223337
-1.303859 -0.329488 0.407767 128 128 255 -0.935739 -0.286540 0.205640
-1.320395 -0.291921 0.380847 128 128 255 -0.946761 -0.261538 0.187727
-1.335410 -0.253935 0.353627 128 128 255 -0.956769 -0.236265 0.169620
-1.348889 -0.215570 0.326134 128 128 255 -0.965753 -0.210753 0.151342
-1.360816 -0.176867 0.298400 128 128 255 -0.973703 -0.185032 0.132913
-1.371178 -0.137868 0.270454 128 128 255 -0.980610 -0.159140 0.114361
-1.379965 -0.098614 0.242324 128 128 255 -0.986467 -0.133123 0.095719
-1.387167 -0.059147 0.214043 128 128 255 -0.991267 -0.107036 0.077028
-1.392777 -0.019509 0.185639 128 128 255 -0.995005 -0.080983 0.058359
-1.396788 0.020256 0.157144 128 128 255 -0.997677 -0.055216 0.039896
-1.399197 0.060107 0.128587 128 128 255 -0.999271 -0.030877 0.022455
-1.400000 0.099960 0.100029 128 128 255 -0.999866 -0.013157 0.009757
1.600000 0.100000 0.100000 128 128 255 0.999866 -0.013753 0.008867
1.599197 0.059193 0.127267 128 128 255 0.999271 -0.031884 0.020983
1.596788 0.018429 0.154504 128 128 255 0.997677 -0.056788 0.037623
1.592777 -0.022247 0.181683 128 128 255 0.995005 -0.083146 0.055236
1.587167 -0.062793 0.208775 128 128 255 0.991267 -0.109794 0.073043
1.579965 -0.103164 0.235750 128 128 255 0.986467 -0.136476 0.090872
1.571178 -0.143318 0.262580 128 128 255 0.980610 -0.163089 0.108657
1.560815 -0.183211 0.289235 128 128 255 0.973703 -0.189572 0.126355
1.548889 -0.222800 0.315688 128 128 255 0.965753 -0.215878 0.143934
1.535411 -0.262044 0.341910 128 128 255 0.956769 -0.241973 0.161373
1.520395 -0.300901 0.367873 128 128 255 0.946761 -0.267822 0.178648
1.503859 -0.339328 0.393549 128 128 255 0.935739 -0.293393 0.195738
1.485819 -0.377284 0.418911 128 128 255 0.923714 -0.318658 0.212623
1.466296 -0.414730 0.443932 128 128 255 0.910701 -0.343587 0.229284
1.445309 -0.451624 0.468584 128 128 255 0.896712 -0.368153 0.245703
1.422882 -0.487928 0.492841 128 128 255 0.881763 -0.392329 0.261862
1.399038 -0.523602 0.516678 128 128 255 0.865871 -0.416086 0.277741
1.373803 -0.558609 0.540068 128 128 255 0.849051 -0.439401 0.293325
1.347204 -0.592910 0.562987 128 128 255 0.831321 -0.462248 0.308596
1.319270 -0.626469 0.585411 128 128 255 0.812701 -0.484602 0.323539
1.290030 -0.659250 0.607315 128 128 255 0.793212 -0.506438 0.338136
1.259516 -0.691218 0.628675 128 128 255 0.772873 -0.527733 0.352371
1.227760 -0.722339 0.649469 128 128 255 0.751706 -0.548465 0.366230
1.194796 -0.752579 0.669675 128 128 255 0.729734 -0.568611 0.379698
1.160660 -0.781907 0.689271 128 128 255 0.706981 -0.588148 0.392760
1.125389 -0.810290 0.708236 128 128 255 0.683470 -0.607056 0.405402
1.089019 -0.837698 0.726550 128 128 255 0.659228 -0.625316 0.417610
1.051590 -0.864102 0.744192 128 128 255 0.634280 -0.642906 0.429372
1.013142 -0.889474 0.761145 128 128 255 0.608653 -0.659809 0.440674
0.973717 -0.913786 0.777390 128 128 255 0.582374 -0.676006 0.451505
0.933355 -0.937013 0.792910 128 128 255 0.555471 -0.691480 0.461853
0.892102 -0.959129 0.807687 128 128 255 0.527974 -0.706213 0.471706
0.850000 -0.980111 0.821707 128 128 255 0.499911 -0.720191 0.481056
0.807095 -0.999936 0.834954 128 128 255 0.471313 -0.733398 0.489889
0.763433 -1.018584 0.847414 128 128 255 0.442210 -0.745821 0.498199
0.719061 -1.036033 0.859073 128 128 255 0.412633 -0.757445 0.505976
0.674025 -1.052267 0.869920 128 128 255 0.382615 -0.768259 0.513210
0.628375 -1.067266 0.879942 128 128 255 0.352188 -0.778250 0.519895
0.582159 -1.081015 0.889129 128 128 255 0.321382 -0.787408 0.526025
0.535427 -1.093500 0.897471 128 128 255 0.290233 -0.795723 0.531592
0.488229 -1.104707 0.904959 128 128 255 0.258773 -0.803187 0.536589
0.440614 -1.114624 0.911586 128 128 255 0.227036 -0.809791 0.541012
0.392635 -1.123240 0.917343 128 128 255 0.195056 -0.815528 0.544855
0.344343 -1.130546 0.922225 128 128 255 0.162867 -0.820392 0.548116
0.295789 -1.136534 0.926226 128 128 255 0.130502 -0.824378 0.550790
0.247026 -1.141199 0.929343 128 128 255 0.098000 -0.827482 0.552874
0.198105 -1.144534 0.931571 128 128 255 0.065392 -0.829700 0.554366
0.149079 -1.146537 0.932909 128 128 255 0.032713 -0.831029 0.555266
0.100000 -1.147204 0.933355 128 128 255 0.000000 -0.831470 0.555570
0.050921 -1.146537 0.932909 128 128 255 -0.032713 -0.831020 0.555280
0.001895 -1.144534 0.931571 128 128 255 -0.065392 -0.829680 0.554396
-0.047026 -1.141199 0.929343 128 128 255 -0.098000 -0.827453 0.552918
-0.095789 -1.136534 0.926226 128 128 255 -0.130502 -0.824340 0.550848
-0.144343 -1.130546 0.922225 128 128 255 -0.162867 -0.820344 0.548189
-0.192635 -1.123240 0.917343 128 128 255 -0.195056 -0.815470 0.544943
-0.240614 -1.114624 0.911586 128 128 255 -0.227036 -0.809723 0.541113
-0.288229 -1.104707 0.904959 128 128 255 -0.258773 -0.803110 0.536704
-0.335427 -1.093500 0.897471 128 128 255 -0.290233 -0.795637 0.531721
-0.382159 -1.081015 0.889129 128 128 255 -0.321383 -0.787312 0.526169
-0.428375 -1.067266 0.879942 128 128 255 -0.352187 -0.778145 0.520053
-0.474025 -1.052267 0.869920 128 128 255 -0.382615 -0.768145 0.513381
-0.519061 -1.036033 0.859073 128 128 255 -0.412633 -0.757322 0.506159
-0.563433 -1.018584 0.847414 128 128 255 -0.442210 -0.745689 0.498396
-0.607095 -0.999936 0.834954 128 128 255 -0.471313 -0.733258 0.490099
-0.650000 -0.980111 0.821707 128 128 255 -0.499911 -0.720042 0.481278
-0.692102 -0.959129 0.807687 128 128 255 -0.527973 -0.706056 0.471942
-0.733355 -0.937013 0.792910 128 128 255 -0.555471 -0.691314 0.462100
-0.773717 -0.913786 0.777390 128 128 255 -0.582374 -0.675833 0.451764
-0.813142 -0.889474 0.761145 128 128 255 -0.608653 -0.659628 0.440945
-0.851590 -0.864102 0.744192 128 128 255 -0.634280 -0.642718 0.429654
-0.889019 -0.837698 0.726550 128 128 255 -0.659228 -0.625120 0.417904
-0.925388 -0.810290 0.708236 128 128 255 -0.683470 -0.606853 0.405706
-0.960660 -0.781907 0.689271 128 128 255 -0.706981 -0.587937 0.393075
-0.994796 -0.752579 0.669675 128 128 255 -0.729734 -0.568393 0.380023
-1.027760 -0.722339 0.649469 128 128 255 -0.751705 -0.548242 0.366565
-1.059516 -0.691218 0.628675 128 128 255 -0.772873 -0.527503 0.352715
-1.090030 -0.659250 0.607315 128 128 255 -0.793211 -0.506202 0.338489
-1.119270 -0.626469 0.585411 128 128 255 -0.812701 -0.484360 0.323901
-1.147204 -0.592910 0.562987 128 128 255 -0.831321 -0.462001 0.308967
-1.173803 -0.558609 0.540068 128 128 255 -0.849050 -0.439149 0.293704
-1.199038 -0.523602 0.516678 128 128 255 -0.865871 -0.415828 0.278126
-1.222882 -0.487928 0.492841 128 128 255 -0.881764 -0.392065 0.262254
-1.245309 -0.451624 0.468584 128 128 255 -0.896712 -0.367886 0.246103
-1.266296 -0.414730 0.443932 128 128 255 -0.910701 -0.343316 0.229690
-1.285819 -0.377284 0.418911 128 128 255 -0.923715 -0.318383 0.213034
-1.303859 -0.339328 0.393549 128 128 255 -0.935739 -0.293115 0.196155
-1.320395 -0.300901 0.367873 128 128 255 -0.946761 -0.267540 0.179070
-1.335410 -0.262044 0.341910 128 128 255 -0.956769 -0.241688 0.161799
-1.348889 -0.222800 0.315688 128 128 255 -0.965753 -0.215592 0.144365
-1.360816 -0.183211 0.289235 128 128 255 -0.973703 -0.189282 0.126788
-1.371178 -0.143318 0.262580 128 128 255 -0.980610 -0.162797 0.109093
-1.379965 -0.103164 0.235750 128 128 255 -0.986467 -0.136183 0.091312
-1.387167 -0.062793 0.208775 128 128 255 -0.991267 -0.109499 0.073484
-1.392777 -0.022247 0.181683 128 128 255 -0.995005 -0.082849 0.055678
-1.396788 0.018429 0.154504 128 128 255 -0.997677 -0.056492 0.038068
-1.399197 0.059193 0.127267 128 128 255 -0.999271 -0.031595 0.021433
-1.400000 0.099959 0.100027 128 128 255 -0.999866 -0.013469 0.009321
1.600000 0.100000 0.100000 128 128 255 0.999866 -0.014036 0.008413
1.599197 0.058322 0.125917 128 128 255 0.999271 -0.032554 0.019928
1.596788 0.016689 0.151806 128 128 255 0.997677 -0.057989 0.035745
1.592777 -0.024855 0.177640 128 128 255 0.995005 -0.084909 0.052486
1.587167 -0.066265 0.203390 128 128 255 0.991267 -0.112125 0.069411
1.579965 -0.107497 0.229030 128 128 255 0.986467 -0.139376 0.086358
1.571178 -0.148507 0.254531 128 128 255 0.980610 -0.166557 0.103263
1.560815 -0.189250 0.279868 128 128 255 0.973703 -0.193605 0.120084
1.548889 -0.229685 0.305011 128 128 255 0.965753 -0.220472 0.136794
1.535411 -0.269766 0.329935 128 128 255 0.956769 -0.247124 0.153369
1.520395 -0.309451 0.354613 128 128 255 0.946761 -0.273524 0.169789
1.503859 -0.348697 0.379018 128 128 255 0.935739 -0.299640 0.186033
1.485819 -0.387463 0.403124 128 128 255 0.923714 -0.325445 0.202083
1.466296 -0.425708 0.426906 128 128 255 0.910701 -0.350905 0.217920
1.445309 -0.463389 0.450338 128 128 255 0.896712 -0.375995 0.233526
1.422882 -0.500467 0.473394 128 128 255 0.881764 -0.400686 0.248884
1.399038 -0.536902 0.496051 128 128 255 0.865871 -0.424951 0.263978
1.373803 -0.572655 0.518283 128 128 255 0.849051 -0.448763 0.278791
1.347204 -0.607687 0.540068 128 128 255 0.831321 -0.472098 0.293307
1.319270 -0.641962 0.561382 128 128 255 0.812701 -0.494928 0.307510
1.290030 -0.675442 0.582201 128 128 255 0.793212 -0.517231 0.321385
1.259516 -0.708092 0.602504 128 128 255 0.772873 -0.538980 0.334916
1.227760 -0.739877 0.622269 128 128 255 0.751706 -0.560154 0.348089
1.194796 -0.770762 0.641475 128 128 255 0.729733 -0.580730 0.360891
1.160660 -0.800715 0.660101 128 128 255 0.706981 -0.600683 0.373306
1.125389 -0.829703 0.678127 128 128 255 0.683470 -0.619996 0.385323
1.089019 -0.857696 0.695534 128 128 255 0.659228 -0.638645 0.396927
1.051590 -0.884663 0.712303 128 128 255 0.634280 -0.656611 0.408107
1.013142 -0.910576 0.728417 128 128 255 0.608653 -0.673874 0.418850
0.973717 -0.935407 0.743857 128 128 255 0.582374 -0.690417 0.429145
0.933355 -0.959129 0.758609 128 128 255 0.555471 -0.706220 0.438982
0.892102 -0.981717 0.772655 128 128 255 0.527974 -0.721269 0.448347
0.850000 -1.003146 0.785980 128 128 255 0.499911 -0.735545 0.457233
0.807095 -1.023394 0.798571 128 128 255 0.471312 -0.749035 0.465631
0.763433 -1.042439 0.810414 128 128 255 0.442210 -0.761722 0.473529
0.719061 -1.060261 0.821497 128 128 255 0.412633 -0.773594 0.480922
0.674025 -1.076841 0.831807 128 128 255 0.382615 -0.784638 0.487800
0.628375 -1.092160 0.841333 128 128 255 0.352187 -0.794843 0.494154
0.582159 -1.106203 0.850065 128 128 255 0.321382 -0.804197 0.499980
0.535427 -1.118954 0.857994 128 128 255 0.290233 -0.812690 0.505271
0.488229 -1.130399 0.865112 128 128 255 0.258773 -0.820314 0.510021
0.440614 -1.140528 0.871410 128 128 255 0.227036 -0.827058 0.514227
0.392635 -1.149328 0.876882 128 128 255 0.195055 -0.832918 0.517881
0.344343 -1.156790 0.881522 128 128 255 0.162866 -0.837887 0.520980
0.295789 -1.162906 0.885325 128 128 255 0.130503 -0.841959 0.523522
0.247026 -1.167670 0.888288 128 128 255 0.097999 -0.845128 0.525504
0.198105 -1.171076 0.890406 128 128 255 0.065392 -0.847394 0.526923
0.149079 -1.173121 0.891678 128 128 255 0.032714 -0.848752 0.527777
0.100000 -1.173803 0.892102 128 128 255 -0.000000 -0.849202 0.528068
0.050921 -1.173121 0.891678 128 128 255 -0.032713 -0.848743 0.527793
0.001895 -1.171076 0.890406 128 128 255 -0.065391 -0.847376 0.526952
-0.047026 -1.167670 0.888288 128 128 255 -0.098000 -0.845101 0.525548
-0.095789 -1.162906 0.885325 128 128 255 -0.130502 -0.841922 0.523581
-0.144343 -1.156790 0.881522 128 128 255 -0.162866 -0.837841 0.521054
-0.192635 -1.149328 0.876882 128 128 255 -0.195056 -0.832863 0.517969
-0.240614 -1.140528 0.871410 128 128 255 -0.227036 -0.826994 0.514330
-0.288229 -1.130399 0.865112 128 128 255 -0.258773 -0.820240 0.510140
-0.335427 -1.118954 0.857994 128 128 255 -0.290233 -0.812608 0.505403
-0.382159 -1.106203 0.850065 128 128 255 -0.321382 -0.804106 0.500127
-0.428375 -1.092160 0.841333 128 128 255 -0.352188 -0.794743 0.494315
-0.474025 -1.076841 0.831807 128 128 255 -0.382615 -0.784531 0.487973
-0.519061 -1.060261 0.821497 128 128 255 -0.412633 -0.773478 0.481109
-0.563433 -1.042439 0.810414 128 128 255 -0.442210 -0.761597 0.473730
-0.607095 -1.023394 0.798571 128 128 255 -0.471313 -0.748901 0.465845
-0.650000 -1.003146 0.785980 128 128 255 -0.499911 -0.735403 0.457461
-0.692102 -0.981717 0.772655 128 128 255 -0.527974 -0.721119 0.448588
-0.733355 -0.959129 0.758609 128 128 255 -0.555471 -0.706063 0.439234
-0.773717 -0.935407 0.743857 128 128 255 -0.582374 -0.690252 0.429410
-0.813142 -0.910576 0.728417 128 128 255 -0.608653 -0.673702 0.419127
-0.851590 -0.884663 0.712303 128 128 255 -0.634280 -0.656431 0.408395
-0.889019 -0.857696 0.695534 128 128 255 -0.659228 -0.638459 0.397227
-0.925388 -0.829703 0.678127 128 128 255 -0.683470 -0.619803 0.385633
-0.960660 -0.800715 0.660101 128 128 255 -0.706981 -0.600484 0.373628
-0.994796 -0.770762 0.641475 128 128 255 -0.729734 -0.580523 0.361222
-1.027760 -0.739877 0.622269 128 128 255 -0.751705 -0.559942 0.348431
-1.059516 -0.708092 0.602504 128 128 255 -0.772873 -0.538761 0.335267
-1.090030 -0.675442 0.582201 128 128 255 -0.793212 -0.517006 0.321745
-1.119270 -0.641962 0.561382 128 128 255 -0.812701 -0.494699 0.307880
-1.147204 -0.607687 0.540068 128 128 255 -0.831321 -0.471862 0.293685
-1.173803 -0.572655 0.518283 128 128 255 -0.849050 -0.448524 0.279178
-1.199038 -0.536902 0.496051 128 128 255 -0.865871 -0.424706 0.264372
-1.222882 -0.500467 0.473394 128 128 255 -0.881764 -0.400436 0.249285
-1.245309 -0.463389 0.450338 128 128 255 -0.896712 -0.375742 0.233934
-1.266296 -0.425708 0.426906 128 128 255 -0.910701 -0.350648 0.218334
-1.285819 -0.387463 0.403124 128 128 255 -0.923715 -0.325183 0.202503
-1.303859 -0.348697 0.379018 128 128 255 -0.935739 -0.299376 0.186459
-1.320395 -0.309451 0.354613 128 128 255 -0.946761 -0.273256 0.170220
-1.335410 -0.269766 0.329935 128 128 255 -0.956769 -0.246853 0.153805
-1.348889 -0.229685 0.305011 128 128 255 -0.965753 -0.220200 0.137234
-1.360816 -0.189250 0.279868 128 128 255 -0.973703 -0.193329 0.120527
-1.371178 -0.148507 0.254531 128 128 255 -0.980610 -0.166279 0.103708
-1.379965 -0.107497 0.229030 128 128 255 -0.986467 -0.139098 0.086808
-1.387167 -0.066265 0.203390 128 128 255 -0.991267 -0.111845 0.069862
-1.392777 -0.024855 0.177640 128 128 255 -0.995005 -0.084627 0.052938
-1.396788 0.016689 0.151806 128 128 255 -0.997677 -0.057707 0.036199
-1.399197 0.058322 0.125917 128 128 255 -0.999271 -0.032279 0.020388
-1.400000 0.099958 0.100026 128 128 255 -0.999866 -0.013767 0.008876
1.600000 0.100000 0.100000 128 128 255 0.999866 -0.014303 0.007949
1.599197 0.057497 0.124539 128 128 255 0.999271 -0.033189 0.018852
1.596788 0.015039 0.149052 128 128 255 0.997677 -0.059127 0.033829
1.592777 -0.027328 0.173513 128 128 255 0.995005 -0.086581 0.049680
1.587167 -0.069558 0.197895 128 128 255 0.991267 -0.114336 0.065706
1.579965 -0.111607 0.222172 128 128 255 0.986467 -0.142127 0.081752
1.571178 -0.153430 0.246318 128 128 255 0.980610 -0.169847 0.097758
1.560815 -0.194981 0.270307 128 128 255 0.973703 -0.197431 0.113686
1.548889 -0.236216 0.294114 128 128 255 0.965753 -0.224830 0.129507
1.535411 -0.277091 0.317713 128 128 255 0.956769 -0.252010 0.145202
1.520395 -0.317562 0.341080 128 128 255 0.946761 -0.278933 0.160749
1.503859 -0.357586 0.364188 128 128 255 0.935739 -0.305567 0.176130
1.485819 -0.397120 0.387013 128 128 255 0.923714 -0.331882 0.191327
1.466296 -0.436122 0.409530 128 128 255 0.910701 -0.357847 0.206322
1.445309 -0.474550 0.431717 128 128 255 0.896712 -0.383435 0.221099
1.422882 -0.512362 0.453548 128 128 255 0.881763 -0.408615 0.235641
1.399038 -0.549519 0.475000 128 128 255 0.865871 -0.433360 0.249933
1.373803 -0.585980 0.496051 128 128 255 0.849051 -0.457645 0.263959
1.347204 -0.621707 0.516678 128 128 255 0.831321 -0.481442 0.277703
1.319270 -0.656661 0.536858 128 128 255 0.812701 -0.504725 0.291152
1.290030 -0.690804 0.556571 128 128 255 0.793212 -0.527469 0.304289
1.259516 -0.724101 0.575795 128 128 255 0.772872 -0.549649 0.317102
1.227760 -0.756515 0.594509 128 128 255 0.751706 -0.571243 0.329575
1.194796 -0.788012 0.612694 128 128 255 0.729734 -0.592227 0.341697
1.160660 -0.818559 0.630330 128 128 255 0.706981 -0.612576 0.353453
1.125389 -0.848121 0.647398 128 128 255 0.683470 -0.632271 0.364831
1.089019 -0.876669 0.663880 128 128 255 0.659228 -0.651290 0.375819
1.051590 -0.904170 0.679758 128 128 255 0.634280 -0.669612 0.386405
1.013142 -0.930596 0.695015 128 128 255 0.608653 -0.687218 0.396578
0.973717 -0.955919 0.709635 128 128 255 0.582374 -0.704088 0.406326
0.933355 -0.980111 0.723602 128 128 255 0.555471 -0.720206 0.415639
0.892102 -1.003146 0.736902 128 128 255 0.527973 -0.735552 0.424508
0.850000 -1.025000 0.749519 128 128 255 0.499911 -0.750112 0.432922
0.807095 -1.045649 0.761441 128 128 255 0.471312 -0.763869 0.440874
0.763433 -1.065072 0.772655 128 128 255 0.442210 -0.776808 0.448352
0.719061 -1.083247 0.783148 128 128 255 0.412634 -0.788915 0.455352
0.674025 -1.100155 0.792910 128 128 255 0.382615 -0.800179 0.461865
0.628375 -1.115777 0.801929 128 128 255 0.352187 -0.810586 0.467883
0.582159 -1.130098 0.810198 128 128 255 0.321382 -0.820125 0.473400
0.535427 -1.143102 0.817705 128 128 255 0.290232 -0.828787 0.478411
0.488229 -1.154774 0.824444 128 128 255 0.258773 -0.836562 0.482909
0.440614 -1.165103 0.830408 128 128 255 0.227036 -0.843441 0.486890
0.392635 -1.174078 0.835589 128 128 255 0.195055 -0.849417 0.490350
0.344343 -1.181687 0.839983 128 128 255 0.162866 -0.854484 0.493286
0.295789 -1.187925 0.843584 128 128 255 0.130503 -0.858637 0.495693
0.247026 -1.192783 0.846389 128 128 255 0.098000 -0.861870 0.497570
0.198105 -1.196257 0.848394 128 128 255 0.065391 -0.864181 0.498915
0.149079 -1.198343 0.849598 128 128 255 0.032714 -0.865566 0.499725
0.100000 -1.199038 0.850000 128 128 255 0.000000 -0.866026 0.500000
0.050921 -1.198343 0.849598 128 128 255 -0.032714 -0.865557 0.499740
0.001895 -1.196257 0.848394 128 128 255 -0.065391 -0.864163 0.498945
-0.047026 -1.192783 0.846389 128 128 255 -0.098000 -0.861844 0.497616
-0.095789 -1.187925 0.843584 128 128 255 -0.130503 -0.858602 0.495754
-0.144343 -1.181687 0.839983 128 128 255 -0.162866 -0.854441 0.493361
-0.192635 -1.174078 0.835589 128 128 255 -0.195055 -0.849365 0.490441
-0.240614 -1.165103 0.830408 128 128 255 -0.227036 -0.843380 0.486996
-0.288229 -1.154774 0.824444 128 128 255 -0.258773 -0.836492 0.483029
-0.335427 -1.143102 0.817705 128 128 255 -0.290233 -0.828709 0.478545
-0.382159 -1.130098 0.810198 128 128 255 -0.321382 -0.820040 0.473549
-0.428375 -1.115777 0.801929 128 128 255 -0.352187 -0.810492 0.468047
-0.474025 -1.100155 0.792910 128 128 255 -0.382615 -0.800076 0.462043
-0.519061 -1.083247 0.783148 128 128 255 -0.412634 -0.788805 0.455544
-0.563433 -1.065072 0.772655 128 128 255 -0.442210 -0.776689 0.448558
-0.607095 -1.045649 0.761441 128 128 255 -0.471313 -0.763742 0.441092
-0.650000 -1.025000 0.749519 128 128 255 -0.499910 -0.749978 0.433154
-0.692102 -1.003146 0.736902 128 128 255 -0.527974 -0.735411 0.424753
-0.733355 -0.980111 0.723602 128 128 255 -0.555471 -0.720057 0.415897
-0.773717 -0.955919 0.709635 128 128 255 -0.582374 -0.703932 0.406596
-0.813142 -0.930596 0.695015 128 128 255 -0.608653 -0.687055 0.396859
-0.851590 -0.904170 0.679758 128 128 255 -0.634280 -0.669442 0.386699
-0.889019 -0.876669 0.663880 128 128 255 -0.659228 -0.651113 0.376125
-0.925388 -0.848121 0.647398 128 128 255 -0.683470 -0.632088 0.365148
-0.960660 -0.818559 0.630330 128 128 255 -0.706981 -0.612387 0.353780
-0.994796 -0.788012 0.612694 128 128 255 -0.729734 -0.592031 0.342035
-1.027760 -0.756515 0.594509 128 128 255 -0.751705 -0.571042 0.329924
-1.059516 -0.724101 0.575795 128 128 255 -0.772873 -0.549443 0.317460
-1.090030 -0.690804 0.556571 128 128 255 -0.793212 -0.527256 0.304657
-1.119270 -0.656661 0.536858 128 128 255 -0.812701 -0.504507 0.291529
-1.147204 -0.621707 0.516678 128 128 255 -0.831321 -0.481219 0.278089
-1.173803 -0.585980 0.496051 128 128 255 -0.849050 -0.457418 0.264353
-1.199038 -0.549519 0.475000 128 128 255 -0.865871 -0.433128 0.250334
-1.222882 -0.512362 0.453548 128 128 255 -0.881764 -0.408378 0.236050
-1.245309 -0.474550 0.431717 128 128 255 -0.896712 -0.383194 0.221515
-1.266296 -0.436122 0.409530 128 128 255 -0.910701 -0.357603 0.206744
-1.285819 -0.397120 0.387013 128 128 255 -0.923715 -0.331634 0.191755
-1.303859 -0.357586 0.364188 128 128 255 -0.935739 -0.305317 0.176564
-1.320395 -0.317562 0.341080 128 128 255 -0.946761 -0.278679 0.161188
-1.335410 -0.277091 0.317713 128 128 255 -0.956769 -0.251753 0.145645
-1.348889 -0.236216 0.294114 128 128 255 -0.965753 -0.224573 0.129955
-1.360816 -0.194981 0.270307 128 128 255 -0.973703 -0.197169 0.114137
-1.371178 -0.153430 0.246318 128 128 255 -0.980610 -0.169583 0.098212
-1.379965 -0.111607 0.222172 128 128 255 -0.986467 -0.141864 0.082210
-1.387167 -0.069558 0.197895 128 128 255 -0.991267 -0.114071 0.066165
-1.392777 -0.027328 0.173513 128 128 255 -0.995005 -0.086313 0.050141
-1.396788 0.015039 0.149052 128 128 255 -0.997677 -0.058860 0.034292
-1.399197 0.057497 0.124539 128 128 255 -0.999271 -0.032929 0.019320
-1.400000 0.099957 0.100025 128 128 255 -0.999866 -0.014050 0.008421
1.600000 0.100000 0.100000 128 128 255 0.999866 -0.014556 0.007477
1.599197 0.056717 0.123135 128 128 255 0.999271 -0.033788 0.017756
1.596788 0.013479 0.146246 128 128 255 0.997677 -0.060203 0.031876
1.592777 -0.029665 0.169307 128 128 255 0.995005 -0.088160 0.046820
1.587167 -0.072671 0.192294 128 128 255 0.991267 -0.116425 0.061929
1.579965 -0.115491 0.215183 128 128 255 0.986467 -0.144726 0.077058
1.571178 -0.158081 0.237947 128 128 255 0.980610 -0.172954 0.092148
1.560815 -0.200395 0.260565 128 128 255 0.973703 -0.201044 0.107165
1.548889 -0.242387 0.283010 128 128 255 0.965753 -0.228947 0.122082
1.535411 -0.284012 0.305259 128 128 255 0.956769 -0.256625 0.136879
1.520395 -0.325226 0.327288 128 128 255 0.946761 -0.284043 0.151537
1.503859 -0.365985 0.349074 128 128 255 0.935739 -0.311166 0.166037
1.485819 -0.406245 0.370594 128 128 255 0.923714 -0.337965 0.180365
1.466296 -0.445963 0.391823 128 128 255 0.910701 -0.364406 0.194503
1.445309 -0.485096 0.412740 128 128 255 0.896712 -0.390464 0.208435
1.422882 -0.523602 0.433322 128 128 255 0.881763 -0.416106 0.222146
1.399038 -0.561441 0.453548 128 128 255 0.865871 -0.441306 0.235620
1.373803 -0.598571 0.473394 128 128 255 0.849051 -0.466036 0.248844
1.347204 -0.634954 0.492841 128 128 255 0.831321 -0.490270 0.261802
1.319270 -0.670549 0.511867 128 128 255 0.812701 -0.513981 0.274482
1.290030 -0.705319 0.530452 128 128 255 0.793212 -0.537143 0.286868
1.259516 -0.739227 0.548576 128 128 255 0.772873 -0.559731 0.298947
1.227760 -0.772237 0.566220 128 128 255 0.751706 -0.581721 0.310708
1.194796 -0.804312 0.583365 128 128 255 0.729734 -0.603089 0.322137
1.160660 -0.835419 0.599992 128 128 255 0.706981 -0.623813 0.333220
1.125389 -0.865524 0.616083 128 128 255 0.683470 -0.643870 0.343948
1.089019 -0.894595 0.631622 128 128 255 0.659228 -0.663238 0.354308
1.051590 -0.922602 0.646592 128 128 255 0.634280 -0.681896 0.364288
1.013142 -0.949513 0.660976 128 128 255 0.608653 -0.699826 0.373879
0.973717 -0.975300 0.674760 128 128 255 0.582374 -0.717006 0.383071
0.933355 -0.999936 0.687928 128 128 255 0.555471 -0.733419 0.391852
0.892102 -1.023394 0.700467 128 128 255 0.527974 -0.749048 0.400214
0.850000 -1.045649 0.712362 128 128 255 0.499911 -0.763875 0.408147
0.807095 -1.066678 0.723602 128 128 255 0.471312 -0.777884 0.415645
0.763433 -1.086457 0.734174 128 128 255 0.442209 -0.791061 0.422698
0.719061 -1.104965 0.744067 128 128 255 0.412634 -0.803391 0.429296
0.674025 -1.122184 0.753271 128 128 255 0.382615 -0.814862 0.435437
0.628375 -1.138093 0.761774 128 128 255 0.352187 -0.825461 0.441111
0.582159 -1.152677 0.769570 128 128 255 0.321382 -0.835176 0.446313
0.535427 -1.165919 0.776648 128 128 255 0.290233 -0.843996 0.451037
0.488229 -1.177806 0.783001 128 128 255 0.258773 -0.851914 0.455280
0.440614 -1.188324 0.788624 128 128 255 0.227036 -0.858920 0.459034
0.392635 -1.197463 0.793508 128 128 255 0.195056 -0.865006 0.462296
0.344343 -1.205213 0.797651 128 128 255 0.162866 -0.870167 0.465064
0.295789 -1.211564 0.801046 128 128 255 0.130503 -0.874395 0.467335
0.247026 -1.216512 0.803690 128 128 255 0.098000 -0.877689 0.469104
0.198105 -1.220050 0.805581 128 128 255 0.065391 -0.880042 0.470372
0.149079 -1.222174 0.806717 128 128 255 0.032713 -0.881453 0.471137
0.100000 -1.222882 0.807095 128 128 255 0.000000 -0.881921 0.471397
0.050921 -1.222174 0.806717 128 128 255 -0.032714 -0.881445 0.471152
0.001895 -1.220050 0.805581 128 128 255 -0.065391 -0.880026 0.470403
-0.047026 -1.216512 0.803690 128 128 255 -0.098000 -0.877664 0.469151
-0.095789 -1.211564 0.801046 128 128 255 -0.130503 -0.874363 0.467396
-0.144343 -1.205213 0.797651 128 128 255 -0.162866 -0.870125 0.465141
-0.192635 -1.197463 0.793508 128 128 255 -0.195055 -0.864957 0.462389
-0.240614 -1.188324 0.788624 128 128 255 -0.227036 -0.858863 0.459141
-0.288229 -1.177806 0.783001 128 128 255 -0.258773 -0.851849 0.455401
-0.335427 -1.165919 0.776648 128 128 255 -0.290233 -0.843923 0.451175
-0.382159 -1.152677 0.769570 128 128 255 -0.321382 -0.835094 0.446465
-0.428375 -1.138093 0.761774 128 128 255 -0.352187 -0.825372 0.441277
-0.474025 -1.122184 0.753271 128 128 255 -0.382615 -0.814766 0.435617
-0.519061 -1.104965 0.744067 128 128 255 -0.412634 -0.803287 0.429491
-0.563433 -1.086457 0.734174 128 128 255 -0.442210 -0.790950 0.422906
-0.607095 -1.066678 0.723602 128 128 255 -0.471313 -0.777765 0.415867
-0.650000 -1.045649 0.712362 128 128 255 -0.499911 -0.763749 0.408384
-0.692102 -1.023394 0.700467 128 128 255 -0.527973 -0.748915 0.400463
-0.733355 -0.999936 0.687928 128 128 255 -0.555471 -0.733279 0.392114
-0.773717 -0.975300 0.674760 128 128 255 -0.582374 -0.716859 0.383346
-0.813142 -0.949513 0.660976 128 128 255 -0.608653 -0.699672 0.374167
-0.851590 -0.922602 0.646592 128 128 255 -0.634280 -0.681736 0.364588
-0.889019 -0.894595 0.631622 128 128 255 -0.659228 -0.663072 0.354619
-0.925388 -0.865524 0.616083 128 128 255 -0.683470 -0.643697 0.344271
-0.960660 -0.835419 0.599992 128 128 255 -0.706981 -0.623634 0.333554
-0.994796 -0.804312 0.583365 128 128 255 -0.729734 -0.602905 0.322481
-1.027760 -0.772237 0.566220 128 128 255 -0.751705 -0.581531 0.311063
-1.059516 -0.739227 0.548576 128 128 255 -0.772872 -0.559536 0.299313
-1.090030 -0.705319 0.530452 128 128 255 -0.793212 -0.536942 0.287243
-1.119270 -0.670549 0.511867 128 128 255 -0.812701 -0.513776 0.274865
-1.147204 -0.634954 0.492841 128 128 255 -0.831321 -0.490060 0.262195
-1.173803 -0.598571 0.473394 128 128 255 -0.849050 -0.465822 0.249245
-1.199038 -0.561441 0.453548 128 128 255 -0.865871 -0.441087 0.236029
-1.222882 -0.523602 0.433322 128 128 255 -0.881764 -0.415883 0.222562
-1.245309 -0.485096 0.412740 128 128 255 -0.896712 -0.390237 0.208858
-1.266296 -0.445963 0.391823 128 128 255 -0.910701 -0.364177 0.194933
-1.285819 -0.406245 0.370594 128 128 255 -0.923715 -0.337731 0.180801
-1.303859 -0.365985 0.349074 128 128 255 -0.935739 -0.310931 0.166480
-1.320395 -0.325226 0.327288 128 128 255 -0.946761 -0.283804 0.151984
-1.335410 -0.284012 0.305259 128 128 255 -0.956769 -0.256384 0.137331
-1.348889 -0.242387 0.283010 128 128 255 -0.965753 -0.228704 0.122538
-1.360816 -0.200395 0.260565 128 128 255 -0.973703 -0.200798 0.107624
-1.371178 -0.158081 0.237947 128 128 255 -0.980610 -0.172706 0.092611
-1.379965 -0.115491 0.215183 128 128 255 -0.986467 -0.144478 0.077524
-1.387167 -0.072671 0.192294 128 128 255 -0.991267 -0.116175 0.062398
-1.392777 -0.029665 0.169307 128 128 255 -0.995005 -0.087908 0.047290
-1.396788 0.013479 0.146246 128 128 255 -0.997677 -0.059951 0.032347
-1.399197 0.056717 0.123135 128 128 255 -0.999271 -0.033543 0.018233
-1.400000 0.099957 0.100023 128 128 255 -0.999866 -0.014318 0.007956
1.600000 0.100000 0.100000 128 128 255 0.999866 -0.014793 0.006996
1.599197 0.055983 0.121707 128 128 255 0.999271 -0.034351 0.016641
1.596788 0.012013 0.143391 128 128 255 0.997677 -0.061213 0.029889
1.592777 -0.031863 0.165028 128 128 255 0.995005 -0.089645 0.043911
1.587167 -0.075598 0.186595 128 128 255 0.991267 -0.118389 0.058087
1.579965 -0.119145 0.208070 128 128 255 0.986467 -0.147169 0.072281
1.571178 -0.162457 0.229429 128 128 255 0.980610 -0.175877 0.086440
1.560815 -0.205488 0.250650 128 128 255 0.973703 -0.204443 0.100530
1.548889 -0.248192 0.271709 128 128 255 0.965753 -0.232819 0.114525
1.535411 -0.290523 0.292584 128 128 255 0.956769 -0.260967 0.128409
1.520395 -0.332435 0.313254 128 128 255 0.946761 -0.288849 0.142162
1.503859 -0.373885 0.333694 128 128 255 0.935739 -0.316432 0.155767
1.485819 -0.414827 0.353885 128 128 255 0.923714 -0.343685 0.169211
1.466296 -0.455219 0.373803 128 128 255 0.910701 -0.370575 0.182475
1.445309 -0.495015 0.393429 128 128 255 0.896712 -0.397074 0.195547
1.422882 -0.534174 0.412740 128 128 255 0.881763 -0.423152 0.208412
1.399038 -0.572655 0.431717 128 128 255 0.865871 -0.448779 0.221055
1.373803 -0.610415 0.450338 128 128 255 0.849051 -0.473929 0.233462
1.347204 -0.647414 0.468584 128 128 255 0.831321 -0.498574 0.245621
1.319270 -0.683613 0.486435 128 128 255 0.812702 -0.522686 0.257517
1.290030 -0.718972 0.503872 128 128 255 0.793212 -0.546241 0.269139
1.259516 -0.753455 0.520877 128 128 255 0.772873 -0.569212 0.280473
1.227760 -0.787024 0.537432 128 128 255 0.751706 -0.591576 0.291508
1.194796 -0.819643 0.553518 128 128 255 0.729733 -0.613307 0.302232
1.160660 -0.851277 0.569118 128 128 255 0.706981 -0.634381 0.312631
1.125389 -0.881893 0.584216 128 128 255 0.683470 -0.654779 0.322697
1.089019 -0.911457 0.598795 128 128 255 0.659228 -0.674475 0.332418
1.051590 -0.939938 0.612841 128 128 255 0.634280 -0.693451 0.341783
1.013142 -0.967305 0.626337 128 128 255 0.608653 -0.711684 0.350782
0.973717 -0.993530 0.639269 128 128 255 0.582374 -0.729156 0.359406
0.933355 -1.018584 0.651624 128 128 255 0.555471 -0.745848 0.367645
0.892102 -1.042439 0.663389 128 128 255 0.527974 -0.761741 0.375492
0.850000 -1.065072 0.674550 128 128 255 0.499910 -0.776820 0.382936
0.807095 -1.086457 0.685096 128 128 255 0.471313 -0.791067 0.389970
0.763433 -1.106571 0.695015 128 128 255 0.442210 -0.804468 0.396588
0.719061 -1.125393 0.704297 128 128 255 0.412634 -0.817007 0.402781
0.674025 -1.142904 0.712932 128 128 255 0.382615 -0.828673 0.408542
0.628375 -1.159083 0.720911 128 128 255 0.352187 -0.839451 0.413867
0.582159 -1.173914 0.728225 128 128 255 0.321382 -0.849331 0.418748
0.535427 -1.187381 0.734866 128 128 255 0.290233 -0.858302 0.423181
0.488229 -1.199469 0.740827 128 128 255 0.258773 -0.866354 0.427161
0.440614 -1.210166 0.746102 128 128 255 0.227036 -0.873479 0.430684
0.392635 -1.219459 0.750685 128 128 255 0.195055 -0.879668 0.433748
0.344343 -1.227340 0.754572 128 128 255 0.162866 -0.884917 0.436345
0.295789 -1.233800 0.757757 128 128 255 0.130503 -0.889218 0.438475
0.247026 -1.238831 0.760238 128 128 255 0.098000 -0.892567 0.440136
0.198105 -1.242429 0.762013 128 128 255 0.065392 -0.894961 0.441326
0.149079 -1.244589 0.763078 128 128 255 0.032714 -0.896396 0.442044
0.100000 -1.245309 0.763433 128 128 255 0.000000 -0.896873 0.442289
0.050921 -1.244589 0.763078 128 128 255 -0.032714 -0.896389 0.442060
0.001895 -1.242429 0.762013 128 128 255 -0.065392 -0.894945 0.441358
-0.047026 -1.238831 0.760238 128 128 255 -0.098000 -0.892544 0.440183
-0.095789 -1.233800 0.757757 128 128 255 -0.130503 -0.889187 0.438538
-0.144343 -1.227340 0.754572 128 128 255 -0.162866 -0.884878 0.436423
-0.192635 -1.219459 0.750685 128 128 255 -0.195056 -0.879623 0.433840
-0.240614 -1.210166 0.746102 128 128 255 -0.227035 -0.873425 0.430794
-0.288229 -1.199469 0.740827 128 128 255 -0.258773 -0.866293 0.427286
-0.335427 -1.187381 0.734866 128 128 255 -0.290233 -0.858233 0.423321
-0.382159 -1.173914 0.728225 128 128 255 -0.321382 -0.849255 0.418903
-0.428375 -1.159083 0.720911 128 128 255 -0.352187 -0.839368 0.414036
-0.474025 -1.142904 0.712932 128 128 255 -0.382615 -0.828582 0.408726
-0.519061 -1.125393 0.704297 128 128 255 -0.412634 -0.816910 0.402978
-0.563433 -1.106571 0.695015 128 128 255 -0.442210 -0.804363 0.396800
-0.607095 -1.086457 0.685096 128 128 255 -0.471313 -0.790956 0.390197
-0.650000 -1.065072 0.674550 128 128 255 -0.499911 -0.776702 0.383176
-0.692102 -1.042439 0.663389 128 128 255 -0.527973 -0.761616 0.375746
-0.733355 -1.018584 0.651624 128 128 255 -0.555471 -0.745716 0.367913
-0.773717 -0.993530 0.639269 128 128 255 -0.582374 -0.729018 0.359686
-0.813142 -0.967305 0.626337 128 128 255 -0.608653 -0.711540 0.351074
-0.851590 -0.939938 0.612841 128 128 255 -0.634280 -0.693300 0.342087
-0.889019 -0.911457 0.598795 128 128 255 -0.659228 -0.674319 0.332734
-0.925388 -0.881893 0.584216 128 128 255 -0.683470 -0.654617 0.323025
-0.960660 -0.851277 0.569118 128 128 255 -0.706981 -0.634214 0.312971
-0.994796 -0.819643 0.553518 128 128 255 -0.729734 -0.613134 0.302582
-1.027760 -0.787024 0.537432 128 128 255 -0.751705 -0.591398 0.291869
-1.059516 -0.753455 0.520877 128 128 255 -0.772872 -0.569030 0.280845
-1.090030 -0.718972 0.503872 128 128 255 -0.793212 -0.546053 0.269520
-1.119270 -0.683613 0.486435 128 128 255 -0.812702 -0.522494 0.257908
-1.147204 -0.647414 0.468584 128 128 255 -0.831321 -0.498377 0.246020
-1.173803 -0.610415 0.450338 128 128 255 -0.849050 -0.473728 0.233870
-1.199038 -0.572655 0.431717 128 128 255 -0.865871 -0.448574 0.221471
-1.222882 -0.534174 0.412740 128 128 255 -0.881764 -0.422942 0.208835
-1.245309 -0.495015 0.393429 128 128 255 -0.896712 -0.396862 0.195978
-1.266296 -0.455219 0.373803 128 128 255 -0.910701 -0.370360 0.182913
-1.285819 -0.414827 0.353885 128 128 255 -0.923715 -0.343465 0.169654
-1.303859 -0.373885 0.333694 128 128 255 -0.935739 -0.316211 0.156217
-1.320395 -0.332435 0.313254 128 128 255 -0.946761 -0.288625 0.142616
-1.335410 -0.290523 0.292584 128 128 255 -0.956769 -0.260740 0.128868
-1.348889 -0.248192 0.271709 128 128 255 -0.965753 -0.232591 0.114990
-1.360816 -0.205488 0.250650 128 128 255 -0.973703 -0.204212 0.100997
-1.371178 -0.162457 0.229429 128 128 255 -0.980610 -0.175643 0.086911
-1.379965 -0.119145 0.208070 128 128 255 -0.986467 -0.146937 0.072756
-1.387167 -0.075598 0.186595 128 128 255 -0.991267 -0.118154 0.058563
-1.392777 -0.031863 0.165028 128 128 255 -0.995005 -0.089408 0.044388
-1.396788 0.012013 0.143391 128 128 255 -0.997677 -0.060977 0.030368
-1.399197 0.055983 0.121707 128 128 255 -0.999271 -0.034122 0.017125
-1.400000 0.099956 0.100022 128 128 255 -0.999866 -0.014571 0.007484
1.600000 0.100000 0.100000 128 128 255 0.999866 -0.015014 0.006509
1.599197 0.055296 0.120255 128 128 255 0.999271 -0.034877 0.015509
1.596788 0.010640 0.140488 128 128 255 0.997677 -0.062159 0.027870
1.592777 -0.033920 0.160679 128 128 255 0.995005 -0.091034 0.040954
1.587167 -0.078337 0.180804 128 128 255 0.991267 -0.120226 0.054182
1.579965 -0.122563 0.200842 128 128 255 0.986467 -0.149456 0.067427
1.571178 -0.166551 0.220773 128 128 255 0.980610 -0.178611 0.080639
1.560815 -0.210253 0.240574 128 128 255 0.973703 -0.207623 0.093786
1.548889 -0.253623 0.260225 128 128 255 0.965753 -0.236441 0.106846
1.535411 -0.296615 0.279704 128 128 255 0.956769 -0.265028 0.119801
1.520395 -0.339181 0.298990 128 128 255 0.946761 -0.293346 0.132635
1.503859 -0.381278 0.318064 128 128 255 0.935739 -0.321359 0.145331
1.485819 -0.422859 0.336904 128 128 255 0.923714 -0.349038 0.157875
1.466296 -0.463880 0.355491 128 128 255 0.910701 -0.376347 0.170253
1.445309 -0.504297 0.373803 128 128 255 0.896712 -0.403260 0.182451
1.422882 -0.544067 0.391823 128 128 255 0.881764 -0.429744 0.194455
1.399038 -0.583148 0.409530 128 128 255 0.865871 -0.455771 0.206252
1.373803 -0.621497 0.426906 128 128 255 0.849051 -0.481313 0.217831
1.347204 -0.659073 0.443932 128 128 255 0.831321 -0.506343 0.229177
1.319270 -0.695837 0.460589 128 128 255 0.812701 -0.530832 0.240278
1.290030 -0.731748 0.476860 128 128 255 0.793212 -0.554755 0.251123
1.259516 -0.766769 0.492728 128 128 255 0.772872 -0.578084 0.261700
1.227760 -0.800861 0.508175 128 128 255 0.751706 -0.600797 0.271996
1.194796 -0.833989 0.523185 128 128 255 0.729734 -0.622867 0.282003
1.160660 -0.866117 0.537742 128 128 255 0.706981 -0.644271 0.291708
1.125389 -0.897210 0.551830 128 128 255 0.683470 -0.664986 0.301101
1.089019 -0.927236 0.565434 128 128 255 0.659228 -0.684991 0.310172
1.051590 -0.956161 0.578540 128 128 255 0.634280 -0.704262 0.318911
1.013142 -0.983955 0.591134 128 128 255 0.608653 -0.722780 0.327308
0.973717 -1.010589 0.603201 128 128 255 0.582374 -0.740525 0.335356
0.933355 -1.036033 0.614730 128 128 255 0.555471 -0.757478 0.343045
0.892102 -1.060261 0.625708 128 128 255 0.527974 -0.773619 0.350367
0.850000 -1.083247 0.636122 128 128 255 0.499910 -0.788933 0.357315
0.807095 -1.104965 0.645963 128 128 255 0.471312 -0.803403 0.363880
0.763433 -1.125393 0.655219 128 128 255 0.442210 -0.817013 0.370054
0.719061 -1.144509 0.663880 128 128 255 0.412633 -0.829749 0.375833
0.674025 -1.162293 0.671937 128 128 255 0.382616 -0.841597 0.381209
0.628375 -1.178724 0.679382 128 128 255 0.352187 -0.852543 0.386179
0.582159 -1.193787 0.686207 128 128 255 0.321382 -0.862578 0.390734
0.535427 -1.207464 0.692404 128 128 255 0.290233 -0.871689 0.394871
0.488229 -1.219740 0.697967 128 128 255 0.258772 -0.879867 0.398587
0.440614 -1.230604 0.702889 128 128 255 0.227036 -0.887103 0.401874
0.392635 -1.240043 0.707165 128 128 255 0.195056 -0.893390 0.404732
0.344343 -1.248047 0.710792 128 128 255 0.162865 -0.898720 0.407158
0.295789 -1.254607 0.713764 128 128 255 0.130502 -0.903088 0.409146
0.247026 -1.259717 0.716080 128 128 255 0.098000 -0.906490 0.410697
0.198105 -1.263370 0.717735 128 128 255 0.065392 -0.908921 0.411808
0.149079 -1.265564 0.718729 128 128 255 0.032714 -0.910380 0.412478
0.100000 -1.266296 0.719061 128 128 255 -0.000000 -0.910864 0.412707
0.050921 -1.265564 0.718729 128 128 255 -0.032713 -0.910373 0.412494
0.001895 -1.263370 0.717735 128 128 255 -0.065392 -0.908907 0.411840
-0.047026 -1.259717 0.716080 128 128 255 -0.098000 -0.906468 0.410745
-0.095789 -1.254607 0.713764 128 128 255 -0.130502 -0.903060 0.409210
