ply
format ascii 1.0
element vertex 703
property float x
property float y
property float z
property uchar red
property uchar green
property uchar blue
property float nx
property float ny
property float nz
end_header
7.878058 0.853191 -6.931250 128 128 255 0.306719 -0.913887 0.265957
0.100000 2.404212 0.109347 128 128 255 -0.572542 0.596097 -0.562907
1.244471 0.100000 0.100000 128 128 255 0.017260 0.003441 0.999845
0.100000 1.582941 0.117059 128 128 255 -0.000000 -0.032847 0.999460
1.814116 0.100000 0.100000 128 128 255 0.059887 -0.992664 0.105031
-8.271675 -0.059574 7.131250 128 128 255 0.005788 -0.999983 0.000275
0.100000 0.100000 -4.564602 128 128 255 0.017858 -0.999838 0.002101
8.409122 0.322128 -6.931250 128 128 255 0.186166 -0.966340 0.177565
0.100000 1.423577 0.276423 128 128 255 0.579676 0.591016 0.560960
1.182112 0.100000 0.100000 128 128 255 0.420897 -0.841223 0.339395
-7.365293 -0.965957 7.131250 128 128 255 0.000000 0.995618 -0.093510
1.677925 0.100000 0.100000 128 128 255 0.021676 0.999759 0.003383
7.502739 1.228511 -6.931250 128 128 255 -0.042727 0.999087 -0.000540
0.100000 0.100000 -6.278823 128 128 255 0.540551 0.841307 0.002486
-1.091064 7.131250 0.100000 128 128 255 0.998863 0.047677 -0.000695
0.100000 1.516951 0.183049 128 128 255 -0.057554 -0.057688 -0.996674
1.925466 0.100000 0.100000 128 128 255 0.230551 -0.915102 0.330809
-7.896357 -0.434894 7.131250 128 128 255 0.019527 -0.999808 0.001717
0.100000 0.100000 -3.743027 128 128 255 0.051522 -0.998669 0.002540
8.033803 0.697447 -6.931250 128 128 255 0.028212 -0.999602 -0.000000
0.100000 0.100000 88.565460 128 128 255 -0.596304 -0.802759 0.000160
-0.560000 7.131250 0.100000 128 128 255 -0.996098 -0.029306 0.083247
-6.989974 -1.341277 7.131250 128 128 255 0.710172 0.142497 0.689456
1.771799 0.100000 0.100000 128 128 255 -0.558139 -0.583803 -0.589623
-8.427421 0.096170 7.131250 128 128 255 0.000138 -1.000000 0.000005
0.100000 0.100000 -4.984759 128 128 255 0.004773 -0.999987 0.001930
8.564867 0.166383 -6.931250 128 128 255 0.002860 -0.999996 -0.000000
0.100000 0.100000 17.767748 128 128 255 -0.627207 -0.778852 0.000834
-0.028936 7.131250 0.100000 128 128 255 -0.834572 -0.018943 0.550573
-7.521037 -0.810213 7.131250 128 128 255 0.696201 0.103136 0.710400
1.641995 0.100000 0.100000 128 128 255 0.021047 0.999694 0.013032
7.658484 1.072766 -6.931250 128 128 255 -0.036688 0.999327 -0.000225
0.100000 0.100000 -6.978398 128 128 255 0.552919 0.833232 0.002236
-0.935319 7.131250 0.100000 128 128 255 0.999013 0.044422 -0.000000
0.100000 0.100000 10.512318 128 128 255 0.995446 0.095321 0.001103
1.197872 -6.931250 0.100000 128 128 255 0.472252 -0.033444 -0.880829
-8.052101 -0.279149 7.131250 128 128 255 -0.612938 -0.401446 -0.680550
0.100000 0.100000 -4.055815 128 128 255 0.037174 -0.999306 0.002353
8.189548 0.541702 -6.931250 128 128 255 0.020288 -0.999794 -0.000000
0.100000 0.100000 39.672436 128 128 255 -0.605838 -0.795588 0.000361
-0.404255 7.131250 0.100000 128 128 255 -0.999747 -0.022482 0.000436
0.100000 2.064940 0.448619 128 128 255 -0.968782 -0.121627 0.216031
0.666808 -6.931250 0.100000 128 128 255 0.704575 0.012652 0.709517
7.283165 1.448085 -6.931250 128 128 255 0.614289 0.475528 0.629700
0.100000 0.100000 -5.466378 128 128 255 0.521500 0.853246 0.002862
-1.310638 7.131250 0.100000 128 128 255 0.997990 0.063365 -0.000000
0.100000 0.100000 14.651689 128 128 255 0.991442 0.130544 0.000763
1.573192 -6.931250 0.100000 128 128 255 0.997989 0.063210 -0.004640
0.100000 2.208958 0.304602 128 128 255 0.051148 0.062739 -0.996718
0.135745 -6.931250 0.100000 128 128 255 0.685981 -0.021328 0.727306
7.814229 0.917021 -6.931250 128 128 255 0.560169 0.574272 0.597012
0.100000 0.100000 -7.814312 128 128 255 0.564466 0.825454 0.001999
-0.779574 7.131250 0.100000 128 128 255 0.999314 0.037047 -0.000000
0.100000 0.100000 9.475804 128 128 255 0.996718 0.080940 0.001241
1.042128 -6.931250 0.100000 128 128 255 0.999252 0.038236 -0.005824
0.100000 2.352975 0.160584 128 128 255 0.112675 -0.001970 -0.993630
1.268426 0.100000 0.100000 128 128 255 0.474701 0.738801 0.478364
8.345292 0.385957 -6.931250 128 128 255 0.013455 -0.999909 0.000126
0.100000 0.100000 25.970852 128 128 255 -0.614957 -0.788561 0.000559
-0.248511 7.131250 0.100000 128 128 255 -0.999881 -0.015429 0.000508
0.100000 2.107176 0.406383 128 128 255 -0.974843 -0.086795 0.205301
0.511064 -6.931250 0.100000 128 128 255 -0.681249 -0.119423 0.722245
0.100000 1.390358 0.309642 128 128 255 0.315071 -0.043530 -0.948069
1.203503 0.100000 0.100000 128 128 255 0.494642 -0.765785 0.410978
-7.176356 -1.154894 7.131250 128 128 255 -0.061154 0.998127 -0.001452
0.100000 0.100000 12.542674 128 128 255 0.552409 0.833572 0.001264
1.417447 -6.931250 0.100000 128 128 255 0.998431 0.055746 -0.005226
0.100000 2.251194 0.262366 128 128 255 0.204270 0.009440 -0.978869
1.319116 0.100000 0.100000 128 128 255 -0.139164 -0.096118 0.985594
0.100000 1.483732 0.216268 128 128 255 0.000000 -0.229703 0.973261
1.987180 0.100000 0.100000 128 128 255 0.325520 -0.823510 0.464616
-7.707420 -0.623830 7.131250 128 128 255 -0.035469 0.999369 0.002024
0.100000 0.100000 8.655268 128 128 255 0.571195 0.820812 0.001850
0.886383 -6.931250 0.100000 128 128 255 0.999495 0.031259 -0.005659
0.100000 2.395211 0.118348 128 128 255 0.042760 -0.001897 -0.999084
1.248608 0.100000 0.100000 128 128 255 0.006941 -0.002394 0.999973
0.100000 1.577105 0.122895 128 128 255 -0.000000 -0.044196 0.999023
1.823413 0.100000 0.100000 128 128 255 0.073268 -0.989810 0.122102
-8.238484 -0.092766 7.131250 128 128 255 -0.590801 -0.562445 -0.578454
0.100000 2.149412 0.364147 128 128 255 -0.837417 0.540097 -0.083836
0.355319 -6.931250 0.100000 128 128 255 -0.797287 -0.082034 0.598000
0.100000 1.417741 0.282259 128 128 255 0.380329 -0.067546 -0.922381
1.185809 0.100000 0.100000 128 128 255 0.434380 -0.828949 0.352360
-7.332101 -0.999149 7.131250 128 128 255 0.000000 0.995131 -0.098556
1.685800 0.100000 0.100000 128 128 255 0.021827 0.999761 0.000821
7.469548 1.261702 -6.931250 128 128 255 0.607150 0.527930 0.593852
0.100000 2.293430 0.220130 128 128 255 -0.716983 0.381580 -0.583380
1.297557 0.100000 0.100000 128 128 255 -0.100279 -0.068763 0.992580
0.100000 1.511115 0.188885 128 128 255 0.000000 -0.175031 0.984563
1.936014 0.100000 0.100000 128 128 255 0.247197 -0.902067 0.353792
-7.863165 -0.468085 7.131250 128 128 255 0.020749 -0.999783 0.001915
0.100000 0.100000 -3.680788 128 128 255 0.054652 -0.998502 0.002581
8.000611 0.730638 -6.931250 128 128 255 0.230990 -0.950909 0.205949
0.100000 1.351751 0.348249 128 128 255 0.576766 0.596370 0.558286
1.229450 0.100000 0.100000 128 128 255 0.568543 -0.664589 0.484850
-6.956782 -1.374468 7.131250 128 128 255 -0.000000 0.985533 -0.169481
1.780642 0.100000 0.100000 128 128 255 -0.557064 -0.584153 -0.590293
-8.394229 0.062979 7.131250 128 128 255 0.001340 -0.999999 0.000050
0.100000 0.100000 -4.890484 128 128 255 0.007520 -0.999970 0.001966
8.531675 0.199574 -6.931250 128 128 255 0.172552 -0.970441 0.168728
0.100000 1.445125 0.254875 128 128 255 0.580367 0.589855 0.561467
1.168674 0.100000 0.100000 128 128 255 0.369743 -0.882512 0.290626
-7.487846 -0.843404 7.131250 128 128 255 0.000000 0.997083 -0.076328
1.649514 0.100000 0.100000 128 128 255 0.021171 0.999712 0.011279
7.625293 1.105957 -6.931250 128 128 255 -0.037972 0.999279 -0.000281
0.100000 0.100000 -6.819085 128 128 255 0.550356 0.834927 0.002288
-0.968511 7.131250 0.100000 128 128 255 0.999091 0.042627 -0.000429
0.100000 1.538499 0.161501 128 128 255 -0.048012 -0.045140 -0.997826
1.887550 0.100000 0.100000 128 128 255 0.170640 -0.953208 0.249554
-8.018909 -0.312340 7.131250 128 128 255 0.015023 -0.999887 0.001097
0.100000 0.100000 -3.986123 128 128 255 0.040186 -0.999189 0.002392
8.156357 0.574894 -6.931250 128 128 255 0.021940 -0.999759 0.000000
0.100000 0.100000 44.855072 128 128 255 -0.603842 -0.797104 0.000318
-0.437447 7.131250 0.100000 128 128 255 -0.983554 -0.024438 0.178954
-7.112526 -1.218723 7.131250 128 128 255 0.706978 0.133323 0.694555
1.739942 0.100000 0.100000 128 128 255 -0.545791 0.613842 -0.570360
7.459375 0.100000 -5.759375 128 128 255 0.000000 -1.000000 0.000000
0.100000 0.100000 13.828713 128 128 255 -0.616427 -0.787412 0.001079
0.037447 5.959375 0.100000 128 128 255 -0.999995 -0.003256 0.000348
0.100000 2.341908 0.390350 128 128 255 -0.992039 -0.025296 0.123364
0.225106 -5.759375 0.100000 128 128 255 -0.928705 -0.050704 0.367336
0.100000 1.415259 0.284740 128 128 255 0.486468 -0.107604 -0.867047
1.113532 0.100000 0.100000 128 128 255 0.384665 -0.879166 0.281248
-6.290439 -0.868936 5.959375 128 128 255 -0.055414 0.998461 -0.002282
0.100000 0.100000 8.632447 128 128 255 0.534663 0.845063 0.001869
1.131489 -5.759375 0.100000 128 128 255 0.998688 0.049854 -0.011720
0.100000 2.524640 0.207618 128 128 255 0.195303 0.002476 -0.980740
1.231833 0.100000 0.100000 128 128 255 -0.093319 -0.059263 0.993871
0.100000 1.523502 0.176498 128 128 255 0.000000 -0.145099 0.989417
1.968908 0.100000 0.100000 128 128 255 0.187259 -0.927525 0.323467
-6.821503 -0.337872 5.959375 128 128 255 -0.566891 -0.593599 -0.571205
0.100000 2.212766 0.519492 128 128 255 -0.957585 -0.117595 0.263062
0.600426 -5.759375 0.100000 128 128 255 -0.662145 -0.160827 0.731915
0.100000 1.338761 0.361239 128 128 255 0.311260 -0.033218 -0.949744
1.159383 0.100000 0.100000 128 128 255 0.533256 -0.732530 0.423129
-5.915120 -1.244255 5.959375 128 128 255 -0.000000 0.985410 -0.170197
1.779275 0.100000 0.100000 128 128 255 0.024067 0.998343 -0.052270
6.052567 1.506809 -5.759375 128 128 255 0.603245 0.535545 0.591006
0.100000 2.395498 0.336760 128 128 255 -0.787342 0.216219 -0.577358
1.289316 0.100000 0.100000 128 128 255 -0.212723 -0.137623 0.967372
0.100000 1.447004 0.252996 128 128 255 0.000000 0.471359 -0.881941
1.095650 0.100000 0.100000 128 128 255 0.317122 -0.922752 0.219002
-6.446184 -0.713192 5.959375 128 128 255 0.000000 0.997770 -0.066752
1.624580 0.100000 0.100000 128 128 255 0.020777 0.999659 0.015787
6.583630 0.975745 -5.759375 128 128 255 0.618638 0.527074 0.582649
0.100000 2.578229 0.154029 128 128 255 -0.686098 0.342210 -0.641999
1.209579 0.100000 0.100000 128 128 255 -0.034671 -0.026076 0.999059
0.100000 1.555246 0.144754 128 128 255 0.000000 -0.084402 0.996432
1.908998 0.100000 0.100000 128 128 255 0.113387 -0.971135 0.209855
-6.977247 -0.182128 5.959375 128 128 255 0.011723 -0.999931 0.001027
0.100000 0.100000 -3.584146 128 128 255 0.033435 -0.999437 0.002627
7.114694 0.444681 -5.759375 128 128 255 0.226878 -0.950700 0.211415
0.100000 1.370505 0.329495 128 128 255 0.577306 0.597880 0.556109
1.139862 0.100000 0.100000 128 128 255 0.475313 -0.799708 0.366803
-6.070864 -1.088511 5.959375 128 128 255 0.000000 0.991173 -0.132576
1.730749 0.100000 0.100000 128 128 255 0.022816 0.999486 -0.022500
6.208311 1.351064 -5.759375 128 128 255 -0.054742 0.998499 -0.001478
0.100000 0.100000 -4.938797 128 128 255 0.494184 0.869352 0.003179
-1.213617 5.959375 0.100000 128 128 255 0.998137 0.060984 -0.001663
0.100000 1.478748 0.221252 128 128 255 -0.075031 -0.104916 -0.991647
2.060442 0.100000 0.100000 128 128 255 0.298073 -0.809396 0.505995
-6.601928 -0.557447 5.959375 128 128 255 0.027462 -0.999613 0.004381
0.100000 0.100000 -2.922053 128 128 255 0.074721 -0.997199 0.003182
6.739375 0.820000 -5.759375 128 128 255 -0.034697 0.999398 0.000000
0.100000 0.100000 -7.251842 128 128 255 0.546058 0.837745 0.002171
-0.682553 5.959375 0.100000 128 128 255 0.999357 0.035853 -0.000076
0.100000 1.586990 0.113010 128 128 255 -0.014451 -0.014715 -0.999787
1.852811 0.100000 0.100000 128 128 255 0.047685 -0.992371 0.113691
-7.132992 -0.026383 5.959375 128 128 255 0.005237 -0.999986 0.000344
0.100000 0.100000 -3.919494 128 128 255 0.017566 -0.999843 0.002413
7.270439 0.288936 -5.759375 128 128 255 0.009829 -0.999952 0.000000
0.100000 0.100000 18.189796 128 128 255 -0.603910 -0.797052 0.000803
-0.151489 5.959375 0.100000 128 128 255 -0.902925 -0.021676 0.429252
-6.226609 -0.932766 5.959375 128 128 255 0.697160 0.133179 0.704436
1.684948 0.100000 0.100000 128 128 255 0.021832 0.999760 -0.001987
6.364056 1.195319 -5.759375 128 128 255 -0.047750 0.998859 -0.000755
0.100000 0.100000 -5.481473 128 128 255 0.510881 0.859647 0.002862
-1.057872 5.959375 0.100000 128 128 255 0.998227 0.059518 0.000000
0.100000 0.100000 9.884916 128 128 255 0.991957 0.126572 0.001177
1.320426 -5.759375 0.100000 128 128 255 0.605003 -0.021924 -0.795921
-6.757673 -0.401702 5.959375 128 128 255 -0.607106 -0.396063 -0.688881
0.100000 0.100000 -3.175122 128 128 255 0.057045 -0.998367 0.002945
6.895120 0.664255 -5.759375 128 128 255 0.031718 -0.999497 0.000000
0.100000 0.100000 58.498890 128 128 255 -0.576883 -0.816827 0.000240
-0.526809 5.959375 0.100000 128 128 255 -0.999439 -0.033472 0.000583
0.100000 2.147756 0.584502 128 128 255 -0.958499 -0.171421 0.227804
0.789362 -5.759375 0.100000 128 128 255 0.708764 0.023482 0.705054
5.988737 1.570638 -5.759375 128 128 255 0.620365 0.465109 0.631522
0.100000 0.100000 -4.301228 128 128 255 -0.824970 -0.440793 -0.353731
7.426184 0.133191 -5.759375 128 128 255 0.001675 -0.999999 -0.000000
0.100000 0.100000 14.420793 128 128 255 -0.614273 -0.789093 0.001031
0.004255 5.959375 0.100000 128 128 255 -0.999987 -0.004999 0.000502
0.100000 2.330487 0.401771 128 128 255 -0.989693 -0.034164 0.139070
0.258298 -5.759375 0.100000 128 128 255 0.687021 -0.016141 0.726459
6.519801 1.039575 -5.759375 128 128 255 0.570215 0.551286 0.609047
0.100000 0.100000 -6.122378 128 128 255 0.526269 0.850314 0.002564
-0.902128 5.959375 0.100000 128 128 255 0.998730 0.050391 0.000000
0.100000 0.100000 8.824308 128 128 255 0.994007 0.109308 0.001342
1.164681 -5.759375 0.100000 128 128 255 0.998593 0.051724 -0.011666
0.100000 2.513219 0.219039 128 128 255 0.207398 0.003946 -0.978249
1.236692 0.100000 0.100000 128 128 255 0.489227 0.688965 0.534775
7.050864 0.508511 -5.759375 128 128 255 0.023220 -0.999730 0.000196
0.100000 0.100000 29.932369 128 128 255 -0.588492 -0.808503 0.000476
-0.371064 5.959375 0.100000 128 128 255 -0.999684 -0.025106 0.000953
0.100000 2.201345 0.530913 128 128 255 -0.965960 -0.131870 0.222557
0.633617 -5.759375 0.100000 128 128 255 -0.648106 -0.168956 0.742572
0.100000 1.331996 0.368004 128 128 255 0.304614 -0.029467 -0.952020
1.163638 0.100000 0.100000 128 128 255 0.544711 -0.717308 0.434465
-5.881928 -1.277447 5.959375 128 128 255 -0.081543 0.996668 -0.002115
0.100000 0.100000 12.047293 128 128 255 0.515850 0.856678 0.001319
1.540000 -5.759375 0.100000 128 128 255 0.997257 0.073381 -0.009700
0.100000 2.384077 0.348181 128 128 255 0.071635 0.087868 -0.993553
0.102553 -5.759375 0.100000 128 128 255 -0.999957 -0.001053 0.009263
0.100000 1.440238 0.259761 128 128 255 0.669284 -0.173446 -0.722479
1.099408 0.100000 0.100000 128 128 255 0.331594 -0.914388 0.232247
-6.412992 -0.746383 5.959375 128 128 255 -0.047891 0.998850 -0.002201
0.100000 0.100000 8.004433 128 128 255 0.540314 0.841461 0.002020
1.008936 -5.759375 0.100000 128 128 255 0.999004 0.043045 -0.011725
0.100000 2.566808 0.165450 128 128 255 0.140502 -0.001530 -0.990079
1.214248 0.100000 0.100000 128 128 255 -0.047583 -0.033153 0.998317
0.100000 1.548481 0.151519 128 128 255 -0.000000 -0.097308 0.995254
1.921442 0.100000 0.100000 128 128 255 0.128504 -0.964038 0.232630
-6.944056 -0.215319 5.959375 128 128 255 -0.575488 -0.589207 -0.567141
0.100000 2.254935 0.477323 128 128 255 -0.900240 0.091883 0.425589
0.477872 -5.759375 0.100000 128 128 255 -0.725897 -0.129557 0.675491
0.100000 1.363740 0.336260 128 128 255 0.342877 -0.049302 -0.938086
1.143962 0.100000 0.100000 128 128 255 0.488196 -0.786051 0.379195
-6.037673 -1.121702 5.959375 128 128 255 -0.000000 0.990151 -0.140006
1.740854 0.100000 0.100000 128 128 255 0.023058 0.999343 -0.027965
6.175120 1.384255 -5.759375 128 128 255 0.606576 0.533490 0.589453
0.100000 2.437666 0.294592 128 128 255 -0.766101 0.250784 -0.591774
1.269915 0.100000 0.100000 128 128 255 -0.177266 -0.112429 0.977720
0.100000 1.471983 0.228017 128 128 255 -0.000000 -0.243186 0.969980
2.075064 0.100000 0.100000 128 128 255 0.314374 -0.784609 0.534377
-6.568737 -0.590638 5.959375 128 128 255 0.028859 -0.999572 0.004832
0.100000 0.100000 -2.871549 128 128 255 0.078592 -0.996902 0.003234
6.706183 0.853191 -5.759375 128 128 255 0.352661 -0.887452 0.296747
0.100000 2.620398 0.111860 128 128 255 -0.661042 0.361335 -0.657617
1.192674 0.100000 0.100000 128 128 255 0.014775 -0.000026 0.999891
0.100000 1.580225 0.119775 128 128 255 -0.000000 -0.037036 0.999314
1.864490 0.100000 0.100000 128 128 255 0.060946 -0.989277 0.132728
-7.099801 -0.059574 5.959375 128 128 255 0.006617 -0.999978 0.000463
0.100000 0.100000 -3.844438 128 128 255 0.020889 -0.999779 0.002458
7.237247 0.322128 -5.759375 128 128 255 0.211757 -0.956246 0.201874
0.100000 1.395484 0.304516 128 128 255 0.578600 0.595961 0.556824
1.125000 0.100000 0.100000 128 128 255 0.425696 -0.846527 0.319649
-6.193418 -0.965957 5.959375 128 128 255 -0.000000 0.994192 -0.107625
1.694492 0.100000 0.100000 128 128 255 0.022022 0.999741 -0.005719
6.330864 1.228511 -5.759375 128 128 255 -0.049238 0.998787 -0.000886
0.100000 0.100000 -5.358399 128 128 255 0.507438 0.861683 0.002928
-1.091064 5.959375 0.100000 128 128 255 0.998474 0.055213 -0.001116
0.100000 1.503727 0.196273 128 128 255 -0.066511 -0.086733 -0.994009
2.008277 0.100000 0.100000 128 128 255 0.236105 -0.884701 0.401944
-6.724482 -0.434894 5.959375 128 128 255 0.022308 -0.999747 0.002960
0.100000 0.100000 -3.118842 128 128 255 0.060746 -0.998149 0.002995
6.861928 0.697447 -5.759375 128 128 255 0.033824 -0.999428 -0.000000
0.100000 0.100000 74.071220 128 128 255 -0.574328 -0.818625 0.000189
-0.560000 5.959375 0.100000 128 128 255 -0.995992 -0.034698 0.082433
-5.818099 -1.341277 5.959375 128 128 255 0.709523 0.170003 0.683868
1.810992 0.100000 0.100000 128 128 255 -0.548234 -0.586966 -0.595744
-7.255545 0.096170 5.959375 128 128 255 0.000158 -1.000000 0.000008
0.100000 0.100000 -4.215511 128 128 255 0.005566 -0.999982 0.002250
7.392992 0.166383 -5.759375 128 128 255 0.003371 -0.999994 -0.000000
0.100000 0.100000 15.073123 128 128 255 -0.612100 -0.790780 0.000982
-0.028936 5.959375 0.100000 128 128 255 -0.841194 -0.022122 0.540281
-6.349162 -0.810213 5.959375 128 128 255 0.693419 0.122278 0.710083
1.650677 0.100000 0.100000 128 128 255 0.021202 0.999732 0.009280
6.486609 1.072766 -5.759375 128 128 255 -0.042273 0.999106 -0.000366
0.100000 0.100000 -5.976249 128 128 255 0.523090 0.852273 0.002626
-0.935319 5.959375 0.100000 128 128 255 0.998631 0.052303 -0.000000
0.100000 0.100000 9.026932 128 128 255 0.993597 0.112972 0.001307
1.197872 -5.759375 0.100000 128 128 255 0.506379 -0.039002 -0.861428
-6.880226 -0.279149 5.959375 128 128 255 -0.605052 -0.406740 -0.684452
0.100000 0.100000 -3.395089 128 128 255 0.043684 -0.999042 0.002765
7.017673 0.541702 -5.759375 128 128 255 0.024194 -0.999707 0.000000
0.100000 0.100000 33.327030 128 128 255 -0.586069 -0.810261 0.000426
-0.404255 5.959375 0.100000 128 128 255 -0.999638 -0.026895 0.000896
0.100000 2.189924 0.542334 128 128 255 -0.964284 -0.140339 0.224636
0.666808 -5.759375 0.100000 128 128 255 0.703853 0.014486 0.710198
6.111290 1.448085 -5.759375 128 128 255 0.610650 0.481115 0.628995
0.100000 0.100000 -4.640867 128 128 255 0.483035 0.875594 0.003386
-1.310638 5.959375 0.100000 128 128 255 0.997167 0.075215 0.000000
0.100000 0.100000 12.476407 128 128 255 0.987921 0.154953 0.000905
1.573192 -5.759375 0.100000 128 128 255 0.997115 0.075322 -0.009423
0.100000 2.372656 0.359602 128 128 255 0.075187 0.092226 -0.992895
0.135745 -5.759375 0.100000 128 128 255 0.681833 -0.025513 0.731063
6.642354 0.917021 -5.759375 128 128 255 0.554747 0.578113 0.598366
0.100000 0.100000 -6.714509 128 128 255 0.537567 0.843218 0.002341
-0.779574 5.959375 0.100000 128 128 255 0.999054 0.043480 0.000000
0.100000 0.100000 8.163170 128 128 255 0.995394 0.095855 0.001469
1.042128 -5.759375 0.100000 128 128 255 0.998924 0.044873 -0.011754
0.100000 2.555388 0.176870 128 128 255 0.157209 -0.000705 -0.987565
1.218957 0.100000 0.100000 128 128 255 0.473567 0.734029 0.486761
7.173418 0.385957 -5.759375 128 128 255 0.016104 -0.999870 0.000196
0.100000 0.100000 21.909042 128 128 255 -0.597224 -0.802074 0.000659
-0.248511 5.959375 0.100000 128 128 255 -0.999828 -0.018495 0.001041
0.100000 2.243514 0.488744 128 128 255 -0.972706 -0.100395 0.209198
0.511064 -5.759375 0.100000 128 128 255 -0.706557 -0.138272 0.694016
0.100000 1.356975 0.343025 128 128 255 0.332991 -0.044527 -0.941878
1.148094 0.100000 0.100000 128 128 255 0.500805 -0.772014 0.391393
-6.004481 -1.154894 5.959375 128 128 255 -0.073537 0.997290 -0.002234
0.100000 0.100000 10.718895 128 128 255 0.521465 0.853271 0.001491
1.417447 -5.759375 0.100000 128 128 255 0.997748 0.066235 -0.010592
0.100000 2.426246 0.306012 128 128 255 0.276338 0.018450 -0.960883
1.275107 0.100000 0.100000 128 128 255 -0.187209 -0.119297 0.975049
0.100000 1.465217 0.234782 128 128 255 0.000000 -0.255899 0.966704
2.089906 0.100000 0.100000 128 128 255 0.330270 -0.757932 0.562549
-6.535545 -0.623830 5.959375 128 128 255 -0.042993 0.999068 0.003756
0.100000 0.100000 7.479390 128 128 255 0.545934 0.837825 0.002163
0.886383 -5.759375 0.100000 128 128 255 0.999272 0.036412 -0.011404
0.100000 2.608977 0.123281 128 128 255 0.061200 -0.002122 -0.998123
1.197201 0.100000 0.100000 128 128 255 0.001121 -0.007061 0.999974
0.100000 1.573460 0.126540 128 128 255 -0.000000 -0.049810 0.998759
1.876327 0.100000 0.100000 128 128 255 0.074611 -0.985476 0.152543
-7.066609 -0.092766 5.959375 128 128 255 -0.584123 -0.584877 -0.562778
0.100000 2.297104 0.435154 128 128 255 -0.726094 0.352440 0.590402
0.355319 -5.759375 0.100000 128 128 255 -0.813142 -0.094820 0.574291
0.100000 1.388719 0.311281 128 128 255 0.392451 -0.071098 -0.917021
1.128983 0.100000 0.100000 128 128 255 0.439418 -0.834438 0.332604
-6.160226 -0.999149 5.959375 128 128 255 0.000000 0.993479 -0.114015
1.704151 0.100000 0.100000 128 128 255 0.022223 0.999705 -0.009778
6.297673 1.261702 -5.759375 128 128 255 0.610045 0.531503 0.587664
0.100000 2.479835 0.252423 128 128 255 -0.743248 0.282354 -0.606513
1.251136 0.100000 0.100000 128 128 255 -0.138366 -0.086818 0.986569
0.100000 1.496962 0.203038 128 128 255 0.000000 -0.195833 0.980637
2.022129 0.100000 0.100000 128 128 255 0.253003 -0.866765 0.429776
-6.691290 -0.468085 5.959375 128 128 255 0.023703 -0.999714 0.003309
0.100000 0.100000 -3.063874 128 128 255 0.064482 -0.997914 0.003045
6.828737 0.730638 -5.759375 128 128 255 0.261410 -0.936777 0.232624
0.100000 1.312221 0.387779 128 128 255 0.573565 0.603735 0.553649
1.176275 0.100000 0.100000 128 128 255 0.576179 -0.671433 0.466042
-5.784907 -1.374468 5.959375 128 128 255 -0.000000 0.978217 -0.207583
1.822120 0.100000 0.100000 128 128 255 -0.546550 -0.587493 -0.596771
-7.222354 0.062979 5.959375 128 128 255 0.001532 -0.999999 0.000084
0.100000 0.100000 -4.132250 128 128 255 0.008775 -0.999959 0.002294
7.359800 0.199574 -5.759375 128 128 255 0.196494 -0.961502 0.192102
0.100000 1.420463 0.279537 128 128 255 0.579769 0.594279 0.557405
1.110557 0.100000 0.100000 128 128 255 0.373690 -0.887065 0.271056
-6.315971 -0.843404 5.959375 128 128 255 0.000000 0.996279 -0.086187
1.659812 0.100000 0.100000 128 128 255 0.021362 0.999750 0.006590
6.453418 1.105957 -5.759375 128 128 255 -0.043754 0.999042 -0.000458
0.100000 0.100000 -5.835547 128 128 255 0.519859 0.854248 0.002689
-0.968511 5.959375 0.100000 128 128 255 0.998778 0.049412 -0.000688
0.100000 1.528706 0.171294 128 128 255 -0.055662 -0.067578 -0.996160
1.958816 0.100000 0.100000 128 128 255 0.174683 -0.936615 0.303708
-6.847034 -0.312340 5.959375 128 128 255 0.017168 -0.999851 0.001875
0.100000 0.100000 -3.333538 128 128 255 0.047256 -0.998879 0.002813
6.984481 0.574894 -5.759375 128 128 255 0.026194 -0.999657 0.000000
0.100000 0.100000 37.645893 128 128 255 -0.583618 -0.812028 0.000376
-0.437447 5.959375 0.100000 128 128 255 -0.983815 -0.028844 0.176848
-5.940651 -1.218723 5.959375 128 128 255 0.705824 0.158891 0.690338
1.771123 0.100000 0.100000 128 128 255 -0.550386 0.592659 -0.588073
6.287500 0.100000 -4.587500 128 128 255 0.000000 -1.000000 0.000000
0.100000 0.100000 11.382971 128 128 255 -0.595502 -0.803353 0.001311
0.037447 4.787500 0.100000 128 128 255 -0.999991 -0.004154 0.000915
0.100000 2.614668 0.497096 128 128 255 -0.993271 -0.030125 0.111830
0.225106 -4.587500 0.100000 128 128 255 -0.939074 -0.057921 0.338799
0.100000 1.380271 0.319729 128 128 255 0.476382 -0.106072 -0.872817
1.037520 0.100000 0.100000 128 128 255 0.392683 -0.884500 0.251911
-5.118564 -0.868936 4.787500 128 128 255 -0.068837 0.997621 -0.003720
0.100000 0.100000 7.225957 128 128 255 0.494080 0.869413 0.002260
1.131489 -4.587500 0.100000 128 128 255 0.997658 0.061352 -0.030231
0.100000 2.864581 0.247184 128 128 255 0.293577 0.011123 -0.955871
1.166398 0.100000 0.100000 128 128 255 -0.142830 -0.078850 0.986601
0.100000 1.509014 0.190986 128 128 255 0.000000 -0.161987 0.986793
2.091345 0.100000 0.100000 128 128 255 0.193287 -0.867978 0.457443
-5.649628 -0.337872 4.787500 128 128 255 -0.512833 -0.679090 -0.525204
0.100000 2.438048 0.673717 128 128 255 -0.261188 -0.520328 0.813044
0.600426 -4.587500 0.100000 128 128 255 -0.706898 -0.186935 0.682167
0.100000 1.289284 0.410716 128 128 255 0.330869 -0.025701 -0.943327
1.086908 0.100000 0.100000 128 128 255 0.546028 -0.739296 0.394076
-4.743245 -1.244255 4.787500 128 128 255 -0.000000 0.975487 -0.220057
1.830996 0.100000 0.100000 128 128 255 0.025845 0.993010 -0.115170
4.880692 1.506809 -4.587500 128 128 255 0.594371 0.565899 0.571385
0.100000 2.687960 0.423805 128 128 255 -0.800624 0.191469 -0.567750
1.230765 0.100000 0.100000 128 128 255 -0.299781 -0.173368 0.938123
0.100000 1.418027 0.281973 128 128 255 0.000000 0.597452 -0.801905
1.018447 0.100000 0.100000 128 128 255 0.323236 -0.926979 0.190338
-5.274309 -0.713192 4.787500 128 128 255 0.000000 0.997165 -0.075250
1.630852 0.100000 0.100000 128 128 255 0.020888 0.999700 0.012784
5.411755 0.975745 -4.587500 128 128 255 0.624067 0.562720 0.542113
0.100000 2.937872 0.173892 128 128 255 -0.712111 0.192332 -0.675208
1.141790 0.100000 0.100000 128 128 255 -0.060857 -0.037645 0.997436
0.100000 1.546770 0.153230 128 128 255 -0.000000 -0.094809 0.995495
2.007220 0.100000 0.100000 128 128 255 0.117315 -0.946672 0.300084
-5.805372 -0.182128 4.787500 128 128 255 0.013654 -0.999905 0.001956
0.100000 0.100000 -2.898413 128 128 255 0.040413 -0.999178 0.003175
5.942819 0.444681 -4.587500 128 128 255 0.261511 -0.934011 0.243385
0.100000 1.327041 0.372959 128 128 255 0.573198 0.607131 0.550306
1.065796 0.100000 0.100000 128 128 255 0.486171 -0.806135 0.337319
-4.898989 -1.088511 4.787500 128 128 255 0.000000 0.986315 -0.164874
1.767076 0.100000 0.100000 128 128 255 0.023833 0.998148 -0.055967
5.036436 1.351064 -4.587500 128 128 255 -0.064532 0.997912 -0.002710
0.100000 0.100000 -4.073877 128 128 255 0.440951 0.897523 0.003868
-1.213617 4.787500 0.100000 128 128 255 0.997398 0.072026 -0.002920
0.100000 1.455783 0.244217 128 128 255 -0.094009 -0.194480 -0.976391
2.223392 0.100000 0.100000 128 128 255 0.294947 -0.652897 0.697662
-5.430053 -0.557447 4.787500 128 128 255 0.031929 -0.999452 0.008698
0.100000 0.100000 -2.323898 128 128 255 0.091342 -0.995812 0.003890
5.567500 0.820000 -4.587500 128 128 255 -0.041769 0.999127 0.000000
0.100000 0.100000 -6.080963 128 128 255 0.509748 0.860320 0.002610
-0.682553 4.787500 0.100000 128 128 255 0.999088 0.042693 -0.000132
0.100000 1.584526 0.115474 128 128 255 -0.018432 -0.025936 -0.999494
1.929914 0.100000 0.100000 128 128 255 0.049149 -0.984116 0.170585
-5.961117 -0.026383 4.787500 128 128 255 0.006104 -0.999981 0.000645
0.100000 0.100000 -3.189402 128 128 255 0.021137 -0.999772 0.002903
6.098564 0.288936 -4.587500 128 128 255 0.012028 -0.999928 0.000000
0.100000 0.100000 14.871838 128 128 255 -0.579705 -0.814826 0.000977
-0.151489 4.787500 0.100000 128 128 255 -0.907738 -0.026147 0.418721
-5.054734 -0.932766 4.787500 128 128 255 0.693417 0.163865 0.701656
1.707710 0.100000 0.100000 128 128 255 0.022354 0.999588 -0.018002
5.192181 1.195319 -4.587500 128 128 255 -0.056305 0.998413 -0.001368
0.100000 0.100000 -4.544770 128 128 255 0.463397 0.886144 0.003469
-1.057872 4.787500 0.100000 128 128 255 0.997360 0.072612 0.000000
0.100000 0.100000 8.227933 128 128 255 0.987858 0.155351 0.001445
1.320426 -4.587500 0.100000 128 128 255 0.645086 -0.026176 -0.763661
-5.585798 -0.401702 4.787500 128 128 255 -0.595342 -0.404248 -0.694372
0.100000 0.100000 -2.543492 128 128 255 0.069405 -0.997582 0.003583
5.723245 0.664255 -4.587500 128 128 255 0.039524 -0.999219 0.000000
0.100000 0.100000 47.119110 128 128 255 -0.545093 -0.838376 0.000293
-0.526809 4.787500 0.100000 128 128 255 -0.999123 -0.041839 0.001549
0.100000 2.349136 0.762628 128 128 255 -0.947607 -0.201570 0.247812
0.789362 -4.587500 0.100000 128 128 255 0.707564 0.026967 0.706134
4.816862 1.570638 -4.587500 128 128 255 0.615598 0.474232 0.629399
0.100000 0.100000 -3.520642 128 128 255 -0.824970 -0.440793 -0.353731
6.254309 0.133191 -4.587500 128 128 255 0.002036 -0.999998 -0.000000
0.100000 0.100000 11.856634 128 128 255 -0.592793 -0.805354 0.001253
0.004255 4.787500 0.100000 128 128 255 -0.999979 -0.006378 0.001321
0.100000 2.599049 0.512716 128 128 255 -0.990432 -0.040665 0.131875
0.258298 -4.587500 0.100000 128 128 255 0.681413 -0.020362 0.731616
5.347926 1.039575 -4.587500 128 128 255 0.562837 0.557213 0.610515
0.100000 0.100000 -5.100900 128 128 255 0.483832 0.875156 0.003097
-0.902128 4.787500 0.100000 128 128 255 0.998126 0.061191 0.000000
0.100000 0.100000 7.379447 128 128 255 0.990973 0.134049 0.001645
1.164681 -4.587500 0.100000 128 128 255 0.997508 0.063817 -0.030100
0.100000 2.848961 0.262803 128 128 255 0.309670 0.013979 -0.950741
1.171793 0.100000 0.100000 128 128 255 0.476066 0.673641 0.565304
5.878989 0.508511 -4.587500 128 128 255 0.028976 -0.999580 0.000332
0.100000 0.100000 24.265896 128 128 255 -0.560047 -0.828460 0.000581
-0.371064 4.787500 0.100000 128 128 255 -0.999493 -0.031736 0.002525
0.100000 2.422428 0.689337 128 128 255 -0.958273 -0.155597 0.239796
0.633617 -4.587500 0.100000 128 128 255 -0.694348 -0.196619 0.692259
0.100000 1.281238 0.418762 128 128 255 0.325014 -0.021148 -0.945473
1.091528 0.100000 0.100000 128 128 255 0.557860 -0.724099 0.405552
-4.710053 -1.277447 4.787500 128 128 255 -0.102396 0.994737 -0.003534
0.100000 0.100000 9.957834 128 128 255 0.467994 0.883730 0.001609
1.540000 -4.587500 0.100000 128 128 255 0.995420 0.092228 -0.025144
0.100000 2.672340 0.439424 128 128 255 0.111153 0.136343 -0.984406
0.102553 -4.587500 0.100000 128 128 255 -0.999962 -0.001212 0.008610
0.100000 1.409981 0.290019 128 128 255 0.614054 -0.166333 -0.771538
1.022447 0.100000 0.100000 128 128 255 0.338099 -0.918867 0.203402
-5.241117 -0.746383 4.787500 128 128 255 -0.059295 0.998234 -0.003563
0.100000 0.100000 6.723547 128 128 255 0.501862 0.864944 0.002435
1.008936 -4.587500 0.100000 128 128 255 0.998169 0.052396 -0.030219
0.100000 2.922253 0.189512 128 128 255 0.217963 0.002376 -0.975954
1.146938 0.100000 0.100000 128 128 255 -0.079088 -0.046469 0.995784
0.100000 1.538723 0.161277 128 128 255 -0.000000 -0.109171 0.994023
2.024547 0.100000 0.100000 128 128 255 0.133022 -0.934048 0.331450
-5.772181 -0.215319 4.787500 128 128 255 -0.531207 -0.673500 -0.514020
0.100000 2.495720 0.616045 128 128 255 -0.114901 -0.365004 0.923888
0.477872 -4.587500 0.100000 128 128 255 -0.763485 -0.149789 0.628215
0.100000 1.318994 0.381006 128 128 255 0.358417 -0.044638 -0.932494
1.070219 0.100000 0.100000 128 128 255 0.499477 -0.792581 0.349770
-4.865798 -1.121702 4.787500 128 128 255 -0.000000 0.984466 -0.175572
1.780300 0.100000 0.100000 128 128 255 0.024211 0.997494 -0.066484
5.003245 1.384255 -4.587500 128 128 255 0.600748 0.564977 0.565599
0.100000 2.745632 0.366133 128 128 255 -0.780109 0.198296 -0.593387
1.208909 0.100000 0.100000 128 128 255 -0.254971 -0.143479 0.956245
0.100000 1.447737 0.252263 128 128 255 0.000000 -0.268308 0.963333
2.244891 0.100000 0.100000 128 128 255 0.307248 -0.609316 0.730981
-5.396862 -0.590638 4.787500 128 128 255 0.033550 -0.999391 0.009633
0.100000 0.100000 -2.280074 128 128 255 0.096171 -0.995357 0.003958
5.534308 0.853191 -4.587500 128 128 255 0.400009 -0.864806 0.303487
0.100000 2.995544 0.116220 128 128 255 -0.692694 0.182930 -0.697647
1.123210 0.100000 0.100000 128 128 255 0.009602 -0.005091 0.999941
0.100000 1.576480 0.123520 128 128 255 -0.000000 -0.041779 0.999127
1.945859 0.100000 0.100000 128 128 255 0.062849 -0.978637 0.195752
-5.927926 -0.059574 4.787500 128 128 255 0.007711 -0.999970 0.000871
0.100000 0.100000 -3.124274 128 128 255 0.025159 -0.999679 0.002960
6.065372 0.322128 -4.587500 128 128 255 0.244658 -0.941180 0.233072
0.100000 1.356750 0.343250 128 128 255 0.575571 0.604146 0.551113
1.049807 0.100000 0.100000 128 128 255 0.434966 -0.852424 0.290132
-5.021543 -0.965957 4.787500 128 128 255 -0.000000 0.991548 -0.129742
1.720004 0.100000 0.100000 128 128 255 0.022633 0.999438 -0.024726
5.158989 1.228511 -4.587500 128 128 255 -0.058057 0.998312 -0.001609
0.100000 0.100000 -4.437976 128 128 255 0.458793 0.888536 0.003552
-1.091064 4.787500 0.100000 128 128 255 0.997858 0.065389 -0.001958
0.100000 1.485493 0.214507 128 128 255 -0.083459 -0.158115 -0.983887
2.147609 0.100000 0.100000 128 128 255 0.241025 -0.789347 0.564658
-5.552607 -0.434894 4.787500 128 128 255 0.025951 -0.999646 0.005793
0.100000 0.100000 -2.494657 128 128 255 0.073981 -0.997253 0.003647
5.690053 0.697447 -4.587500 128 128 255 0.042222 -0.999108 -0.000000
0.100000 0.100000 59.576973 128 128 255 -0.541783 -0.840519 0.000231
-0.560000 4.787500 0.100000 128 128 255 -0.995787 -0.042520 0.081248
-4.646224 -1.341277 4.787500 128 128 255 0.708338 0.210285 0.673823
1.873353 0.100000 0.100000 128 128 255 -0.528037 -0.593075 -0.607814
-6.083670 0.096170 4.787500 128 128 255 0.000185 -1.000000 0.000015
0.100000 0.100000 -3.446264 128 128 255 0.006674 -0.999974 0.002698
6.221117 0.166383 -4.587500 128 128 255 0.004103 -0.999992 -0.000000
0.100000 0.100000 12.378498 128 128 255 -0.590057 -0.807361 0.001194
-0.028936 4.787500 0.100000 128 128 255 -0.850258 -0.026576 0.525695
-5.177287 -0.810213 4.787500 128 128 255 0.689002 0.150066 0.709053
1.663886 0.100000 0.100000 128 128 255 0.021463 0.999768 0.001764
5.314734 1.072766 -4.587500 128 128 255 -0.049849 0.998757 -0.000657
0.100000 0.100000 -4.974099 128 128 255 0.479631 0.877464 0.003174
-0.935319 4.787500 0.100000 128 128 255 0.997977 0.063575 -0.000000
0.100000 0.100000 7.541545 128 128 255 0.990351 0.138569 0.001603
1.197872 -4.587500 0.100000 128 128 255 0.552654 -0.046652 -0.832104
-5.708351 -0.279149 4.787500 128 128 255 -0.593727 -0.414193 -0.689878
0.100000 0.100000 -2.734363 128 128 255 0.052953 -0.998591 0.003352
5.845798 0.541702 -4.587500 128 128 255 0.029961 -0.999551 0.000000
0.100000 0.100000 26.981625 128 128 255 -0.556936 -0.830555 0.000520
-0.404255 4.787500 0.100000 128 128 255 -0.999421 -0.033929 0.002376
0.100000 2.406809 0.704956 128 128 255 -0.955888 -0.165465 0.242693
0.666808 -4.587500 0.100000 128 128 255 0.701640 0.016352 0.712344
4.939415 1.448085 -4.587500 128 128 255 0.605251 0.489289 0.627908
0.100000 0.100000 -3.815355 128 128 255 0.425810 0.904803 0.004132
-1.310638 4.787500 0.100000 128 128 255 0.995713 0.092493 0.000000
0.100000 0.100000 10.301126 128 128 255 0.981710 0.190381 0.001112
1.573192 -4.587500 0.100000 128 128 255 0.995202 0.094739 -0.024438
0.100000 2.656721 0.455044 128 128 255 0.116818 0.143292 -0.982762
0.135745 -4.587500 0.100000 128 128 255 0.675196 -0.031768 0.736954
5.470479 0.917021 -4.587500 128 128 255 0.546836 0.583638 0.600281
0.100000 0.100000 -5.614707 128 128 255 0.498679 0.866782 0.002820
-0.779574 4.787500 0.100000 128 128 255 0.998615 0.052614 0.000000
0.100000 0.100000 6.850536 128 128 255 0.993076 0.117461 0.001800
1.042128 -4.587500 0.100000 128 128 255 0.998038 0.054796 -0.030302
0.100000 2.906633 0.205131 128 128 255 0.241521 0.004406 -0.970386
1.152138 0.100000 0.100000 128 128 255 0.471916 0.715345 0.515341
6.001543 0.385957 -4.587500 128 128 255 0.020040 -0.999799 0.000330
0.100000 0.100000 17.847235 128 128 255 -0.571207 -0.820805 0.000803
-0.248511 4.787500 0.100000 128 128 255 -0.999720 -0.023512 0.002752
0.100000 2.480100 0.631665 128 128 255 -0.967775 -0.118804 0.222028
0.511064 -4.587500 0.100000 128 128 255 -0.746391 -0.160119 0.645958
0.100000 1.310948 0.389052 128 128 255 0.349862 -0.039115 -0.935984
1.074683 0.100000 0.100000 128 128 255 0.512501 -0.778632 0.362043
-4.832606 -1.154894 4.787500 128 128 255 -0.092049 0.995748 -0.003705
0.100000 0.100000 8.895116 128 128 255 0.475802 0.879551 0.001815
1.417447 -4.587500 0.100000 128 128 255 0.996180 0.082913 -0.027406
0.100000 2.730012 0.381752 128 128 255 0.398377 0.039648 -0.916364
1.214744 0.100000 0.100000 128 128 255 -0.267714 -0.151675 0.951485
0.100000 1.439690 0.260309 128 128 255 0.000000 -0.281857 0.959456
2.266831 0.100000 0.100000 128 128 255 0.318250 -0.563407 0.762423
-5.363670 -0.623830 4.787500 128 128 255 -0.054672 0.998470 0.008226
0.100000 0.100000 6.303512 128 128 255 0.509571 0.860425 0.002600
0.886383 -4.587500 0.100000 128 128 255 0.998611 0.043732 -0.029375
0.100000 2.979925 0.131840 128 128 255 0.099401 -0.001629 -0.995046
1.128176 0.100000 0.100000 128 128 255 -0.009933 -0.013886 0.999854
0.100000 1.568433 0.131567 128 128 255 0.000000 -0.056128 0.998424
1.962084 0.100000 0.100000 128 128 255 0.077008 -0.971951 0.222217
-5.894734 -0.092766 4.787500 128 128 255 -0.549474 -0.667955 -0.501910
0.100000 2.553392 0.558373 128 128 255 0.036983 -0.195286 0.980049
0.355319 -4.587500 0.100000 128 128 255 -0.839791 -0.108914 0.531873
0.100000 1.348704 0.351296 128 128 255 0.400456 -0.068831 -0.913727
1.054085 0.100000 0.100000 128 128 255 0.449120 -0.840500 0.303068
-4.988351 -0.999149 4.787500 128 128 255 0.000000 0.990346 -0.138617
1.732489 0.100000 0.100000 128 128 255 0.022930 0.999221 -0.032133
5.125798 1.261702 -4.587500 128 128 255 0.607405 0.564184 0.559246
0.100000 2.803304 0.308461 128 128 255 -0.759450 0.200986 -0.618741
1.187882 0.100000 0.100000 128 128 255 -0.203937 -0.112598 0.972487
0.100000 1.477447 0.222553 128 128 255 0.000000 -0.217358 0.976092
2.167594 0.100000 0.100000 128 128 255 0.256649 -0.756462 0.601578
-5.519415 -0.468085 4.787500 128 128 255 0.027569 -0.999599 0.006501
0.100000 0.100000 -2.446959 128 128 255 0.078611 -0.996898 0.003712
5.656862 0.730638 -4.587500 128 128 255 0.299334 -0.916434 0.265609
0.100000 1.257718 0.442282 128 128 255 0.566191 0.616288 0.547373
1.105282 0.100000 0.100000 128 128 255 0.590355 -0.678207 0.437627
-4.613032 -1.374468 4.787500 128 128 255 -0.000000 0.960840 -0.277105
1.888323 0.100000 0.100000 128 128 255 -0.525044 -0.593943 -0.609557
-6.050479 0.062979 4.787500 128 128 255 0.001786 -0.999998 0.000156
0.100000 0.100000 -3.374016 128 128 255 0.010531 -0.999941 0.002753
6.187925 0.199574 -4.587500 128 128 255 0.227494 -0.948056 0.222345
0.100000 1.386460 0.313540 128 128 255 0.577694 0.601538 0.551744
1.034339 0.100000 0.100000 128 128 255 0.381385 -0.892232 0.241799
-5.144096 -0.843404 4.787500 128 128 255 0.000000 0.994923 -0.100640
1.675518 0.100000 0.100000 128 128 255 0.021685 0.999761 -0.002879
5.281543 1.105957 -4.587500 128 128 255 -0.051595 0.998668 -0.000824
0.100000 0.100000 -4.852009 128 128 255 0.475349 0.879791 0.003252
-0.968511 4.787500 0.100000 128 128 255 0.998278 0.058648 -0.001206
0.100000 1.515203 0.184797 128 128 255 -0.070043 -0.121524 -0.990114
2.077049 0.100000 0.100000 128 128 255 0.180560 -0.884566 0.430047
-5.675159 -0.312340 4.787500 128 128 255 0.019983 -0.999794 0.003621
0.100000 0.100000 -2.680954 128 128 255 0.057340 -0.998349 0.003414
5.812606 0.574894 -4.587500 128 128 255 0.032491 -0.999472 0.000000
0.100000 0.100000 30.436714 128 128 255 -0.553785 -0.832659 0.000459
-0.437447 4.787500 0.100000 128 128 255 -0.984151 -0.035188 0.173809
-4.768776 -1.218723 4.787500 128 128 255 0.703793 0.196329 0.682738
1.820184 0.100000 0.100000 128 128 255 -0.556968 0.549974 -0.622346
5.115625 0.100000 -3.415625 128 128 255 0.000000 -1.000000 0.000000
0.100000 0.100000 8.937228 128 128 255 -0.562306 -0.826928 0.001670
0.037447 3.615625 0.100000 128 128 255 -0.999968 -0.006601 0.004434
0.100000 3.204592 0.727966 128 128 255 -0.993441 -0.037170 0.108139
0.225106 -3.415625 0.100000 128 128 255 -0.954062 -0.064484 0.292587
0.100000 1.328932 0.371068 128 128 255 0.455587 -0.088115 -0.885819
0.933354 0.100000 0.100000 128 128 255 0.409467 -0.889397 0.203247
-3.946689 -0.868936 3.615625 128 128 255 -0.090437 0.995880 -0.006698
0.100000 0.100000 5.819468 128 128 255 0.430166 0.902745 0.002845
1.131489 -3.415625 0.100000 128 128 255 0.986960 0.085091 -0.136633
0.100000 3.599802 0.332756 128 128 255 0.477009 0.039560 -0.878008
1.072675 0.100000 0.100000 128 128 255 -0.241748 -0.107103 0.964410
0.100000 1.487755 0.212245 128 128 255 0.000000 -0.174306 0.984692
2.335427 0.100000 0.100000 128 128 255 0.177187 -0.536064 0.825373
-4.477753 -0.337872 3.615625 128 128 255 0.021420 -0.999001 -0.039219
0.100000 2.925285 1.007274 128 128 255 0.226331 -0.544730 0.807492
0.600426 -3.415625 0.100000 128 128 255 -0.769241 -0.215737 0.601436
0.100000 1.216687 0.483313 128 128 255 0.349310 0.002614 -0.937004
0.985898 0.100000 0.100000 128 128 255 0.572646 -0.743463 0.345455
-3.571370 -1.244255 3.615625 128 128 255 -0.000000 0.941224 -0.337783
1.924660 0.100000 0.100000 128 128 255 0.030302 0.944183 -0.328026
3.708817 1.506809 -3.415625 128 128 255 0.397272 0.862212 0.314269
0.100000 3.320495 0.612063 128 128 255 -0.815036 0.170994 -0.553604
1.145018 0.100000 0.100000 128 128 255 -0.453036 -0.218139 0.864392
0.100000 1.375510 0.324490 128 128 255 0.000000 0.777023 -0.629472
0.913336 0.100000 0.100000 128 128 255 0.335964 -0.930987 0.142802
-4.102434 -0.713192 3.615625 128 128 255 0.000000 0.996100 -0.088226
1.641419 0.100000 0.100000 128 128 255 0.021103 0.999762 0.005472
4.239880 0.975745 -3.415625 128 128 255 0.407893 0.910927 -0.061929
0.100000 3.715705 0.216853 128 128 255 -0.717578 0.087967 -0.690900
1.045513 0.100000 0.100000 128 128 255 -0.115857 -0.054886 0.991748
0.100000 1.534333 0.165667 128 128 255 -0.000000 -0.103339 0.994646
2.196983 0.100000 0.100000 128 128 255 0.120518 -0.798474 0.589842
-4.633497 -0.182128 3.615625 128 128 255 0.016272 -0.999857 0.004503
0.100000 0.100000 -2.212679 128 128 255 0.051068 -0.998687 0.004013
4.770944 0.444681 -3.415625 128 128 255 0.306182 -0.908499 0.284397
0.100000 1.263265 0.436735 128 128 255 0.562138 0.624184 0.542582
0.963310 0.100000 0.100000 128 128 255 0.508903 -0.811128 0.288252
-3.727114 -1.088511 3.615625 128 128 255 0.000000 0.971994 -0.235005
1.831359 0.100000 0.100000 128 128 255 0.026260 0.987351 -0.156361
3.864561 1.351064 -3.415625 128 128 255 -0.078427 0.996903 -0.005829
0.100000 0.100000 -3.208957 128 128 255 0.355665 0.934601 0.004905
-1.213617 3.615625 0.100000 128 128 255 0.996183 0.087092 -0.005827
0.100000 1.422088 0.277912 128 128 255 -0.191413 -0.824321 -0.532782
2.564851 0.100000 0.100000 128 128 255 0.191065 -0.073460 0.978825
-4.258178 -0.557447 3.615625 128 128 255 0.037918 -0.999046 0.021645
0.100000 0.100000 -1.725743 128 128 255 0.117405 -0.993071 0.005000
4.395625 0.820000 -3.415625 128 128 255 -0.052455 0.998623 0.000000
0.100000 0.100000 -4.910085 128 128 255 0.453508 0.891246 0.003259
-0.682553 3.615625 0.100000 128 128 255 0.998609 0.052717 -0.000263
0.100000 1.580911 0.119089 128 128 255 -0.037840 -0.088732 -0.995337
2.074687 0.100000 0.100000 128 128 255 0.052020 -0.933823 0.353934
-4.789242 -0.026383 3.615625 128 128 255 0.007287 -0.999972 0.001445
0.100000 0.100000 -2.459310 128 128 255 0.026528 -0.999641 0.003643
4.926689 0.288936 -3.415625 128 128 255 0.015496 -0.999880 0.000000
0.100000 0.100000 11.553878 128 128 255 -0.541087 -0.840966 0.001246
-0.151489 3.615625 0.100000 128 128 255 -0.914784 -0.032932 0.402598
-3.882859 -0.932766 3.615625 128 128 255 0.686803 0.212589 0.695060
1.747135 0.100000 0.100000 128 128 255 0.023500 0.997840 -0.061351
4.020306 1.195319 -3.415625 128 128 255 -0.068508 0.997646 -0.002883
0.100000 0.100000 -3.608068 128 128 255 0.388111 0.921602 0.004378
-1.057872 3.615625 0.100000 128 128 255 0.995661 0.093059 0.000000
0.100000 0.100000 6.570950 128 128 255 0.979647 0.200719 0.001867
1.320426 -3.415625 0.100000 128 128 255 0.701034 -0.032316 -0.712395
-4.413923 -0.401702 3.615625 128 128 255 -0.577021 -0.416619 -0.702478
0.100000 0.100000 -1.911862 128 128 255 0.088573 -0.996059 0.004573
4.551370 0.664255 -3.415625 128 128 255 0.052419 -0.998625 0.000000
0.100000 0.100000 35.739334 128 128 255 -0.493658 -0.869656 0.000376
-0.526809 3.615625 0.100000 128 128 255 -0.998217 -0.059205 0.007590
0.100000 2.784681 1.147877 128 128 255 -0.927817 -0.243472 0.282625
0.789362 -3.415625 0.100000 128 128 255 0.698675 0.027760 0.714900
3.644987 1.570638 -3.415625 128 128 255 0.607725 0.488909 0.625810
0.100000 0.100000 -2.740056 128 128 255 -0.824970 -0.440793 -0.353731
5.082434 0.133191 -3.415625 128 128 255 0.002595 -0.999997 -0.000000
0.100000 0.100000 9.292476 128 128 255 -0.558685 -0.829378 0.001596
0.004255 3.615625 0.100000 128 128 255 -0.999928 -0.010130 0.006405
0.100000 3.179891 0.752667 128 128 255 -0.989717 -0.050129 0.133964
0.258298 -3.415625 0.100000 128 128 255 0.668361 -0.028053 0.743308
4.176051 1.039575 -3.415625 128 128 255 0.551003 0.566529 0.612732
0.100000 0.100000 -4.079421 128 128 255 0.417220 0.908797 0.003890
-0.902128 3.615625 0.100000 128 128 255 0.996964 0.077867 0.000000
0.100000 0.100000 5.934585 128 128 255 0.984911 0.173046 0.002124
1.164681 -3.415625 0.100000 128 128 255 0.986707 0.089238 -0.135815
0.100000 3.575101 0.357457 128 128 255 0.495834 0.045367 -0.867232
1.078666 0.100000 0.100000 128 128 255 0.422299 0.620269 0.661007
4.707114 0.508511 -3.415625 128 128 255 0.038492 -0.999259 0.000633
0.100000 0.100000 18.599421 128 128 255 -0.514313 -0.857602 0.000743
-0.371064 3.615625 0.100000 128 128 255 -0.998791 -0.047584 0.012348
0.100000 2.900584 1.031974 128 128 255 -0.943507 -0.188994 0.272168
0.633617 -3.415625 0.100000 128 128 255 -0.758674 -0.227386 0.610499
0.100000 1.206761 0.493239 128 128 255 0.344847 0.008589 -0.938620
0.990865 0.100000 0.100000 128 128 255 0.585232 -0.728005 0.357090
-3.538178 -1.277447 3.615625 128 128 255 -0.137059 0.990541 -0.006603
0.100000 0.100000 7.868375 128 128 255 0.390815 0.920467 0.002050
1.540000 -3.415625 0.100000 128 128 255 0.984312 0.135712 -0.112749
0.100000 3.295794 0.636764 128 128 255 0.177715 0.217989 -0.959634
0.102553 -3.415625 0.100000 128 128 255 -0.999971 -0.001352 0.007464
0.100000 1.365584 0.334416 128 128 255 0.547192 -0.142476 -0.824791
0.917521 0.100000 0.100000 128 128 255 0.351660 -0.923111 0.155567
-4.069242 -0.746383 3.615625 128 128 255 -0.077462 0.996975 -0.006345
0.100000 0.100000 5.442660 128 128 255 0.441788 0.897114 0.003053
1.008936 -3.415625 0.100000 128 128 255 0.988006 0.070018 -0.137628
0.100000 3.691005 0.241554 128 128 255 0.381149 0.019443 -0.924309
1.051174 0.100000 0.100000 128 128 255 -0.144490 -0.066224 0.987288
0.100000 1.524406 0.175594 128 128 255 -0.000000 -0.118673 0.992933
2.225030 0.100000 0.100000 128 128 255 0.134624 -0.753491 0.643527
-4.600306 -0.215319 3.615625 128 128 255 -0.027237 -0.999247 0.027615
0.100000 3.016487 0.916071 128 128 255 0.279506 -0.452222 0.846978
0.477872 -3.415625 0.100000 128 128 255 -0.816090 -0.171232 0.551976
0.100000 1.253339 0.446661 128 128 255 0.370214 -0.021234 -0.928704
0.968027 0.100000 0.100000 128 128 255 0.523077 -0.797458 0.300753
-3.693923 -1.121702 3.615625 128 128 255 -0.000000 0.967119 -0.254323
1.850434 0.100000 0.100000 128 128 255 0.027008 0.982378 -0.184943
3.831370 1.384255 -3.415625 128 128 255 0.407772 0.877543 0.252271
0.100000 3.411697 0.520861 128 128 255 -0.792062 0.156776 -0.589965
