ply
format ascii 1.0
element vertex 694
property float x
property float y
property float z
property uchar red
property uchar green
property uchar blue
property float nx
property float ny
property float nz
end_header
-1.125703 0.076482 0.232908 128 128 255 0.976923 -0.192060 -0.093459
0.399251 -0.646393 0.187181 128 128 255 -0.652625 0.757599 -0.011178
3.003599 2.769568 0.527617 128 128 255 -0.654068 -0.747436 -0.116339
-0.582881 0.442804 0.182839 128 128 255 0.749434 -0.660504 -0.045637
-0.043356 -1.285244 0.250982 128 128 255 -0.209500 0.977204 -0.034375
1.864956 0.567630 0.297948 128 128 255 -0.981151 -0.150207 -0.121578
-0.317592 0.683549 0.177795 128 128 255 0.751167 -0.659803 -0.020198
-1.767640 -2.704210 0.465271 128 128 255 0.384299 0.918615 -0.091984
0.991044 -0.104339 0.199109 128 128 255 -0.875952 0.478537 -0.060921
-0.036730 1.094014 0.208780 128 128 255 0.458741 -0.888418 -0.016452
-2.443641 -1.285695 0.414031 128 128 255 0.867408 0.480598 -0.128951
0.634770 -0.359516 0.176440 128 128 255 -0.713611 0.699424 -0.039552
0.837180 2.133812 0.334531 128 128 255 -0.086616 -0.994281 -0.062481
-1.117407 0.082482 0.231998 128 128 255 0.975703 -0.198487 -0.092773
0.396643 -0.650286 0.187468 128 128 255 -0.649525 0.760258 -0.011156
3.010644 2.750396 0.526778 128 128 255 -0.658961 -0.743064 -0.116730
-0.579494 0.445194 0.182628 128 128 255 0.747295 -0.662931 -0.045517
-0.051157 -1.295234 0.252148 128 128 255 -0.204010 0.978348 -0.034852
1.851497 0.555085 0.296192 128 128 255 -0.982241 -0.143225 -0.121196
-0.315337 0.686320 0.177898 128 128 255 0.750594 -0.660466 -0.019845
-1.794759 -2.715564 0.467930 128 128 255 0.390076 0.916120 -0.092542
0.985960 -0.107651 0.198653 128 128 255 -0.873419 0.483207 -0.060417
-0.032683 1.100104 0.209375 128 128 255 0.454291 -0.890697 -0.016686
-2.427744 -1.261354 0.411259 128 128 255 0.870728 0.474538 -0.129019
0.632252 -0.361809 0.176396 128 128 255 -0.714612 0.698417 -0.039291
0.853946 2.149333 0.336735 128 128 255 -0.092625 -0.993701 -0.063079
-1.109193 0.088400 0.231099 128 128 255 0.974444 -0.204888 -0.092085
0.394020 -0.654210 0.187760 128 128 255 -0.646393 0.762924 -0.011140
3.016978 2.730684 0.525851 128 128 255 -0.663831 -0.738656 -0.117116
-0.576131 0.447575 0.182420 128 128 255 0.745193 -0.665302 -0.045401
-0.059073 -1.305325 0.253330 128 128 255 -0.198503 0.979463 -0.035334
1.838154 0.542729 0.294457 128 128 255 -0.983283 -0.136238 -0.120805
-0.313082 0.689107 0.178004 128 128 255 0.749952 -0.661205 -0.019500
-1.821903 -2.726536 0.470564 128 128 255 0.395841 0.913588 -0.093099
0.980921 -0.110932 0.198204 128 128 255 -0.870875 0.487838 -0.059921
-0.028590 1.106252 0.209979 128 128 255 0.449818 -0.892960 -0.016925
-2.411745 -1.237236 0.408496 128 128 255 0.874010 0.468449 -0.129080
0.629745 -0.364106 0.176355 128 128 255 -0.715657 0.697361 -0.039021
0.870953 2.164943 0.338963 128 128 255 -0.098636 -0.993084 -0.063677
-1.101061 0.094239 0.230213 128 128 255 0.973147 -0.211261 -0.091396
0.391380 -0.658166 0.188057 128 128 255 -0.643227 0.765594 -0.011129
3.022602 2.710447 0.524840 128 128 255 -0.668676 -0.734212 -0.117498
-0.572792 0.449949 0.182217 128 128 255 0.743128 -0.667615 -0.045291
-0.067107 -1.315516 0.254528 128 128 255 -0.192979 0.980549 -0.035820
1.824925 0.530560 0.292744 128 128 255 -0.984275 -0.129247 -0.120405
-0.310826 0.691909 0.178113 128 128 255 0.749241 -0.662020 -0.019161
-1.849057 -2.737110 0.473171 128 128 255 0.401595 0.911016 -0.093653
0.975928 -0.114184 0.197761 128 128 255 -0.868320 0.492430 -0.059432
-0.024451 1.112459 0.210591 128 128 255 0.445321 -0.895206 -0.017170
-2.395655 -1.213346 0.405742 128 128 255 0.877253 0.462332 -0.129132
0.627248 -0.366407 0.176316 128 128 255 -0.716745 0.696259 -0.038741
0.888203 2.180637 0.341214 128 128 255 -0.104649 -0.992430 -0.064276
-1.093009 0.100000 0.229339 128 128 255 0.774157 -0.626102 -0.093158
0.338252 0.833265 -1.787513 128 128 255 0.912134 -0.388398 -0.130989
-0.385823 0.076680 -1.090729 128 128 255 0.832350 -0.219694 0.508850
0.219661 -0.175252 -0.634776 128 128 255 -0.424357 0.904837 0.034502
1.182687 1.154496 -3.599984 128 128 255 -0.628384 0.388466 0.673964
-0.167668 0.224859 -0.623075 128 128 255 0.733370 -0.649789 0.199857
0.062397 -0.404873 -1.139421 128 128 255 0.660852 0.732186 0.164859
0.802941 0.308068 -1.694699 128 128 255 -0.671268 0.155096 0.724807
-0.063983 0.315753 -0.563438 128 128 255 0.559897 -0.823331 0.092961
-0.548983 -0.937974 -2.896909 128 128 255 0.809390 -0.298371 0.505829
0.450894 0.030094 -0.775917 128 128 255 -0.848120 0.441197 0.293322
0.039106 0.464635 -0.805039 128 128 255 0.006879 -0.998637 0.051736
-0.902723 -0.484279 -2.741140 128 128 255 0.557829 -0.278037 0.781999
0.309241 -0.069579 -0.559356 128 128 255 -0.598727 0.780953 0.177874
0.344011 0.838910 -1.805035 128 128 255 -0.937670 -0.083528 0.337339
-0.382471 0.079160 -1.082256 128 128 255 0.834428 -0.223103 0.503939
0.218701 -0.176665 -0.637020 128 128 255 -0.419279 0.907215 0.034158
1.186974 1.148560 -3.597406 128 128 255 -0.625454 0.387864 0.677029
-0.166322 0.225790 -0.621061 128 128 255 0.730477 -0.653267 0.199111
0.059677 -0.408451 -1.148665 128 128 255 0.672571 0.720688 0.168098
0.797563 0.302842 -1.678465 128 128 255 -0.674825 0.154163 0.721696
-0.063124 0.316773 -0.564163 128 128 255 0.559080 -0.824108 0.090968
-0.559130 -0.943041 -2.920633 128 128 255 0.805595 -0.302749 0.509273
0.448852 0.028759 -0.771663 128 128 255 -0.846750 0.445856 0.290219
0.040547 0.466824 -0.809753 128 128 255 -0.004920 -0.998587 0.052912
-0.897001 -0.474556 -2.717084 128 128 255 0.558369 -0.274899 0.782722
0.308257 -0.070443 -0.558825 128 128 255 -0.596959 0.782482 0.177092
0.349855 0.844595 -1.822758 128 128 255 -0.937377 -0.072550 0.340676
-0.379153 0.081606 -1.073895 128 128 255 0.836438 -0.226575 0.499034
0.217736 -0.178089 -0.639301 128 128 255 -0.414094 0.909605 0.033840
1.190997 1.142385 -3.594041 128 128 255 -0.622570 0.387181 0.680071
-0.164987 0.226717 -0.619082 128 128 255 0.727576 -0.656713 0.198397
0.056918 -0.412066 -1.158034 128 128 255 0.684072 0.709000 0.171358
0.792228 0.297695 -1.662424 128 128 255 -0.678402 0.153316 0.718515
-0.062266 0.317799 -0.564915 128 128 255 0.558209 -0.824913 0.089000
-0.569318 -0.947998 -2.944251 128 128 255 0.801787 -0.307012 0.512719
0.446829 0.027438 -0.767467 128 128 255 -0.845328 0.450506 0.287168
0.042004 0.469034 -0.814533 128 128 255 -0.016859 -0.998392 0.054128
-0.891212 -0.464905 -2.693042 128 128 255 0.558990 -0.271755 0.783377
0.307278 -0.071308 -0.558319 128 128 255 -0.595249 0.783970 0.176268
0.355786 0.850318 -1.840682 128 128 255 -0.936935 -0.061709 0.344012
-0.375868 0.084017 -1.065645 128 128 255 0.838378 -0.230109 0.494137
0.216766 -0.179524 -0.641619 128 128 255 -0.408801 0.912007 0.033549
1.194754 1.135976 -3.589894 128 128 255 -0.619734 0.386417 0.683089
-0.163661 0.227641 -0.617137 128 128 255 0.724666 -0.660126 0.197717
0.054119 -0.415716 -1.167530 128 128 255 0.695349 0.697131 0.174638
0.786936 0.292625 -1.646577 128 128 255 -0.681998 0.152557 0.715266
-0.061408 0.318831 -0.565692 128 128 255 0.557281 -0.825747 0.087059
-0.579541 -0.952839 -2.967746 128 128 255 0.797967 -0.311160 0.516167
0.444824 0.026129 -0.763329 128 128 255 -0.843855 0.455145 0.284170
0.043477 0.471264 -0.819377 128 128 255 -0.028937 -0.998046 0.055387
-0.885363 -0.455328 -2.669023 128 128 255 0.559692 -0.268608 0.783961
0.306303 -0.072174 -0.557838 128 128 255 -0.593597 0.785415 0.175402
0.361804 0.856078 -1.858808 128 128 255 -0.936349 -0.051004 0.347346
-0.372615 0.086395 -1.057505 128 128 255 0.840249 -0.233704 0.489249
0.215790 -0.180971 -0.643975 128 128 255 -0.403400 0.914418 0.033284
1.198242 1.129338 -3.584969 128 128 255 -0.616947 0.385573 0.686083
-0.162344 0.228560 -0.615225 128 128 255 0.721750 -0.663507 0.197067
0.051279 -0.419404 -1.177153 128 128 255 0.706393 0.685089 0.177937
0.781686 0.287631 -1.630923 128 128 255 -0.685610 0.151887 0.711948
-0.060550 0.319868 -0.566497 128 128 255 0.556295 -0.826611 0.085145
-0.589795 -0.957559 -2.991101 128 128 255 0.794136 -0.315193 0.519616
0.442837 0.024833 -0.759247 128 128 255 -0.842331 0.459772 0.281225
0.044966 0.473515 -0.824288 128 128 255 -0.041152 -0.997544 0.056687
-0.879458 -0.445826 -2.645041 128 128 255 0.560474 -0.265459 0.784475
0.305333 -0.073042 -0.557383 128 128 255 -0.592003 0.786820 0.174491
0.367911 0.861876 -1.877135 128 128 255 -0.935623 -0.040437 0.350678
-0.369396 0.088741 -1.049474 128 128 255 0.842048 -0.237358 0.484372
0.214809 -0.182428 -0.646368 128 128 255 -0.397888 0.916839 0.033046
1.201462 1.122476 -3.579274 128 128 255 -0.614210 0.384651 0.689050
-0.161038 0.229476 -0.613348 128 128 255 0.718828 -0.666854 0.196447
0.048397 -0.423129 -1.186905 128 128 255 0.717200 0.672883 0.181252
0.776480 0.282712 -1.615458 128 128 255 -0.689236 0.151307 0.708562
-0.059693 0.320910 -0.567327 128 128 255 0.555247 -0.827507 0.083260
-0.600075 -0.962150 -3.014300 128 128 255 0.790295 -0.319114 0.523068
0.440868 0.023549 -0.755222 128 128 255 -0.840759 0.464388 0.278332
0.046471 0.475788 -0.829266 128 128 255 -0.053501 -0.996880 0.058030
-0.873502 -0.436404 -2.621105 128 128 255 0.561336 -0.262311 0.784917
0.304367 -0.073911 -0.556953 128 128 255 -0.590469 0.788183 0.173536
0.374107 0.867710 -1.895664 128 128 255 -0.934760 -0.030009 0.354010
-0.366208 0.091055 -1.041550 128 128 255 0.843776 -0.241070 0.479507
0.213823 -0.183898 -0.648799 128 128 255 -0.392266 0.919266 0.032833
1.204412 1.115396 -3.572817 128 128 255 -0.611523 0.383650 0.691992
-0.159740 0.230389 -0.611503 128 128 255 0.715901 -0.670169 0.195857
0.045473 -0.426891 -1.196788 128 128 255 0.727764 0.660522 0.184584
0.771318 0.277867 -1.600184 128 128 255 -0.692873 0.150817 0.705111
-0.058835 0.321959 -0.568185 128 128 255 0.554137 -0.828436 0.081405
-0.610375 -0.966608 -3.037325 128 128 255 0.786447 -0.322921 0.526520
0.438917 0.022278 -0.751252 128 128 255 -0.839138 0.468991 0.275492
0.047994 0.478083 -0.834313 128 128 255 -0.065983 -0.996050 0.059417
-0.867498 -0.427062 -2.597226 128 128 255 0.562279 -0.259165 0.785287
0.303405 -0.074781 -0.556548 128 128 255 -0.588994 0.789505 0.172535
0.380393 0.873580 -1.914394 128 128 255 -0.933766 -0.019720 0.357340
-0.363052 0.093337 -1.033732 128 128 255 0.845433 -0.244836 0.474656
0.212831 -0.185378 -0.651269 128 128 255 -0.386532 0.921698 0.032647
1.207091 1.108104 -3.565606 128 128 255 -0.608888 0.382573 0.694905
-0.158452 0.231298 -0.609691 128 128 255 0.712969 -0.673450 0.195295
0.042506 -0.430691 -1.206804 128 128 255 0.738078 0.648014 0.187931
0.766199 0.273096 -1.585098 128 128 255 -0.696520 0.150417 0.701594
-0.057978 0.323013 -0.569069 128 128 255 0.552962 -0.829397 0.079582
-0.620690 -0.970927 -3.060159 128 128 255 0.782592 -0.326616 0.529974
0.436983 0.021018 -0.747337 128 128 255 -0.837469 0.473580 0.272705
0.049533 0.480399 -0.839428 128 128 255 -0.078594 -0.995048 0.060847
-0.861451 -0.417804 -2.573414 128 128 255 0.563301 -0.256024 0.785585
0.302447 -0.075653 -0.556168 128 128 255 -0.587579 0.790787 0.171487
0.386771 0.879484 -1.933326 128 128 255 -0.932644 -0.009570 0.360671
-0.359928 0.095588 -1.026017 128 128 255 0.847017 -0.248657 0.469821
0.211833 -0.186871 -0.653778 128 128 255 -0.380685 0.924134 0.032486
1.209500 1.100606 -3.557650 128 128 255 -0.606306 0.381419 0.697791
-0.157173 0.232204 -0.607912 128 128 255 0.710035 -0.676697 0.194760
0.039495 -0.434529 -1.216955 128 128 255 0.748139 0.635370 0.191290
0.761123 0.268396 -1.570198 128 128 255 -0.700174 0.150110 0.698014
-0.057120 0.324072 -0.569980 128 128 255 0.551720 -0.830394 0.077791
-0.631014 -0.975100 -3.082783 128 128 255 0.778731 -0.330200 0.533428
0.435067 0.019770 -0.743476 128 128 255 -0.835754 0.478154 0.269971
0.051089 0.482738 -0.844613 128 128 255 -0.091331 -0.993869 0.062321
-0.855366 -0.408630 -2.549680 128 128 255 0.564403 -0.252891 0.785809
0.301493 -0.076527 -0.555814 128 128 255 -0.586223 0.792028 0.170392
0.393239 0.885421 -1.952458 128 128 255 -0.931399 0.000439 0.364001
-0.356835 0.097809 -1.018406 128 128 255 0.848529 -0.252531 0.465003
0.210829 -0.188376 -0.656326 128 128 255 -0.374725 0.926572 0.032350
1.211640 1.092908 -3.548961 128 128 255 -0.603778 0.380191 0.700647
-0.155903 0.233106 -0.606165 128 128 255 0.707099 -0.679910 0.194251
0.036439 -0.438405 -1.227242 128 128 255 0.757942 0.622600 0.194662
0.756092 0.263768 -1.555483 128 128 255 -0.703833 0.149895 0.694371
-0.056262 0.325138 -0.570918 128 128 255 0.550409 -0.831426 0.076033
-0.641342 -0.979122 -3.105180 128 128 255 0.774867 -0.333673 0.536883
0.433167 0.018533 -0.739669 128 128 255 -0.833993 0.482712 0.267290
0.052664 0.485098 -0.849869 128 128 255 -0.104192 -0.992506 0.063841
-0.849246 -0.399544 -2.526031 128 128 255 0.565583 -0.249766 0.785959
0.300544 -0.077402 -0.555485 128 128 255 -0.584927 0.793231 0.169250
0.399801 0.891390 -1.971791 128 128 255 -0.930033 0.010308 0.367330
-0.353773 0.100000 -1.010896 128 128 255 0.765885 -0.447838 0.461369
-0.394795 -1.422821 -1.162276 128 128 255 0.735525 -0.645833 -0.204702
1.108942 0.148429 -0.696301 128 128 255 0.892755 0.299004 -0.337025
-0.148508 0.671634 -0.391382 128 128 255 -0.702536 0.694452 -0.155500
-2.148490 -2.089944 -2.374367 128 128 255 -0.036645 -0.846315 -0.531421
0.655884 -0.159303 -0.383557 128 128 255 0.856307 -0.498657 -0.134461
0.178093 1.148504 -0.728864 128 128 255 -0.374887 0.863844 -0.336501
-1.359846 -0.332109 -1.100207 128 128 255 -0.567244 -0.681555 -0.462296
0.440554 -0.348068 -0.343675 128 128 255 0.807498 -0.566541 -0.164251
1.447786 2.255631 -1.904185 128 128 255 -0.110202 0.851837 -0.512083
-0.628725 0.245180 -0.485770 128 128 255 -0.960703 0.202861 -0.189463
0.226463 -0.657263 -0.505246 128 128 255 0.537457 -0.814651 -0.217908
2.182424 1.313411 -1.800014 128 128 255 0.252869 0.817789 -0.516990
-0.334545 0.452175 -0.340945 128 128 255 -0.808206 0.566284 -0.161635
-0.406754 -1.434545 -1.173994 128 128 255 0.234715 -0.862074 -0.449152
1.101981 0.143279 -0.690634 128 128 255 0.897259 0.288907 -0.333856
-0.146514 0.674569 -0.392883 128 128 255 -0.699619 0.697293 -0.155935
-2.157394 -2.077616 -2.372643 128 128 255 -0.040087 -0.846140 -0.531451
0.653090 -0.161237 -0.382210 128 128 255 0.854255 -0.502189 -0.134367
0.183741 1.155935 -0.735046 128 128 255 -0.371866 0.864167 -0.339014
-1.348678 -0.321257 -1.089350 128 128 255 -0.574430 -0.676684 -0.460574
0.438771 -0.350188 -0.344160 128 128 255 0.806458 -0.568161 -0.163764
1.468861 2.266155 -1.920051 128 128 255 -0.107615 0.851705 -0.512853
-0.624485 0.247951 -0.482925 128 128 255 -0.959341 0.211114 -0.187339
0.223469 -0.661809 -0.508398 128 128 255 0.534073 -0.816340 -0.219898
2.170539 1.293220 -1.783927 128 128 255 0.258099 0.816550 -0.516364
-0.332502 0.453970 -0.340590 128 128 255 -0.808473 0.565696 -0.162359
-0.418891 -1.446350 -1.185846 128 128 255 0.232198 -0.861839 -0.450907
1.095089 0.138201 -0.685043 128 128 255 0.901636 0.278760 -0.330675
-0.144510 0.677527 -0.394408 128 128 255 -0.696682 0.700124 -0.156401
-2.165749 -2.064792 -2.370393 128 128 255 -0.043555 -0.845958 -0.531468
0.650316 -0.163163 -0.380887 128 128 255 0.852232 -0.505629 -0.134309
0.189471 1.163442 -0.741312 128 128 255 -0.368856 0.864470 -0.341522
-1.337597 -0.310567 -1.078623 128 128 255 -0.581632 -0.671704 -0.458822
0.436989 -0.352319 -0.344662 128 128 255 0.805366 -0.569849 -0.163273
1.490019 2.276450 -1.935845 128 128 255 -0.105019 0.851575 -0.513605
-0.620283 0.250695 -0.480119 128 128 255 -0.957914 0.219274 -0.185257
0.220444 -0.666397 -0.511594 128 128 255 0.530691 -0.817999 -0.221912
2.158519 1.273177 -1.767849 128 128 255 0.263373 0.815270 -0.515723
-0.330468 0.455767 -0.340251 128 128 255 -0.808767 0.565072 -0.163065
-0.431208 -1.458236 -1.197833 128 128 255 0.229686 -0.861603 -0.452643
1.088267 0.133193 -0.679526 128 128 255 0.905884 0.268565 -0.327486
-0.142495 0.680507 -0.395958 128 128 255 -0.693724 0.702944 -0.156898
-2.173550 -2.051482 -2.367619 128 128 255 -0.047049 -0.845768 -0.531473
0.647562 -0.165080 -0.379586 128 128 255 0.850240 -0.508979 -0.134286
0.195284 1.171023 -0.747661 128 128 255 -0.365858 0.864751 -0.344025
-1.326606 -0.300037 -1.068025 128 128 255 -0.588847 -0.666614 -0.457038
0.435207 -0.354461 -0.345182 128 128 255 0.804222 -0.571603 -0.162781
1.511250 2.286503 -1.951557 128 128 255 -0.102413 0.851449 -0.514340
-0.616119 0.253413 -0.477352 128 128 255 -0.956425 0.227340 -0.183217
0.217385 -0.671029 -0.514834 128 128 255 0.527310 -0.819628 -0.223950
2.146372 1.253287 -1.751786 128 128 255 0.268690 0.813948 -0.515067
-0.328444 0.457566 -0.339930 128 128 255 -0.809086 0.564416 -0.163752
-0.443707 -1.470200 -1.209954 128 128 255 0.227180 -0.861365 -0.454357
1.081513 0.128254 -0.674083 128 128 255 0.910003 0.258326 -0.324288
-0.140469 0.683511 -0.397534 128 128 255 -0.690747 0.705752 -0.157427
-2.180795 -2.037695 -2.364326 128 128 255 -0.050570 -0.845570 -0.531464
0.644828 -0.166990 -0.378308 128 128 255 0.848279 -0.512237 -0.134298
0.201182 1.178681 -0.754097 128 128 255 -0.362871 0.865013 -0.346521
-1.315705 -0.289666 -1.057556 128 128 255 -0.596075 -0.661413 -0.455223
0.433426 -0.356615 -0.345720 128 128 255 0.803026 -0.573421 -0.162289
1.532545 2.296304 -1.967176 128 128 255 -0.099797 0.851326 -0.515058
-0.611993 0.256104 -0.474622 128 128 255 -0.954876 0.235311 -0.181219
0.214293 -0.675705 -0.518119 128 128 255 0.523930 -0.821228 -0.226011
2.134108 1.233555 -1.735748 128 128 255 0.274053 0.812584 -0.514396
-0.326429 0.459368 -0.339625 128 128 255 -0.809427 0.563732 -0.164418
-0.456389 -1.482240 -1.222211 128 128 255 0.224678 -0.861125 -0.456051
1.074826 0.123382 -0.668712 128 128 255 0.913990 0.248048 -0.321084
-0.138432 0.686538 -0.399134 128 128 255 -0.687750 0.708548 -0.157987
-2.187481 -2.023445 -2.360518 128 128 255 -0.054118 -0.845363 -0.531444
0.642115 -0.168892 -0.377052 128 128 255 0.846352 -0.515403 -0.134344
0.207167 1.186417 -0.760619 128 128 255 -0.359897 0.865255 -0.349011
-1.304893 -0.279451 -1.047214 128 128 255 -0.603312 -0.656098 -0.453376
0.431645 -0.358780 -0.346276 128 128 255 0.801779 -0.575302 -0.161798
1.553893 2.305839 -1.982690 128 128 255 -0.097171 0.851205 -0.515759
-0.607904 0.258770 -0.471930 128 128 255 -0.953271 0.243186 -0.179263
0.211166 -0.680425 -0.521448 128 128 255 0.520552 -0.822798 -0.228096
2.121737 1.213987 -1.719741 128 128 255 0.279459 0.811175 -0.513709
-0.324422 0.461173 -0.339338 128 128 255 -0.809788 0.563025 -0.165062
-0.469257 -1.494356 -1.234602 128 128 255 0.222182 -0.860885 -0.457725
1.068206 0.118578 -0.663413 128 128 255 0.917844 0.237735 -0.317874
-0.136384 0.689589 -0.400760 128 128 255 -0.684736 0.711330 -0.158578
-2.193607 -2.008741 -2.356199 128 128 255 -0.057693 -0.845147 -0.531411
0.639420 -0.170787 -0.375818 128 128 255 0.844459 -0.518479 -0.134424
0.213240 1.194230 -0.767228 128 128 255 -0.356933 0.865477 -0.351493
-1.294171 -0.269389 -1.036999 128 128 255 -0.610556 -0.650671 -0.451496
0.429864 -0.360957 -0.346849 128 128 255 0.800481 -0.577244 -0.161309
1.575283 2.315098 -1.998089 128 128 255 -0.094535 0.851087 -0.516443
-0.603852 0.261411 -0.469276 128 128 255 -0.951611 0.250967 -0.177350
0.208005 -0.685190 -0.524822 128 128 255 0.517177 -0.824339 -0.230203
2.109269 1.194586 -1.703772 128 128 255 0.284910 0.809722 -0.513007
-0.322425 0.462981 -0.339067 128 128 255 -0.810167 0.562298 -0.165682
-0.482312 -1.506546 -1.247128 128 128 255 0.219689 -0.860645 -0.459377
1.061652 0.113838 -0.658184 128 128 255 0.921565 0.227390 -0.314660
-0.134324 0.692665 -0.402412 128 128 255 -0.681703 0.714098 -0.159202
-2.199172 -1.993598 -2.351377 128 128 255 -0.061296 -0.844922 -0.531365
0.636745 -0.172675 -0.374607 128 128 255 0.842601 -0.521463 -0.134537
0.219402 1.202121 -0.773926 128 128 255 -0.353982 0.865681 -0.353968
-1.283540 -0.259480 -1.026910 128 128 255 -0.617806 -0.645128 -0.449584
0.428083 -0.363145 -0.347440 128 128 255 0.799132 -0.579244 -0.160823
1.596705 2.324066 -2.013359 128 128 255 -0.091889 0.850972 -0.517110
-0.599836 0.264027 -0.466657 128 128 255 -0.949898 0.258651 -0.175479
0.204809 -0.690001 -0.528243 128 128 255 0.513804 -0.825850 -0.232332
2.096712 1.175359 -1.687848 128 128 255 0.290406 0.808223 -0.512288
-0.320436 0.464791 -0.338813 128 128 255 -0.810560 0.561556 -0.166278
-0.495556 -1.518807 -1.259788 128 128 255 0.217201 -0.860404 -0.461009
1.055164 0.109163 -0.653025 128 128 255 0.925152 0.217018 -0.311444
-0.132251 0.695765 -0.404089 128 128 255 -0.678652 0.716852 -0.159857
-2.204175 -1.978026 -2.346056 128 128 255 -0.064926 -0.844688 -0.531307
0.634089 -0.174556 -0.373417 128 128 255 0.840780 -0.524355 -0.134684
0.225655 1.210092 -0.780715 128 128 255 -0.351042 0.865866 -0.356435
-1.273000 -0.249720 -1.016946 128 128 255 -0.625059 -0.639469 -0.447639
0.426301 -0.365346 -0.348050 128 128 255 0.797734 -0.581302 -0.160342
1.618147 2.332733 -2.028489 128 128 255 -0.089231 0.850860 -0.517760
-0.595856 0.266619 -0.464075 128 128 255 -0.948136 0.266239 -0.173651
0.201576 -0.694857 -0.531711 128 128 255 0.510434 -0.827330 -0.234482
2.084074 1.156308 -1.671975 128 128 255 0.295947 0.806677 -0.511554
-0.318455 0.466606 -0.338576 128 128 255 -0.810964 0.560802 -0.166847
-0.508990 -1.531137 -1.272583 128 128 255 0.214718 -0.860162 -0.462620
1.048740 0.104551 -0.647935 128 128 255 0.928603 0.206624 -0.308226
-0.130167 0.698889 -0.405793 128 128 255 -0.675585 0.719590 -0.160544
-2.208618 -1.962040 -2.340245 128 128 255 -0.068585 -0.844443 -0.531237
0.631451 -0.176431 -0.372249 128 128 255 0.838998 -0.527157 -0.134863
0.232001 1.218143 -0.787594 128 128 255 -0.348114 0.866033 -0.358893
-1.262551 -0.240108 -1.007106 128 128 255 -0.632312 -0.633694 -0.445661
0.424519 -0.367560 -0.348677 128 128 255 0.796286 -0.583414 -0.159866
1.639596 2.341086 -2.043467 128 128 255 -0.086562 0.850750 -0.518394
-0.591912 0.269188 -0.461529 128 128 255 -0.946326 0.273731 -0.171866
0.198306 -0.699760 -0.535225 128 128 255 0.507067 -0.828781 -0.236654
2.071364 1.137437 -1.656160 128 128 255 0.301533 0.805083 -0.510803
-0.316483 0.468423 -0.338356 128 128 255 -0.811378 0.560042 -0.167389
-0.522617 -1.543534 -1.285512 128 128 255 0.212237 -0.859921 -0.464210
1.042380 0.100000 -0.642913 128 128 255 0.878035 -0.420545 -0.228464
-0.411539 -1.474354 1.290329 128 128 255 0.813556 -0.552471 0.181392
1.143085 0.150068 0.850914 128 128 255 0.869103 -0.391719 0.302021
-0.156918 0.690979 0.563374 128 128 255 -0.489182 0.861716 0.134711
-2.224580 -2.164053 2.433333 128 128 255 -0.858069 -0.059502 0.510076
0.674696 -0.168078 0.555995 128 128 255 0.679204 -0.719580 0.144523
0.180736 1.183986 0.881620 128 128 255 0.314826 0.883760 0.346196
-1.409248 -0.346732 1.231797 128 128 255 -0.878922 0.241479 0.411319
0.452079 -0.363231 0.518386 128 128 255 0.577840 -0.801708 0.152857
1.493396 2.328578 1.989951 128 128 255 0.819353 0.270803 0.505299
-0.653386 0.250093 0.652383 128 128 255 -0.804531 0.561839 0.192527
0.230743 -0.682889 0.670748 128 128 255 0.169707 -0.964605 0.201834
2.252894 1.354474 1.891718 128 128 255 0.870786 -0.101416 0.481090
-0.349250 0.464093 0.515812 128 128 255 -0.561835 0.811734 0.159464
-0.423903 -1.486475 1.301379 128 128 255 -0.682436 -0.567040 0.461246
1.135888 0.144744 0.845570 128 128 255 0.868476 -0.394925 0.299639
-0.154857 0.694013 0.564790 128 128 255 -0.485163 0.863931 0.135055
-2.233785 -2.151308 2.431708 128 128 255 -0.858441 -0.055946 0.509852
0.671807 -0.170077 0.554725 128 128 255 0.676337 -0.722315 0.144320
0.186575 1.191669 0.887450 128 128 255 0.324378 0.879129 0.349159
-1.397702 -0.335512 1.221559 128 128 255 -0.879005 0.244315 0.409464
0.450235 -0.365423 0.518843 128 128 255 0.578093 -0.801661 0.152144
1.515184 2.339459 2.004912 128 128 255 0.820730 0.265806 0.505716
-0.649002 0.252958 0.649700 128 128 255 -0.802561 0.565216 0.190856
0.227648 -0.687589 0.673721 128 128 255 0.161125 -0.965583 0.204177
2.240607 1.333600 1.876548 128 128 255 0.870978 -0.104279 0.480128
-0.347138 0.465948 0.515477 128 128 255 -0.560887 0.812298 0.159932
-0.436451 -1.498680 1.312556 128 128 255 -0.686969 -0.560349 0.462690
1.128764 0.139494 0.840297 128 128 255 0.867827 -0.398139 0.297257
-0.152784 0.697070 0.566228 128 128 255 -0.481055 0.866165 0.135436
-2.242423 -2.138050 2.429586 128 128 255 -0.858805 -0.052411 0.509615
0.668939 -0.172068 0.553477 128 128 255 0.673469 -0.725025 0.144144
0.192499 1.199429 0.893359 128 128 255 0.333865 0.874390 0.352103
-1.386247 -0.324461 1.211444 128 128 255 -0.879081 0.247156 0.407591
0.448393 -0.367626 0.519317 128 128 255 0.578281 -0.801661 0.151427
1.537058 2.350102 2.019806 128 128 255 0.822073 0.260845 0.506118
-0.644658 0.255795 0.647054 128 128 255 -0.800565 0.568590 0.189212
0.224519 -0.692333 0.676735 128 128 255 0.152463 -0.966483 0.206557
2.228180 1.312878 1.861385 128 128 255 0.871170 -0.107135 0.479150
-0.345036 0.467806 0.515158 128 128 255 -0.560016 0.812808 0.160389
-0.449185 -1.510967 1.323859 128 128 255 -0.691409 -0.553678 0.464106
1.121710 0.134316 0.835095 128 128 255 0.867155 -0.401361 0.294876
-0.150701 0.700152 0.567690 128 128 255 -0.476860 0.868417 0.135854
-2.250488 -2.124289 2.426970 128 128 255 -0.859160 -0.048896 0.509365
0.666092 -0.174050 0.552250 128 128 255 0.670601 -0.727708 0.143997
0.198509 1.207267 0.899347 128 128 255 0.343285 0.869546 0.355028
-1.374884 -0.313575 1.201450 128 128 255 -0.879150 0.250002 0.405702
0.446551 -0.369840 0.519808 128 128 255 0.578403 -0.801710 0.150706
1.559008 2.360496 2.034623 128 128 255 0.823381 0.255920 0.506506
-0.640353 0.258604 0.644444 128 128 255 -0.798543 0.571960 0.187594
0.221357 -0.697121 0.679790 128 128 255 0.143721 -0.967303 0.208973
2.215622 1.292315 1.846239 128 128 255 0.871362 -0.109985 0.478154
-0.342943 0.469666 0.514855 128 128 255 -0.559226 0.813265 0.160832
-0.462106 -1.523336 1.335290 128 128 255 -0.695757 -0.547027 0.465494
1.114727 0.129210 0.829962 128 128 255 0.866460 -0.404589 0.292496
-0.148607 0.703257 0.569175 128 128 255 -0.472576 0.870685 0.136307
-2.257978 -2.110036 2.423865 128 128 255 -0.859508 -0.045402 0.509102
0.663266 -0.176025 0.551045 128 128 255 0.667733 -0.730365 0.143876
0.204607 1.215185 0.905415 128 128 255 0.352635 0.864600 0.357932
-1.363613 -0.302852 1.191578 128 128 255 -0.879213 0.252853 0.403795
0.444709 -0.372067 0.520315 128 128 255 0.578454 -0.801808 0.149983
1.581023 2.370628 2.049352 128 128 255 0.824655 0.251031 0.506880
-0.636087 0.261387 0.641870 128 128 255 -0.796494 0.575327 0.186002
0.218160 -0.701955 0.682887 128 128 255 0.134901 -0.968040 0.211423
2.202944 1.271915 1.831114 128 128 255 0.871553 -0.112829 0.477142
-0.340859 0.471529 0.514568 128 128 255 -0.558514 0.813669 0.161260
-0.475218 -1.535784 1.346847 128 128 255 -0.700013 -0.540397 0.466854
1.107815 0.124174 0.824897 128 128 255 0.865742 -0.407826 0.290119
-0.146501 0.706387 0.570684 128 128 255 -0.468203 0.872967 0.136798
-2.264891 -2.095304 2.420273 128 128 255 -0.859847 -0.041928 0.508827
0.660460 -0.177991 0.549861 128 128 255 0.664866 -0.732993 0.143782
0.210794 1.223182 0.911565 128 128 255 0.361911 0.859554 0.360814
-1.352435 -0.292292 1.181826 128 128 255 -0.879268 0.255709 0.401872
0.442868 -0.374305 0.520839 128 128 255 0.578435 -0.801957 0.149259
1.603093 2.380486 2.063982 128 128 255 0.825896 0.246177 0.507240
-0.631860 0.264143 0.639332 128 128 255 -0.794419 0.578689 0.184438
0.214928 -0.706835 0.686027 128 128 255 0.126004 -0.968693 0.213909
2.190154 1.251684 1.816020 128 128 255 0.871744 -0.115667 0.476113
-0.338785 0.473395 0.514296 128 128 255 -0.557883 0.814020 0.161672
-0.488521 -1.548310 1.358532 128 128 255 -0.704179 -0.533790 0.468187
1.100971 0.119206 0.819900 128 128 255 0.865000 -0.411069 0.287743
-0.144383 0.709541 0.572218 128 128 255 -0.463742 0.875263 0.137325
-2.271224 -2.080102 2.416201 128 128 255 -0.860179 -0.038473 0.508539
0.657674 -0.179951 0.548698 128 128 255 0.662003 -0.735594 0.143716
0.217072 1.231259 0.917798 128 128 255 0.371111 0.854411 0.363675
-1.341351 -0.281890 1.172193 128 128 255 -0.879315 0.258572 0.399931
0.441027 -0.376556 0.521380 128 128 255 0.578341 -0.802159 0.148536
1.625208 2.390058 2.078502 128 128 255 0.827105 0.241358 0.507586
-0.627671 0.266873 0.636828 128 128 255 -0.792318 0.582047 0.182900
0.211660 -0.711761 0.689209 128 128 255 0.117031 -0.969259 0.216429
2.177264 1.231628 1.800961 128 128 255 0.871934 -0.118500 0.475067
-0.336720 0.475264 0.514041 128 128 255 -0.557330 0.814320 0.162067
-0.502018 -1.560912 1.370344 128 128 255 -0.708257 -0.527208 0.469493
1.094195 0.114306 0.814969 128 128 255 0.864235 -0.414320 0.285371
-0.142253 0.712721 0.573775 128 128 255 -0.459193 0.877569 0.137890
-2.276977 -2.064446 2.411654 128 128 255 -0.860504 -0.035037 0.508238
0.654909 -0.181902 0.547555 128 128 255 0.659144 -0.738165 0.143675
0.223442 1.239418 0.924115 128 128 255 0.380233 0.849172 0.366511
-1.330360 -0.271645 1.162679 128 128 255 -0.879355 0.261440 0.397975
0.439185 -0.378819 0.521937 128 128 255 0.578172 -0.802413 0.147816
1.647354 2.399330 2.092902 128 128 255 0.828283 0.236574 0.507918
-0.623519 0.269578 0.634359 128 128 255 -0.790192 0.585401 0.181391
0.208356 -0.716735 0.692435 128 128 255 0.107984 -0.969735 0.218982
2.164282 1.211749 1.785944 128 128 255 0.872124 -0.121328 0.474003
-0.334664 0.477136 0.513802 128 128 255 -0.556858 0.814568 0.162443
-0.515710 -1.573588 1.382283 128 128 255 -0.712247 -0.520650 0.470773
1.087487 0.109473 0.810104 128 128 255 0.863446 -0.417578 0.283003
-0.140111 0.715926 0.575357 128 128 255 -0.454555 0.879886 0.138492
-2.282150 -2.048348 2.406636 128 128 255 -0.860822 -0.031621 0.507923
0.652163 -0.183847 0.546433 128 128 255 0.656290 -0.740706 0.143660
0.229907 1.247658 0.930516 128 128 255 0.389273 0.843840 0.369324
-1.319463 -0.261555 1.153283 128 128 255 -0.879387 0.264313 0.396002
0.437344 -0.381094 0.522512 128 128 255 0.577926 -0.802722 0.147101
1.669522 2.408290 2.107170 128 128 255 0.829429 0.231824 0.508237
-0.619404 0.272258 0.631924 128 128 255 -0.788040 0.588749 0.179909
0.205013 -0.721756 0.695704 128 128 255 0.098865 -0.970120 0.221567
2.151216 1.192054 1.770977 128 128 255 0.872313 -0.124151 0.472923
-0.332616 0.479012 0.513578 128 128 255 -0.556463 0.814767 0.162800
-0.529599 -1.586335 1.394349 128 128 255 -0.716152 -0.514119 0.472026
1.080846 0.104704 0.805304 128 128 255 0.862632 -0.420842 0.280638
-0.137956 0.719156 0.576964 128 128 255 -0.449828 0.882212 0.139132
-2.286743 -2.031821 2.401157 128 128 255 -0.861133 -0.028223 0.507596
0.649436 -0.185786 0.545332 128 128 255 0.653442 -0.743217 0.143671
0.236468 1.255981 0.937003 128 128 255 0.398229 0.838419 0.372111
-1.308660 -0.251617 1.144003 128 128 255 -0.879410 0.267193 0.394012
0.435501 -0.383382 0.523103 128 128 255 0.577601 -0.803086 0.146390
1.691697 2.416925 2.121294 128 128 255 0.830546 0.227109 0.508541
-0.615326 0.274913 0.629523 128 128 255 -0.785863 0.592092 0.178456
0.201633 -0.726825 0.699019 128 128 255 0.089675 -0.970412 0.224185
2.138077 1.172544 1.756063 128 128 255 0.872502 -0.126969 0.471825
-0.330577 0.480891 0.513371 128 128 255 -0.556148 0.814915 0.163135
-0.543686 -1.599152 1.406541 128 128 255 -0.719971 -0.507615 0.473253
1.074271 0.100000 0.800568 128 128 255 0.746223 -0.628883 0.218306
0.312260 0.753269 2.019722 128 128 255 0.753240 -0.527130 -0.393399
-0.332822 0.079225 1.311048 128 128 255 0.799069 0.592720 -0.100850
0.206607 -0.145223 0.847315 128 128 255 -0.619138 0.759006 -0.201440
1.064570 1.039455 3.863121 128 128 255 0.425353 -0.619769 -0.659516
-0.138467 0.211237 0.835413 128 128 255 0.889816 -0.455881 -0.020018
0.066499 -0.349793 1.360570 128 128 255 -0.163038 0.823371 -0.543580
0.726253 0.285369 1.925325 128 128 255 -0.143914 -0.952273 -0.269192
-0.046093 0.292215 0.774759 128 128 255 0.762146 -0.623311 -0.174975
-0.478181 -0.824735 3.148049 128 128 255 -0.295429 0.517172 -0.803277
0.412613 0.037720 0.990864 128 128 255 -0.996059 0.086710 -0.018673
0.045749 0.424855 1.020483 128 128 255 0.389894 -0.865798 -0.313652
-0.793330 -0.420536 2.989621 128 128 255 -0.306059 0.835369 -0.456603
0.286414 -0.051078 0.770608 128 128 255 -0.813766 0.573918 -0.091667
0.317390 0.758298 2.037543 128 128 255 0.122449 -0.627591 -0.768853
-0.329836 0.081434 1.302430 128 128 255 0.809146 0.579362 -0.098092
0.205751 -0.146482 0.849597 128 128 255 -0.615352 0.761809 -0.202457
1.068390 1.034167 3.860500 128 128 255 0.425838 -0.623477 -0.655697
-0.137268 0.212067 0.833365 128 128 255 0.887516 -0.460315 -0.020611
0.064076 -0.352981 1.369973 128 128 255 -0.159744 0.820556 -0.548790
0.721462 0.280713 1.908813 128 128 255 -0.156528 -0.951298 -0.265578
-0.045328 0.293124 0.775497 128 128 255 0.760252 -0.625437 -0.175628
-0.487222 -0.829250 3.172178 128 128 255 -0.299411 0.517201 -0.801783
0.410794 0.036531 0.986538 128 128 255 -0.995083 0.097374 -0.018117
0.047033 0.426805 1.025278 128 128 255 0.384888 -0.866738 -0.317217
-0.788232 -0.411875 2.965156 128 128 255 -0.300531 0.839499 -0.452683
0.285537 -0.051848 0.770067 128 128 255 -0.813082 0.574530 -0.093877
0.322597 0.763362 2.055568 128 128 255 0.124403 -0.623687 -0.771711
-0.326879 0.083612 1.293926 128 128 255 0.818966 0.565860 -0.095375
0.204891 -0.147751 0.851917 128 128 255 -0.611533 0.764598 -0.203512
1.071974 1.028665 3.857077 128 128 255 0.426220 -0.627228 -0.651860
-0.136078 0.212893 0.831352 128 128 255 0.885239 -0.464651 -0.021230
0.061618 -0.356201 1.379502 128 128 255 -0.156531 0.817670 -0.553998
0.716709 0.276127 1.892499 128 128 255 -0.169262 -0.950118 -0.261967
-0.044563 0.294038 0.776261 128 128 255 0.758315 -0.627610 -0.176250
-0.496298 -0.833666 3.196199 128 128 255 -0.303368 0.517325 -0.800214
0.408991 0.035354 0.982270 128 128 255 -0.994007 0.107891 -0.017592
0.048331 0.428774 1.030138 128 128 255 0.379878 -0.867616 -0.320836
-0.783075 -0.403276 2.940703 128 128 255 -0.294870 0.843598 -0.448770
0.284665 -0.052619 0.769552 128 128 255 -0.812411 0.575111 -0.096099
0.327881 0.768461 2.073798 128 128 255 0.126452 -0.619823 -0.774486
-0.323952 0.085761 1.285536 128 128 255 0.828525 0.552225 -0.092702
0.204027 -0.149029 0.854274 128 128 255 -0.607681 0.767373 -0.204606
1.075321 1.022955 3.852859 128 128 255 0.426499 -0.631021 -0.648005
-0.134896 0.213716 0.829374 128 128 255 0.882986 -0.468890 -0.021876
0.059124 -0.359454 1.389159 128 128 255 -0.153400 0.814716 -0.559202
0.711994 0.271610 1.876381 128 128 255 -0.182115 -0.948728 -0.258360
-0.043799 0.294957 0.777052 128 128 255 0.756336 -0.629828 -0.176841
-0.505406 -0.837979 3.220094 128 128 255 -0.307299 0.517543 -0.798572
0.407205 0.034188 0.978061 128 128 255 -0.992835 0.118261 -0.017095
0.049644 0.430761 1.035066 128 128 255 0.374863 -0.868431 -0.324508
-0.777864 -0.394744 2.916275 128 128 255 -0.289075 0.847662 -0.444865
0.283796 -0.053391 0.769064 128 128 255 -0.811752 0.575665 -0.098332
0.333243 0.773593 2.092233 128 128 255 0.128595 -0.616003 -0.777177
-0.321055 0.087880 1.277257 128 128 255 0.837818 0.538468 -0.090072
0.203158 -0.150318 0.856670 128 128 255 -0.603795 0.770131 -0.205740
1.078429 1.017041 3.847851 128 128 255 0.426674 -0.634854 -0.644135
-0.133724 0.214535 0.827430 128 128 255 0.880756 -0.473033 -0.022548
0.056594 -0.362739 1.398946 128 128 255 -0.150355 0.811693 -0.564401
0.707317 0.267161 1.860459 128 128 255 -0.195081 -0.947123 -0.254757
-0.043035 0.295881 0.777870 128 128 255 0.754316 -0.632089 -0.177403
-0.514542 -0.842183 3.243848 128 128 255 -0.311201 0.517855 -0.796857
0.405435 0.033033 0.973910 128 128 255 -0.991572 0.128484 -0.016627
0.050970 0.432766 1.040061 128 128 255 0.369845 -0.869183 -0.328232
-0.772604 -0.386279 2.891883 128 128 255 -0.283145 0.851690 -0.440967
0.282932 -0.054164 0.768601 128 128 255 -0.811103 0.576192 -0.100571
0.338683 0.778759 2.110873 128 128 255 0.130830 -0.612228 -0.779782
-0.318186 0.089969 1.269089 128 128 255 0.846843 0.524598 -0.087487
0.202284 -0.151617 0.859104 128 128 255 -0.599877 0.772873 -0.206915
1.081297 1.010928 3.842058 128 128 255 0.426743 -0.638727 -0.640248
-0.132559 0.215351 0.825520 128 128 255 0.878552 -0.477081 -0.023247
0.054027 -0.366057 1.408865 128 128 255 -0.147396 0.808603 -0.569592
0.702679 0.262779 1.844732 128 128 255 -0.208158 -0.945299 -0.251156
-0.042271 0.296810 0.778715 128 128 255 0.752253 -0.634392 -0.177939
-0.523699 -0.846274 3.267443 128 128 255 -0.315071 0.518260 -0.795070
0.403681 0.031890 0.969816 128 128 255 -0.990222 0.138559 -0.016187
0.052311 0.434791 1.045124 128 128 255 0.364826 -0.869869 -0.332008
-0.767297 -0.377884 2.867538 128 128 255 -0.277080 0.855681 -0.437078
0.282071 -0.054938 0.768163 128 128 255 -0.810461 0.576698 -0.102816
0.344203 0.783956 2.129718 128 128 255 0.133155 -0.608501 -0.782302
-0.315347 0.092030 1.261030 128 128 255 0.855597 0.510625 -0.084948
0.201405 -0.152925 0.861577 128 128 255 -0.595927 0.775598 -0.208132
1.083925 1.004620 3.835491 128 128 255 0.426707 -0.642638 -0.636347
-0.131404 0.216164 0.823644 128 128 255 0.876374 -0.481034 -0.023975
0.051422 -0.369409 1.418917 128 128 255 -0.144525 0.805448 -0.574774
0.698080 0.258463 1.829196 128 128 255 -0.221342 -0.943251 -0.247560
-0.041507 0.297744 0.779587 128 128 255 0.750149 -0.636736 -0.178449
-0.532876 -0.850246 3.290861 128 128 255 -0.318909 0.518758 -0.793213
0.401943 0.030757 0.965778 128 128 255 -0.988788 0.148489 -0.015774
0.053667 0.436835 1.050256 128 128 255 0.359807 -0.870490 -0.335836
-0.761948 -0.369562 2.843252 128 128 255 -0.270880 0.859631 -0.433195
0.281214 -0.055714 0.767752 128 128 255 -0.809826 0.577186 -0.105063
0.349804 0.789185 2.148768 128 128 255 0.135569 -0.604824 -0.784735
-0.312535 0.094064 1.253078 128 128 255 0.864076 0.496561 -0.082454
0.200522 -0.154245 0.864089 128 128 255 -0.591944 0.778305 -0.209390
1.086312 0.998124 3.828156 128 128 255 0.426564 -0.646585 -0.632433
-0.130256 0.216974 0.821801 128 128 255 0.874224 -0.484893 -0.024730
0.048778 -0.372795 1.429104 128 128 255 -0.141744 0.802229 -0.579945
0.693519 0.254212 1.813852 128 128 255 -0.234627 -0.940973 -0.243967
-0.040743 0.298683 0.780486 128 128 255 0.748003 -0.639120 -0.178936
-0.542065 -0.854093 3.314085 128 128 255 -0.322710 0.519349 -0.791287
0.400220 0.029635 0.961796 128 128 255 -0.987276 0.158272 -0.015389
0.055039 0.438899 1.055459 128 128 255 0.354788 -0.871045 -0.339715
-0.756561 -0.361314 2.819034 128 128 255 -0.264543 0.863540 -0.429321
0.280361 -0.056490 0.767365 128 128 255 -0.809194 0.577658 -0.107310
0.355485 0.794445 2.168023 128 128 255 0.138070 -0.601199 -0.787081
-0.309752 0.096069 1.245232 128 128 255 0.872280 0.482416 -0.080008
0.199633 -0.155575 0.866640 128 128 255 -0.587929 0.780992 -0.210691
1.088458 0.991444 3.820065 128 128 255 0.426315 -0.650567 -0.628505
-0.129116 0.217781 0.819992 128 128 255 0.872102 -0.488659 -0.025515
0.046096 -0.376214 1.439428 128 128 255 -0.139054 0.798948 -0.585104
0.688998 0.250025 1.798698 128 128 255 -0.248009 -0.938461 -0.240379
-0.039979 0.299627 0.781413 128 128 255 0.745815 -0.641541 -0.179402
-0.551263 -0.857811 3.337095 128 128 255 -0.326473 0.520031 -0.789293
0.398512 0.028523 0.957869 128 128 255 -0.985688 0.167911 -0.015030
0.056425 0.440982 1.060732 128 128 255 0.349772 -0.871532 -0.343644
-0.751140 -0.353141 2.794894 128 128 255 -0.258068 0.867404 -0.425455
0.279511 -0.057269 0.767005 128 128 255 -0.808565 0.578119 -0.109554
0.361248 0.799735 2.187482 128 128 255 0.140656 -0.597627 -0.789340
-0.306996 0.098048 1.237491 128 128 255 0.880207 0.468201 -0.077608
0.198738 -0.156915 0.869232 128 128 255 -0.583882 0.783660 -0.212036
1.090364 0.984586 3.811228 128 128 255 0.425957 -0.654583 -0.624566
-0.127985 0.218585 0.818216 128 128 255 0.870009 -0.492332 -0.026329
0.043373 -0.379667 1.449890 128 128 255 -0.136457 0.795606 -0.590247
0.684515 0.245901 1.783733 128 128 255 -0.261484 -0.935711 -0.236794
-0.039214 0.300577 0.782367 128 128 255 0.743586 -0.643998 -0.179848
-0.560465 -0.861394 3.359874 128 128 255 -0.330196 0.520805 -0.787231
0.396820 0.027421 0.953997 128 128 255 -0.984028 0.177405 -0.014696
0.057828 0.443086 1.066077 128 128 255 0.344760 -0.871951 -0.347625
-0.745687 -0.345046 2.770842 128 128 255 -0.251456 0.871222 -0.421596
0.278665 -0.058048 0.766670 128 128 255 -0.807935 0.578571 -0.111792
0.367094 0.805053 2.207145 128 128 255 0.143325 -0.594113 -0.791510
-0.304268 0.100000 1.229853 128 128 255 0.969705 -0.071018 0.233728
0.728775 2.035170 -0.030022 128 128 255 0.752506 -0.655407 0.064627
-1.182142 0.038457 0.017976 128 128 255 0.968101 -0.250536 0.003450
0.415799 -0.626421 0.049385 128 128 255 -0.638512 0.768777 0.035847
2.957335 2.882936 -0.154874 128 128 255 -0.767077 -0.638166 0.065863
-0.606406 0.429517 0.050191 128 128 255 0.734534 -0.678571 -0.000419
0.000761 -1.232418 0.014622 128 128 255 -0.145594 0.986576 0.073955
1.955142 0.649115 -0.023628 128 128 255 -0.998775 -0.045537 0.019336
-0.332769 0.669396 0.054299 128 128 255 0.717330 -0.696126 0.029083
-1.612739 -2.639331 -0.106443 128 128 255 0.514165 0.853658 0.083078
1.026049 -0.084491 0.039662 128 128 255 -0.865113 0.501573 -0.002303
-0.060707 1.062315 0.037656 128 128 255 0.432978 -0.899946 0.051263
-2.546301 -1.441978 -0.095713 128 128 255 0.934370 0.353803 0.042146
0.652211 -0.347537 0.054580 128 128 255 -0.668542 0.743584 0.011541
0.743972 2.050068 -0.031229 128 128 255 -0.196235 -0.976655 0.087385
-1.173296 0.045002 0.018560 128 128 255 0.966660 -0.256045 0.003237
0.413265 -0.630150 0.049230 128 128 255 -0.635482 0.771275 0.036018
2.968650 2.867270 -0.154697 128 128 255 -0.771288 -0.633113 0.065436
-0.602855 0.431975 0.050330 128 128 255 0.732071 -0.681228 -0.000312
-0.006416 -1.241861 0.013985 128 128 255 -0.139166 0.987473 0.074367
1.940950 0.635324 -0.022510 128 128 255 -0.999046 -0.039349 0.018930
-0.330503 0.672090 0.054249 128 128 255 0.717417 -0.696029 0.029283
-1.639521 -2.652705 -0.108077 128 128 255 0.519968 0.850160 0.082837
1.020660 -0.088013 0.039955 128 128 255 -0.862626 0.505837 -0.002326
-0.056902 1.068091 0.037331 128 128 255 0.427998 -0.902300 0.051692
-2.531199 -1.416320 -0.094056 128 128 255 0.936643 0.347798 0.041663
0.649615 -0.349818 0.054617 128 128 255 -0.669012 0.743156 0.011927
0.759396 2.065070 -0.032450 128 128 255 -0.202973 -0.975270 0.087467
-1.164539 0.051455 0.019136 128 128 255 0.965190 -0.261532 0.003028
0.410718 -0.633909 0.049073 128 128 255 -0.632406 0.773791 0.036194
2.979267 2.850973 -0.154465 128 128 255 -0.775465 -0.628036 0.065006
-0.599330 0.434422 0.050466 128 128 255 0.729630 -0.683842 -0.000202
-0.013698 -1.251400 0.013340 128 128 255 -0.132719 0.988329 0.074774
1.926869 0.621740 -0.021405 128 128 255 -0.999278 -0.033167 0.018527
-0.328238 0.674798 0.054197 128 128 255 0.717430 -0.696007 0.029476
-1.666407 -2.665787 -0.109704 128 128 255 0.525744 0.846624 0.082590
1.015321 -0.091500 0.040244 128 128 255 -0.860127 0.510075 -0.002346
-0.053057 1.073922 0.037002 128 128 255 0.422983 -0.904637 0.052125
-2.515923 -1.390849 -0.092399 128 128 255 0.938877 0.341781 0.041181
0.647030 -0.352101 0.054652 128 128 255 -0.669553 0.742662 0.012317
0.775048 2.080174 -0.033684 128 128 255 -0.209703 -0.973838 0.087542
-1.155869 0.057819 0.019704 128 128 255 0.963693 -0.266999 0.002824
0.408158 -0.637696 0.048913 128 128 255 -0.629286 0.776322 0.036374
2.989181 2.834059 -0.154179 128 128 255 -0.779605 -0.622934 0.064574
-0.595831 0.436858 0.050600 128 128 255 0.727213 -0.686412 -0.000088
-0.021085 -1.261034 0.012686 128 128 255 -0.126252 0.989146 0.075177
1.912902 0.608359 -0.020313 128 128 255 -0.999471 -0.026990 0.018128
-0.325974 0.677520 0.054144 128 128 255 0.717369 -0.696061 0.029662
-1.693388 -2.678563 -0.111322 128 128 255 0.531492 0.843052 0.082338
1.010029 -0.094954 0.040529 128 128 255 -0.857615 0.514286 -0.002364
-0.049170 1.079808 0.036668 128 128 255 0.417935 -0.906955 0.052560
-2.500487 -1.365573 -0.090745 128 128 255 0.941070 0.335753 0.040699
0.644458 -0.354388 0.054685 128 128 255 -0.670164 0.742104 0.012712
0.790932 2.095377 -0.034933 128 128 255 -0.216425 -0.972361 0.087609
-1.147286 0.064096 0.020265 128 128 255 0.962168 -0.272444 0.002623
0.405584 -0.641514 0.048751 128 128 255 -0.626121 0.778868 0.036559
2.998387 2.816540 -0.153840 128 128 255 -0.783710 -0.617807 0.064140
-0.592357 0.439285 0.050732 128 128 255 0.724820 -0.688938 0.000030
-0.028581 -1.270766 0.012023 128 128 255 -0.119766 0.989921 0.075576
1.899048 0.595179 -0.019235 128 128 255 -0.999626 -0.020819 0.017731
-0.323711 0.680256 0.054088 128 128 255 0.717235 -0.696192 0.029842
-1.720448 -2.691018 -0.112931 128 128 255 0.537212 0.839443 0.082082
1.004786 -0.098374 0.040811 128 128 255 -0.855092 0.518470 -0.002379
-0.045241 1.085750 0.036330 128 128 255 0.412852 -0.909255 0.052999
-2.484903 -1.340498 -0.089093 128 128 255 0.943224 0.329714 0.040217
0.641897 -0.356678 0.054716 128 128 255 -0.670843 0.741483 0.013110
0.807048 2.110678 -0.036195 128 128 255 -0.223136 -0.970837 0.087669
-1.138789 0.070286 0.020818 128 128 255 0.960616 -0.277868 0.002428
0.402995 -0.645361 0.048586 128 128 255 -0.622913 0.781428 0.036749
3.006884 2.798430 -0.153448 128 128 255 -0.787778 -0.612656 0.063704
-0.588908 0.441702 0.050861 128 128 255 0.722454 -0.691419 0.000152
-0.036186 -1.280596 0.011351 128 128 255 -0.113262 0.990657 0.075969
1.885309 0.582198 -0.018170 128 128 255 -0.999742 -0.014654 0.017337
-0.321447 0.683008 0.054031 128 128 255 0.717027 -0.696399 0.030016
-1.747577 -2.703135 -0.114529 128 128 255 0.542905 0.835799 0.081820
0.999590 -0.101762 0.041088 128 128 255 -0.852558 0.522627 -0.002391
-0.041268 1.091748 0.035987 128 128 255 0.407736 -0.911535 0.053441
-2.469182 -1.315631 -0.087444 128 128 255 0.945337 0.323664 0.039736
0.639347 -0.358971 0.054746 128 128 255 -0.671588 0.740801 0.013511
0.823400 2.126075 -0.037472 128 128 255 -0.229839 -0.969267 0.087721
-1.130376 0.076392 0.021364 128 128 255 0.959038 -0.283270 0.002236
0.400392 -0.649238 0.048419 128 128 255 -0.619660 0.784000 0.036944
3.014668 2.779745 -0.153003 128 128 255 -0.791811 -0.607481 0.063265
-0.585484 0.444111 0.050988 128 128 255 0.720115 -0.693855 0.000277
-0.043903 -1.290525 0.010670 128 128 255 -0.106740 0.991351 0.076358
1.871684 0.569413 -0.017118 128 128 255 -0.999820 -0.008497 0.016946
-0.319184 0.685774 0.053972 128 128 255 0.716744 -0.696683 0.030184
-1.774760 -2.714900 -0.116115 128 128 255 0.548570 0.832118 0.081553
0.994441 -0.105118 0.041361 128 128 255 -0.850012 0.526757 -0.002401
-0.037251 1.097803 0.035640 128 128 255 0.402586 -0.913795 0.053886
-2.453338 -1.290978 -0.085799 128 128 255 0.947411 0.317604 0.039255
0.636809 -0.361268 0.054774 128 128 255 -0.672397 0.740060 0.013916
0.839990 2.141565 -0.038762 128 128 255 -0.236530 -0.967652 0.087767
-1.122048 0.082415 0.021903 128 128 255 0.957433 -0.288650 0.002049
0.397774 -0.653146 0.048249 128 128 255 -0.616365 0.786584 0.037144
3.021740 2.760501 -0.152506 128 128 255 -0.795807 -0.602282 0.062825
-0.582084 0.446510 0.051113 128 128 255 0.717805 -0.696244 0.000407
-0.051733 -1.300553 0.009980 128 128 255 -0.100200 0.992003 0.076742
1.858175 0.556820 -0.016078 128 128 255 -0.999860 -0.002346 0.016559
-0.316921 0.688556 0.053911 128 128 255 0.716387 -0.697043 0.030346
-1.801982 -2.726298 -0.117688 128 128 255 0.554207 0.828401 0.081282
0.989337 -0.108442 0.041631 128 128 255 -0.847456 0.530860 -0.002408
-0.033189 1.103916 0.035287 128 128 255 0.397402 -0.916035 0.054333
-2.437380 -1.266544 -0.084159 128 128 255 0.949444 0.311533 0.038775
0.634281 -0.363569 0.054800 128 128 255 -0.673266 0.739261 0.014323
0.856820 2.157146 -0.040066 128 128 255 -0.243211 -0.965991 0.087805
-1.113802 0.088356 0.022434 128 128 255 0.955801 -0.294008 0.001866
0.395140 -0.657085 0.048076 128 128 255 -0.613027 0.789179 0.037350
3.028098 2.740713 -0.151958 128 128 255 -0.799767 -0.597060 0.062382
-0.578709 0.448900 0.051235 128 128 255 0.715526 -0.698585 0.000541
-0.059680 -1.310682 0.009281 128 128 255 -0.093644 0.992614 0.077121
1.844780 0.544417 -0.015052 128 128 255 -0.999862 0.003797 0.016174
-0.314657 0.691353 0.053848 128 128 255 0.715956 -0.697479 0.030503
-1.829230 -2.737311 -0.119247 128 128 255 0.559814 0.824649 0.081006
