ply
format ascii 1.0
element vertex 684
property float x
property float y
property float z
property uchar red
property uchar green
property uchar blue
property float nx
property float ny
property float nz
end_header
4.059788 0.100000 -1.657047 128 128 255 0.450077 0.577258 -0.681325
4.193657 0.100000 -1.556254 128 128 255 0.525929 0.588649 -0.613915
4.173025 0.300095 -1.380319 128 128 255 0.479686 0.635842 -0.604654
4.110016 0.494952 -1.208210 128 128 255 0.424481 0.698973 -0.575546
4.006202 0.679430 -1.043655 128 128 255 0.369554 0.750624 -0.547716
3.864253 0.848756 -0.890218 128 128 255 0.315340 0.793281 -0.520832
3.687900 0.998722 -0.751225 128 128 255 0.262066 0.828746 -0.494470
3.481900 1.125888 -0.629686 128 128 255 0.209892 0.858321 -0.468221
3.251934 1.227780 -0.528233 128 128 255 0.158951 0.882943 -0.441753
3.004419 1.303050 -0.449064 128 128 255 0.109324 0.903284 -0.414882
2.746194 1.351557 -0.393894 128 128 255 0.061022 0.919797 -0.387621
2.484114 1.374336 -0.363915 128 128 255 0.014030 0.932760 -0.360224
2.224649 1.373466 -0.359778 128 128 255 -0.031523 0.942328 -0.333202
1.973592 1.351894 -0.381570 128 128 255 -0.075059 0.948644 -0.307313
1.735922 1.313283 -0.428820 128 128 255 -0.115128 0.952020 -0.283555
1.515792 1.261910 -0.500507 128 128 255 -0.148856 0.953188 -0.263199
1.316531 1.202600 -0.595081 128 128 255 -0.171041 0.953562 -0.247919
1.140606 1.140606 -0.710500 128 128 255 -0.172167 0.955360 -0.240093
0.989521 1.081435 -0.844272 128 128 255 -0.133367 0.960737 -0.243304
0.863721 1.030597 -0.993512 128 128 255 -0.014031 0.964894 -0.262264
0.762556 0.993353 -1.154999 128 128 255 0.261164 0.919393 -0.294124
0.684309 0.974480 -1.325246 128 128 255 0.673961 0.678663 -0.291878
0.626297 0.978073 -1.500577 128 128 255 0.919760 0.320884 -0.225996
0.585005 1.007381 -1.677203 128 128 255 0.980376 0.103805 -0.167593
0.556255 1.064671 -1.851300 128 128 255 0.990575 0.013642 -0.136288
0.535393 1.151133 -2.019100 128 128 255 0.992347 -0.009670 -0.123103
0.517492 1.266813 -2.176965 128 128 255 0.992598 0.002785 -0.121412
0.497559 1.410576 -2.321471 128 128 255 0.991081 0.036579 -0.128145
0.470748 1.580107 -2.449486 128 128 255 0.986202 0.084729 -0.142223
0.432572 1.771952 -2.558233 128 128 255 0.975991 0.143712 -0.163671
0.379112 1.981622 -2.645357 128 128 255 0.958045 0.211711 -0.193204
0.307202 2.203754 -2.708972 128 128 255 0.929204 0.287674 -0.231998
0.214580 2.432332 -2.747702 128 128 255 0.885119 0.370589 -0.281475
0.100000 2.660931 -2.760713 128 128 255 0.819831 0.458592 -0.342886
-0.036719 2.882981 -2.747727 128 128 255 0.725720 0.547648 -0.416428
-0.194687 3.092009 -2.709031 128 128 255 0.594744 0.629808 -0.499621
-0.371985 3.281864 -2.645466 128 128 255 0.422418 0.692134 -0.585247
-0.565741 3.446908 -2.558412 128 128 255 0.214525 0.719115 -0.660948
-0.772242 3.582184 -2.449754 128 128 255 -0.008874 0.700521 -0.713576
-0.987065 3.683572 -2.321848 128 128 255 -0.220305 0.639167 -0.736839
-1.205243 3.747911 -2.177463 128 128 255 -0.398999 0.549202 -0.734287
-1.421450 3.773104 -2.019725 128 128 255 -0.537991 0.446827 -0.714781
-1.630193 3.758186 -1.852049 128 128 255 -0.640611 0.343555 -0.686722
-1.826028 3.703344 -1.678064 128 128 255 -0.714100 0.245302 -0.655658
-2.003753 3.609900 -1.501537 128 128 255 -0.765660 0.154174 -0.624496
-2.158604 3.480240 -1.326287 128 128 255 -0.801065 0.070300 -0.594434
-2.286422 3.317717 -1.156109 128 128 255 -0.824552 -0.007003 -0.565743
-2.383811 3.126533 -0.994685 128 128 255 -0.839119 -0.078632 -0.538235
-2.448297 2.911613 -0.845509 128 128 255 -0.846870 -0.145409 -0.511535
-2.478477 2.678477 -0.711809 128 128 255 -0.849302 -0.207972 -0.485216
-2.474172 2.433093 -0.596478 128 128 255 -0.847499 -0.266772 -0.458887
-2.436527 2.181674 -0.502008 128 128 255 -0.842249 -0.322127 -0.432262
-2.368021 1.930409 -0.430442 128 128 255 -0.834095 -0.374281 -0.405216
-2.272325 1.685137 -0.383325 128 128 255 -0.823369 -0.423437 -0.377843
-2.154036 1.451017 -0.361672 128 128 255 -0.810274 -0.469701 -0.350481
-2.018357 1.232285 -0.365947 128 128 255 -0.795046 -0.512934 -0.323728
-1.870823 1.032130 -0.396051 128 128 255 -0.778248 -0.552517 -0.298420
-1.717142 0.852685 -0.451329 128 128 255 -0.761173 -0.587062 -0.275636
-1.563124 0.695075 -0.530581 128 128 255 -0.746383 -0.613995 -0.256754
-1.414609 0.559452 -0.632089 128 128 255 -0.738497 -0.628702 -0.243633
-1.277321 0.445001 -0.753658 128 128 255 -0.745499 -0.622190 -0.238976
-1.156633 0.349960 -0.892657 128 128 255 -0.780596 -0.574224 -0.246852
-1.057310 0.271671 -1.046084 128 128 255 -0.859195 -0.433675 -0.271497
-0.983282 0.206694 -1.210621 128 128 255 -0.949020 -0.095204 -0.300495
-0.937482 0.150968 -1.382712 128 128 255 -0.874391 0.400744 -0.273577
-0.921739 0.100000 -1.558633 128 128 255 -0.676243 0.708065 -0.203319
-0.936715 0.049069 -1.734576 128 128 255 -0.548537 0.821730 -0.154490
-0.981891 -0.006557 -1.906727 128 128 255 -0.496665 0.858119 -0.130218
-1.055590 -0.071416 -2.071352 128 128 255 -0.489246 0.863659 -0.121370
-1.155025 -0.149640 -2.224878 128 128 255 -0.506983 0.853180 -0.122687
-1.276389 -0.244767 -2.363971 128 128 255 -0.539613 0.831516 -0.131903
-1.414965 -0.359560 -2.485608 128 128 255 -0.581452 0.799938 -0.148370
-1.565291 -0.495851 -2.587149 128 128 255 -0.629008 0.758048 -0.172375
-1.721366 -0.654435 -2.666390 128 128 255 -0.679691 0.704326 -0.204808
-1.876895 -0.835002 -2.721611 128 128 255 -0.730920 0.636216 -0.246952
-2.025557 -1.036134 -2.751617 128 128 255 -0.779250 0.550117 -0.300234
-2.161274 -1.255356 -2.755757 128 128 255 -0.819323 0.441569 -0.365686
-2.278452 -1.489231 -2.733941 128 128 255 -0.842691 0.306214 -0.442838
-2.372178 -1.733492 -2.686644 128 128 255 -0.837316 0.142375 -0.527855
-2.438377 -1.983193 -2.614888 128 128 255 -0.789850 -0.044399 -0.611691
-2.473933 -2.232877 -2.520227 128 128 255 -0.692685 -0.237608 -0.680977
-2.476762 -2.476762 -2.404709 128 128 255 -0.552178 -0.413341 -0.724050
-2.445874 -2.708939 -2.270833 128 128 255 -0.388047 -0.552101 -0.737973
-2.381384 -2.923575 -2.121494 128 128 255 -0.222263 -0.647681 -0.728772
-2.284501 -3.115128 -1.959923 128 128 255 -0.069313 -0.705161 -0.705651
-2.157470 -3.278543 -1.789616 128 128 255 0.065159 -0.733873 -0.676155
-2.003479 -3.409444 -1.614256 128 128 255 0.181080 -0.742538 -0.644863
-1.826525 -3.504275 -1.437637 128 128 255 0.280738 -0.737681 -0.614013
-1.631255 -3.560431 -1.263581 128 128 255 0.366963 -0.723729 -0.584426
-1.422790 -3.576339 -1.095852 128 128 255 0.442341 -0.703560 -0.556181
-1.206542 -3.551540 -0.938079 128 128 255 0.508978 -0.679037 -0.529008
-0.988030 -3.486753 -0.793677 128 128 255 0.568477 -0.651402 -0.502503
-0.772683 -3.383947 -0.665768 128 128 255 0.622007 -0.621531 -0.476243
-0.565636 -3.246380 -0.557118 128 128 255 0.670401 -0.590071 -0.449865
-0.371494 -3.078555 -0.470077 128 128 255 0.714260 -0.557488 -0.423132
-0.194099 -2.886035 -0.406525 128 128 255 0.754018 -0.524072 -0.395986
-0.036333 -2.675121 -0.367833 128 128 255 0.789973 -0.489976 -0.368600
0.100000 -2.452435 -0.354835 128 128 255 0.822261 -0.455340 -0.341398
0.214198 -2.224548 -0.367807 128 128 255 0.850800 -0.420568 -0.315058
0.306609 -1.997732 -0.406464 128 128 255 0.875243 -0.386732 -0.290494
0.378554 -1.777860 -0.469967 128 128 255 0.894920 -0.356126 -0.268874
0.432259 -1.570380 -0.556940 128 128 255 0.908698 -0.333032 -0.251709
0.470783 -1.380248 -0.665500 128 128 255 0.914427 -0.325115 -0.241088
0.497924 -1.211780 -0.793302 128 128 255 0.906822 -0.346431 -0.240124
0.518075 -1.068442 -0.937583 128 128 255 0.869647 -0.423715 -0.253337
0.536031 -0.952672 -1.095229 128 128 255 0.748102 -0.600238 -0.282944
0.556774 -0.865767 -1.262834 128 128 255 0.414437 -0.858902 -0.300880
0.585251 -0.807840 -1.436777 128 128 255 -0.058916 -0.966367 -0.250326
0.626162 -0.777847 -1.613297 128 128 255 -0.347252 -0.919597 -0.183730
0.683753 -0.773648 -1.788574 128 128 255 -0.464752 -0.873622 -0.144188
0.761632 -0.792108 -1.958811 128 128 255 -0.501829 -0.855752 -0.125921
0.862604 -0.829235 -2.120318 128 128 255 -0.499878 -0.857619 -0.120876
0.988525 -0.880337 -2.269594 128 128 255 -0.475526 -0.870776 -0.124993
1.140189 -0.940189 -2.403398 128 128 255 -0.435772 -0.889622 -0.136659
1.317240 -1.003242 -2.518831 128 128 255 -0.383513 -0.910334 -0.155594
1.518142 -1.063839 -2.613388 128 128 255 -0.319593 -0.929851 -0.182314
1.740203 -1.116457 -2.685023 128 128 255 -0.243643 -0.945079 -0.217863
1.979665 -1.155952 -2.732187 128 128 255 -0.154530 -0.952171 -0.263612
2.231856 -1.177785 -2.753863 128 128 255 -0.050825 -0.945735 -0.320939
2.491371 -1.178215 -2.749585 128 128 255 0.068314 -0.918050 -0.390536
2.752288 -1.154439 -2.719453 128 128 255 0.201395 -0.858810 -0.471047
3.008374 -1.104688 -2.664124 128 128 255 0.341801 -0.756890 -0.557037
3.253299 -1.028268 -2.584800 128 128 255 0.475520 -0.606027 -0.637662
3.480836 -0.925565 -2.483205 128 128 255 0.583522 -0.413024 -0.699224
3.685059 -0.798011 -2.361539 128 128 255 0.650886 -0.199839 -0.732402
3.860541 -0.648018 -2.222441 128 128 255 0.675139 0.006783 -0.737659
4.002537 -0.478887 -2.068926 128 128 255 0.664825 0.188524 -0.722818
4.107149 -0.294670 -1.904318 128 128 255 0.631887 0.339216 -0.696887
4.171465 -0.100018 -1.732184 128 128 255 0.586210 0.460688 -0.666427
4.193657 0.100000 -1.556254 128 128 255 0.542267 0.524027 -0.656766
4.318898 0.100000 -1.439452 128 128 255 0.606620 0.548815 -0.575165
4.297673 0.306218 -1.263522 128 128 255 0.559435 0.604533 -0.567074
4.232868 0.507052 -1.091417 128 128 255 0.498010 0.681603 -0.536100
4.126112 0.697217 -0.926866 128 128 255 0.435816 0.744497 -0.505756
3.980136 0.871807 -0.773434 128 128 255 0.373630 0.796104 -0.476045
3.798736 1.026485 -0.634445 128 128 255 0.311862 0.838528 -0.446780
3.586731 1.157688 -0.512910 128 128 255 0.250813 0.873266 -0.417732
3.349891 1.262830 -0.411463 128 128 255 0.190769 0.901383 -0.388736
3.094779 1.340478 -0.332299 128 128 255 0.131994 0.923661 -0.359760
2.828452 1.390462 -0.277135 128 128 255 0.074691 0.940686 -0.330956
2.558043 1.413851 -0.247163 128 128 255 0.019014 0.952903 -0.302679
2.290321 1.412828 -0.243032 128 128 255 -0.034803 0.960678 -0.275476
2.031338 1.390479 -0.264830 128 128 255 -0.086184 0.964392 -0.250041
1.786262 1.350617 -0.312086 128 128 255 -0.133844 0.964613 -0.227173
1.559358 1.297664 -0.383779 128 128 255 -0.175339 0.962333 -0.207779
1.354015 1.236573 -0.478357 128 128 255 -0.206385 0.959253 -0.192975
1.172734 1.172734 -0.593780 128 128 255 -0.219376 0.958068 -0.184336
1.017044 1.111802 -0.727554 128 128 255 -0.199551 0.962386 -0.184373
0.887400 1.059449 -0.876795 128 128 255 -0.114736 0.973642 -0.197122
0.783131 1.021095 -1.038281 128 128 255 0.105590 0.968502 -0.225511
0.702470 1.001660 -1.208527 128 128 255 0.521437 0.817116 -0.245815
0.642651 1.005358 -1.383857 128 128 255 0.867819 0.452314 -0.205675
0.600052 1.035532 -1.560479 128 128 255 0.971937 0.179294 -0.152292
0.570370 1.094514 -1.734573 128 128 255 0.990860 0.058397 -0.121595
0.548814 1.183534 -1.902368 128 128 255 0.993924 0.020577 -0.108132
0.530315 1.302650 -2.060227 128 128 255 0.994100 0.025676 -0.105388
0.509735 1.450714 -2.204726 128 128 255 0.992367 0.055354 -0.110199
0.482085 1.625368 -2.332733 128 128 255 0.987464 0.100928 -0.121365
0.442742 1.823080 -2.441472 128 128 255 0.977636 0.158054 -0.138736
0.387658 2.039235 -2.528585 128 128 255 0.960786 0.224484 -0.162782
0.313559 2.268302 -2.592189 128 128 255 0.934262 0.298959 -0.194367
0.218103 2.504051 -2.630908 128 128 255 0.894536 0.380496 -0.234579
0.100000 2.739820 -2.643908 128 128 255 0.836877 0.467662 -0.284480
-0.040935 2.968799 -2.630912 128 128 255 0.755194 0.557601 -0.344620
-0.203776 3.184292 -2.592205 128 128 255 0.642546 0.644699 -0.414123
-0.386535 3.379951 -2.528631 128 128 255 0.493224 0.719262 -0.489277
-0.586243 3.549977 -2.441567 128 128 255 0.307157 0.767720 -0.562371
-0.799068 3.689282 -2.332901 128 128 255 0.095001 0.776707 -0.622657
-1.020454 3.793641 -2.204988 128 128 255 -0.121781 0.740588 -0.660831
-1.245283 3.859814 -2.060595 128 128 255 -0.319637 0.665870 -0.674129
-1.468070 3.885656 -1.902850 128 128 255 -0.483579 0.567065 -0.666774
-1.683163 3.870182 -1.735167 128 128 255 -0.610199 0.458643 -0.645990
-1.884960 3.813599 -1.561176 128 128 255 -0.703623 0.350388 -0.618177
-2.068117 3.717285 -1.384643 128 128 255 -0.770503 0.247232 -0.587538
-2.227743 3.583714 -1.209388 128 128 255 -0.817154 0.150875 -0.556323
-2.359574 3.416351 -1.039204 128 128 255 -0.848573 0.061337 -0.525510
-2.460124 3.219519 -0.877775 128 128 255 -0.868406 -0.022032 -0.495364
-2.526834 2.998265 -0.728595 128 128 255 -0.879220 -0.100006 -0.465801
-2.558224 2.758224 -0.594891 128 128 255 -0.882819 -0.173214 -0.436608
-2.554044 2.505486 -0.479555 128 128 255 -0.880504 -0.242072 -0.407571
-2.515402 2.246405 -0.385083 128 128 255 -0.873245 -0.306812 -0.378561
-2.444799 1.987352 -0.313516 128 128 255 -0.861781 -0.367572 -0.349605
-2.346020 1.734378 -0.266398 128 128 255 -0.846664 -0.424462 -0.320923
-2.223859 1.492867 -0.244745 128 128 255 -0.828331 -0.477552 -0.292937
-2.083765 1.267247 -0.249020 128 128 255 -0.807249 -0.526745 -0.266249
-1.931523 1.060839 -0.279125 128 128 255 -0.784167 -0.571591 -0.241590
-1.773049 0.875842 -0.334404 128 128 255 -0.760482 -0.611033 -0.219786
-1.614317 0.713392 -0.413657 128 128 255 -0.738706 -0.643112 -0.201793
-1.461306 0.573617 -0.515166 128 128 255 -0.723149 -0.664376 -0.188839
-1.319875 0.455660 -0.636734 128 128 255 -0.721132 -0.668264 -0.182735
-1.195542 0.357699 -0.775732 128 128 255 -0.745198 -0.640249 -0.186445
-1.093212 0.276996 -0.929156 128 128 255 -0.814666 -0.542719 -0.204389
-1.016936 0.210009 -1.093691 128 128 255 -0.930822 -0.279399 -0.235601
-0.969731 0.152553 -1.265778 128 128 255 -0.945516 0.221274 -0.238825
-0.953476 0.100000 -1.441696 128 128 255 -0.757081 0.626329 -0.185849
-0.968851 0.047491 -1.617635 128 128 255 -0.600745 0.787170 -0.139530
-1.015322 -0.009850 -1.789782 128 128 255 -0.530642 0.839687 -0.115516
-1.091166 -0.076693 -1.954403 128 128 255 -0.513600 0.851439 -0.106148
-1.193531 -0.157299 -2.107924 128 128 255 -0.526060 0.843798 -0.106140
-1.318514 -0.255319 -2.247010 128 128 255 -0.555598 0.823719 -0.113125
-1.461284 -0.373610 -2.368641 128 128 255 -0.595515 0.793350 -0.126321
-1.616231 -0.514077 -2.470176 128 128 255 -0.641865 0.752826 -0.145819
-1.777170 -0.677549 -2.549409 128 128 255 -0.691938 0.701111 -0.172237
-1.937596 -0.863711 -2.604623 128 128 255 -0.743334 0.636238 -0.206536
-2.090961 -1.071093 -2.634621 128 128 255 -0.793199 0.555358 -0.249826
-2.230964 -1.297126 -2.638754 128 128 255 -0.837401 0.454871 -0.303071
-2.351808 -1.538246 -2.616933 128 128 255 -0.869571 0.330969 -0.366478
-2.448420 -1.790037 -2.569630 128 128 255 -0.880339 0.181130 -0.438400
-2.516605 -2.047392 -2.497870 128 128 255 -0.857832 0.007090 -0.513881
-2.553165 -2.304689 -2.403207 128 128 255 -0.791272 -0.181431 -0.583927
-2.555978 -2.555978 -2.287686 128 128 255 -0.677893 -0.365892 -0.637640
-2.524036 -2.795178 -2.153809 128 128 255 -0.527948 -0.525124 -0.667469
-2.457474 -3.016291 -2.004470 128 128 255 -0.360918 -0.645387 -0.673211
-2.357544 -3.213614 -1.842900 128 128 255 -0.195592 -0.724806 -0.660606
-2.226568 -3.381955 -1.672594 128 128 255 -0.043521 -0.769711 -0.636908
-2.067836 -3.516815 -1.497236 128 128 255 0.091033 -0.788834 -0.607827
-1.885473 -3.614558 -1.320620 128 128 255 0.208274 -0.789852 -0.576850
-1.684270 -3.672522 -1.146566 128 128 255 0.310299 -0.778391 -0.545731
-1.469499 -3.689106 -0.978841 128 128 255 0.399623 -0.758230 -0.515158
-1.246722 -3.663837 -0.821073 128 128 255 0.478509 -0.731820 -0.485251
-1.021601 -3.597422 -0.676675 128 128 255 0.548742 -0.700764 -0.455863
-0.799705 -3.491823 -0.548772 128 128 255 0.611614 -0.666179 -0.426771
-0.586308 -3.350305 -0.440129 128 128 255 0.668014 -0.628912 -0.397779
-0.386161 -3.177429 -0.353096 128 128 255 0.718551 -0.589634 -0.368804
-0.203245 -2.978902 -0.289553 128 128 255 0.763670 -0.548865 -0.339934
-0.040565 -2.761256 -0.250871 128 128 255 0.803713 -0.506991 -0.311457
0.100000 -2.531415 -0.237883 128 128 255 0.838922 -0.464364 -0.283858
0.217720 -2.296254 -0.250866 128 128 255 0.869399 -0.421536 -0.257786
0.312969 -2.062306 -0.289535 128 128 255 0.895061 -0.379615 -0.234005
0.387124 -1.835635 -0.353050 128 128 255 0.915623 -0.340741 -0.213379
0.442491 -1.621819 -0.440034 128 128 255 0.930545 -0.308713 -0.196930
0.482222 -1.425917 -0.548605 128 128 255 0.938741 -0.290096 -0.186038
0.510228 -1.252339 -0.676416 128 128 255 0.937313 -0.296680 -0.182826
0.531029 -1.104645 -0.820707 128 128 255 0.916649 -0.351217 -0.190790
0.549565 -0.985347 -0.978361 128 128 255 0.840937 -0.496915 -0.214244
0.570968 -0.895778 -1.145973 128 128 255 0.594061 -0.766599 -0.243756
0.600333 -0.836057 -1.319923 128 128 255 0.110203 -0.968221 -0.224506
0.642496 -0.805101 -1.496450 128 128 255 -0.259650 -0.951025 -0.167731
0.701831 -0.800704 -1.671732 128 128 255 -0.418741 -0.898834 -0.129431
0.782052 -0.819641 -1.841975 128 128 255 -0.473155 -0.873941 -0.111140
0.886053 -0.857809 -2.003488 128 128 255 -0.479172 -0.871380 -0.105313
1.015760 -0.910385 -2.152766 128 128 255 -0.458979 -0.881882 -0.107811
1.172008 -0.972008 -2.286574 128 128 255 -0.421737 -0.899149 -0.116915
1.354457 -1.036973 -2.402008 128 128 255 -0.371346 -0.919037 -0.132188
1.561540 -1.099455 -2.496567 128 128 255 -0.309243 -0.938443 -0.153928
1.790491 -1.153754 -2.568202 128 128 255 -0.235511 -0.954509 -0.182885
2.037424 -1.194545 -2.615366 128 128 255 -0.149419 -0.963967 -0.220096
2.297493 -1.217127 -2.637041 128 128 255 -0.049852 -0.962498 -0.266668
2.565096 -1.217621 -2.632763 128 128 255 0.064064 -0.944090 -0.323403
2.834095 -1.193130 -2.602631 128 128 255 0.191802 -0.900602 -0.390036
3.098052 -1.141834 -2.547303 128 128 255 0.329478 -0.822296 -0.463975
3.350443 -1.063027 -2.467981 128 128 255 0.467558 -0.700702 -0.538894
3.584863 -0.957122 -2.366387 128 128 255 0.590429 -0.534510 -0.604725
3.795223 -0.825605 -2.244723 128 128 255 0.681060 -0.335145 -0.651026
3.975947 -0.670974 -2.105628 128 128 255 0.729507 -0.124796 -0.672492
4.122160 -0.496631 -1.952115 128 128 255 0.737464 0.074008 -0.671320
4.229861 -0.306756 -1.787510 128 128 255 0.714617 0.247540 -0.654252
4.296062 -0.106139 -1.615380 128 128 255 0.672074 0.391959 -0.628239
4.318898 0.100000 -1.439452 128 128 255 0.629712 0.466062 -0.621490
4.434355 0.100000 -1.307768 128 128 255 0.681441 0.505949 -0.528823
4.412541 0.311862 -1.131841 128 128 255 0.633974 0.570139 -0.522512
4.346038 0.518198 -0.959740 128 128 255 0.566676 0.661432 -0.491310
4.236537 0.713597 -0.795193 128 128 255 0.497200 0.735631 -0.460043
4.086842 0.893032 -0.641765 128 128 255 0.426925 0.795980 -0.429129
3.900812 1.052054 -0.502780 128 128 255 0.356620 0.844919 -0.398666
3.683325 1.186990 -0.381249 128 128 255 0.286845 0.884210 -0.368635
3.440221 1.295150 -0.279805 128 128 255 0.218125 0.915143 -0.339021
3.178172 1.375021 -0.200647 128 128 255 0.150963 0.938708 -0.309898
2.904414 1.426389 -0.145487 128 128 255 0.085785 0.955725 -0.281479
2.626330 1.450351 -0.115520 128 128 255 0.022912 0.966898 -0.254131
2.350966 1.449177 -0.111394 128 128 255 -0.037351 0.972862 -0.228350
2.084636 1.426092 -0.133198 128 128 255 -0.094472 0.974253 -0.204711
1.832700 1.385058 -0.180460 128 128 255 -0.147354 0.971852 -0.183820
1.599534 1.330636 -0.252156 128 128 255 -0.193922 0.966819 -0.166300
1.388583 1.267904 -0.346739 128 128 255 -0.230549 0.960976 -0.152879
1.202373 1.202373 -0.462164 128 128 255 -0.250868 0.957162 -0.144593
1.042448 1.139831 -0.595940 128 128 255 -0.242703 0.959475 -0.143187
0.909267 1.086095 -0.745181 128 128 255 -0.179636 0.971956 -0.151764
0.802144 1.046731 -0.906667 128 128 255 -0.000206 0.984694 -0.174294
0.719263 1.026793 -1.076911 128 128 255 0.387286 0.899792 -0.200957
0.657782 1.030603 -1.252238 128 128 255 0.805558 0.563809 -0.182197
0.613977 1.061584 -1.428857 128 128 255 0.959199 0.247626 -0.136453
0.583430 1.122126 -1.602947 128 128 255 0.989344 0.098139 -0.107548
0.561222 1.213489 -1.770736 128 128 255 0.994431 0.046800 -0.094431
0.542155 1.335741 -1.928589 128 128 255 0.994817 0.045146 -0.091108
0.520962 1.487726 -2.073082 128 128 255 0.992986 0.071075 -0.094482
0.492526 1.667053 -2.201081 128 128 255 0.988060 0.114290 -0.103324
0.452101 1.870130 -2.309810 128 128 255 0.978482 0.169687 -0.117387
0.395521 2.092244 -2.396914 128 128 255 0.962388 0.234621 -0.136980
0.319410 2.327711 -2.460506 128 128 255 0.937484 0.307630 -0.162750
0.221348 2.570105 -2.499215 128 128 255 0.900808 0.387702 -0.195529
0.100000 2.812537 -2.512204 128 128 255 0.848471 0.473628 -0.236165
-0.044824 3.047960 -2.499197 128 128 255 0.775493 0.563252 -0.285234
-0.212164 3.269459 -2.460481 128 128 255 0.676006 0.652452 -0.342523
-0.399966 3.470497 -2.396897 128 128 255 0.544360 0.733966 -0.406160
-0.605169 3.645126 -2.309824 128 128 255 0.377830 0.796771 -0.471593
-0.823831 3.788141 -2.201150 128 128 255 0.180800 0.827675 -0.531286
-1.051269 3.895225 -2.073229 128 128 255 -0.032373 0.816428 -0.576539
-1.282229 3.963071 -1.928829 128 128 255 -0.240406 0.761925 -0.601394
-1.511079 3.989489 -1.771077 128 128 255 -0.423969 0.673485 -0.605531
-1.732019 3.973479 -1.603388 128 128 255 -0.572915 0.565436 -0.593339
-1.939300 3.915262 -1.429390 128 128 255 -0.686557 0.450512 -0.570682
-2.127446 3.816268 -1.252850 128 128 255 -0.769583 0.336893 -0.542444
-2.291449 3.679057 -1.077589 128 128 255 -0.828142 0.228574 -0.511796
-2.426953 3.507201 -0.907400 128 128 255 -0.867786 0.126856 -0.480474
-2.530396 3.305146 -0.745966 128 128 255 -0.892828 0.031698 -0.449282
-2.599153 3.078056 -0.596780 128 128 255 -0.906399 -0.057419 -0.418502
-2.631679 2.831679 -0.463072 128 128 255 -0.910733 -0.141010 -0.388177
-2.627659 2.572206 -0.347733 128 128 255 -0.907470 -0.219401 -0.358277
-2.588156 2.306112 -0.253257 128 128 255 -0.897884 -0.292725 -0.328809
-2.515675 2.039917 -0.181688 128 128 255 -0.883021 -0.361024 -0.299894
-2.414084 1.779857 -0.134569 128 128 255 -0.863746 -0.424348 -0.271793
-2.288351 1.531522 -0.112915 128 128 255 -0.840797 -0.482777 -0.244921
-2.144158 1.299528 -0.117190 128 128 255 -0.814889 -0.536322 -0.219806
-1.987537 1.087331 -0.147296 128 128 255 -0.786936 -0.584729 -0.197036
-1.824614 0.897201 -0.202576 128 128 255 -0.758387 -0.627251 -0.177216
-1.661526 0.730284 -0.281829 128 128 255 -0.731659 -0.662388 -0.160989
-1.504376 0.586682 -0.383338 128 128 255 -0.710762 -0.687438 -0.149150
-1.359140 0.465495 -0.504905 128 128 255 -0.702405 -0.697283 -0.142909
-1.231462 0.364844 -0.643902 128 128 255 -0.718179 -0.680715 -0.144382
-1.126375 0.281916 -0.797325 128 128 255 -0.777670 -0.608701 -0.157204
-1.048041 0.213072 -0.961857 128 128 255 -0.897669 -0.400409 -0.184021
-0.999557 0.154018 -1.133942 128 128 255 -0.977273 0.065986 -0.201454
-0.982844 0.100000 -1.309856 128 128 255 -0.822659 0.543677 -0.166276
-0.998592 0.046030 -1.485792 128 128 255 -0.646093 0.753029 -0.124543
-1.046248 -0.012896 -1.657935 128 128 255 -0.559888 0.822303 -0.101703
-1.124045 -0.081570 -1.822552 128 128 255 -0.534206 0.840294 -0.092360
-1.229069 -0.164368 -1.976068 128 128 255 -0.541944 0.835420 -0.091490
-1.357341 -0.265045 -2.115149 128 128 255 -0.568696 0.816838 -0.096753
-1.503930 -0.386547 -2.236775 128 128 255 -0.606829 0.787554 -0.107317
-1.663103 -0.530848 -2.338303 128 128 255 -0.651971 0.748176 -0.123151
-1.828517 -0.698818 -2.417529 128 128 255 -0.701267 0.698060 -0.144698
-1.993475 -0.890140 -2.472737 128 128 255 -0.752396 0.635675 -0.172679
-2.151215 -1.103300 -2.502729 128 128 255 -0.802866 0.558714 -0.207955
-2.295217 -1.335638 -2.506856 128 128 255 -0.849316 0.464218 -0.251323
-2.419487 -1.583467 -2.485030 128 128 255 -0.886761 0.348915 -0.303172
-2.518790 -1.842227 -2.437723 128 128 255 -0.907843 0.210146 -0.362850
-2.588820 -2.106658 -2.365961 128 128 255 -0.902656 0.047775 -0.427703
-2.626308 -2.370982 -2.271295 128 128 255 -0.860305 -0.132894 -0.492153
-2.629095 -2.629095 -2.155774 128 128 255 -0.773378 -0.318817 -0.547944
-2.596168 -2.874763 -2.021896 128 128 255 -0.643819 -0.491058 -0.586821
-2.527679 -3.101836 -1.872558 128 128 255 -0.484739 -0.632100 -0.604548
-2.424924 -3.304466 -1.710990 128 128 255 -0.314737 -0.733318 -0.602649
-2.290292 -3.477325 -1.540686 128 128 255 -0.149640 -0.796101 -0.586371
-2.127171 -3.615810 -1.365330 128 128 255 0.001532 -0.827524 -0.561429
-1.939802 -3.716201 -1.188717 128 128 255 0.135776 -0.835694 -0.532147
-1.733113 -3.775791 -1.014666 128 128 255 0.253605 -0.827354 -0.501168
-1.512518 -3.792964 -0.846945 128 128 255 0.356969 -0.807343 -0.469861
-1.283721 -3.767241 -0.689182 128 128 255 0.448055 -0.778899 -0.438819
-1.052516 -3.699335 -0.544789 128 128 255 0.528743 -0.744169 -0.408220
-0.824598 -3.591203 -0.416892 128 128 255 0.600436 -0.704657 -0.378067
-0.605365 -3.446111 -0.308256 128 128 255 0.664106 -0.661534 -0.348334
-0.399693 -3.268655 -0.221230 128 128 255 0.720424 -0.615786 -0.319057
-0.211691 -3.064647 -0.157696 128 128 255 0.769913 -0.568244 -0.290401
-0.044473 -2.840817 -0.119024 128 128 255 0.813039 -0.519584 -0.262680
0.100000 -2.604359 -0.106046 128 128 255 0.850222 -0.470384 -0.236352
0.220972 -2.362450 -0.119040 128 128 255 0.881791 -0.421323 -0.211969
0.318836 -2.121884 -0.157721 128 128 255 0.907934 -0.373505 -0.190130
0.395028 -1.888918 -0.221247 128 128 255 0.928672 -0.328900 -0.171446
0.451927 -1.669256 -0.308242 128 128 255 0.943850 -0.290907 -0.156592
0.492774 -1.468043 -0.416824 128 128 255 0.952978 -0.265294 -0.146466
0.521582 -1.289769 -0.544645 128 128 255 0.954411 -0.262276 -0.142514
0.542989 -1.138073 -0.688945 128 128 255 0.942010 -0.301524 -0.147309
0.562069 -1.015534 -0.846607 128 128 255 0.891189 -0.422597 -0.164908
0.584091 -0.923524 -1.014227 128 128 255 0.708414 -0.678620 -0.193970
0.614284 -0.862158 -1.188184 128 128 255 0.255963 -0.946827 -0.194940
0.657613 -0.830321 -1.364717 128 128 255 -0.176789 -0.972671 -0.150518
0.718560 -0.825740 -1.540006 128 128 255 -0.376329 -0.919318 -0.115021
0.800937 -0.845104 -1.710254 128 128 255 -0.447579 -0.888919 -0.097447
0.907716 -0.884204 -1.871771 128 128 255 -0.461140 -0.882614 -0.091335
1.040885 -0.938106 -2.021054 128 128 255 -0.444812 -0.890816 -0.092683
1.201324 -1.001324 -2.154865 128 128 255 -0.409877 -0.906668 -0.099768
1.388713 -1.068021 -2.270301 128 128 255 -0.361182 -0.925735 -0.112079
1.601470 -1.132225 -2.364860 128 128 255 -0.300690 -0.944852 -0.129772
1.836768 -1.188075 -2.436496 128 128 255 -0.228863 -0.961296 -0.153399
2.090607 -1.230081 -2.483660 128 128 255 -0.145292 -0.972176 -0.183748
2.357979 -1.253381 -2.505335 128 128 255 -0.049127 -0.973880 -0.221685
2.633085 -1.253962 -2.501058 128 128 255 0.060431 -0.961543 -0.267924
2.909582 -1.228834 -2.470927 128 128 255 0.183307 -0.928619 -0.322593
3.180831 -1.176122 -2.415600 128 128 255 0.317192 -0.866924 -0.384490
3.440123 -1.095115 -2.336279 128 128 255 0.455664 -0.767996 -0.450058
3.680891 -0.986251 -2.234687 128 128 255 0.586822 -0.626734 -0.512683
3.896900 -0.851074 -2.113026 128 128 255 0.694799 -0.446674 -0.563682
4.082442 -0.692157 -1.973933 128 128 255 0.765675 -0.242605 -0.595722
4.232525 -0.513002 -1.820423 128 128 255 0.794278 -0.035849 -0.606496
4.343050 -0.317904 -1.655821 128 128 255 0.785481 0.155084 -0.599140
4.410961 -0.111784 -1.483693 128 128 255 0.749496 0.320266 -0.579384
4.434355 0.100000 -1.307768 128 128 255 0.710204 0.404524 -0.576169
4.538951 0.100000 -1.162470 128 128 255 0.749383 0.460559 -0.475721
4.516566 0.316972 -0.986547 128 128 255 0.702437 0.533006 -0.471685
4.448485 0.528288 -0.814450 128 128 255 0.630059 0.638634 -0.441784
4.336464 0.728420 -0.649906 128 128 255 0.553660 0.724197 -0.411096
4.183382 0.912235 -0.496480 128 128 255 0.475496 0.793183 -0.380479
3.993170 1.075188 -0.357498 128 128 255 0.396883 0.848380 -0.350336
3.770761 1.213513 -0.235971 128 128 255 0.318748 0.891885 -0.320844
3.522048 1.324428 -0.134530 128 128 255 0.241905 0.925284 -0.292115
3.253785 1.406340 -0.055375 128 128 255 0.167114 0.949858 -0.264277
2.973344 1.458991 -0.000219 128 128 255 0.095014 0.966719 -0.237544
2.688317 1.483484 0.029743 128 128 255 0.026062 0.976872 -0.212230
2.406007 1.482167 0.033864 128 128 255 -0.039398 0.981237 -0.188739
2.132978 1.458393 0.012056 128 128 255 -0.100919 0.980689 -0.167522
1.874787 1.416272 -0.035210 128 128 255 -0.157607 0.976193 -0.149022
1.635927 1.360503 -0.106910 128 128 255 -0.207716 0.969014 -0.133666
1.419893 1.296282 -0.201495 128 128 255 -0.248131 0.961024 -0.121916
1.229226 1.229226 -0.316922 128 128 255 -0.273359 0.955079 -0.114448
1.065475 1.165238 -0.450700 128 128 255 -0.272965 0.955426 -0.112475
0.929101 1.110263 -0.599940 128 128 255 -0.224483 0.967268 -0.118320
0.819401 1.070000 -0.761424 128 128 255 -0.074465 0.987954 -0.135656
0.734519 1.049624 -0.931667 128 128 255 0.277620 0.947013 -0.161533
0.671539 1.053556 -1.106990 128 128 255 0.738867 0.655223 -0.157351
0.626647 1.085287 -1.283605 128 128 255 0.943312 0.309340 -0.120297
0.595314 1.147253 -1.457691 128 128 255 0.986542 0.133773 -0.094021
0.572507 1.240733 -1.625475 128 128 255 0.994202 0.069891 -0.081710
0.552911 1.365801 -1.783322 128 128 255 0.995009 0.062037 -0.078154
0.531144 1.521291 -1.927807 128 128 255 0.993167 0.084544 -0.080445
0.501980 1.704793 -2.055798 128 128 255 0.988225 0.125599 -0.087387
0.460563 1.912673 -2.164518 128 128 255 0.978816 0.179389 -0.098686
0.402627 2.140144 -2.251611 128 128 255 0.963263 0.242905 -0.114550
0.324698 2.381401 -2.315194 128 128 255 0.939542 0.314497 -0.135473
0.224283 2.629841 -2.353891 128 128 255 0.905096 0.393097 -0.162101
0.100000 2.878361 -2.366870 128 128 255 0.856633 0.477616 -0.195095
-0.048347 3.119683 -2.353853 128 128 255 0.789986 0.566323 -0.234949
-0.219770 3.346676 -2.315127 128 128 255 0.700177 0.656052 -0.281688
-0.412149 3.552626 -2.251534 128 128 255 0.582027 0.741247 -0.334361
-0.622338 3.731441 -2.164453 128 128 255 0.431794 0.813140 -0.390330
-0.846293 3.877815 -2.055770 128 128 255 0.250182 0.860038 -0.444685
-1.079216 3.987356 -1.927841 128 128 255 0.045669 0.870156 -0.490656
-1.315730 4.056701 -1.783434 128 128 255 -0.165005 0.836983 -0.521759
-1.550070 4.083622 -1.625675 128 128 255 -0.361963 0.763553 -0.534761
-1.776300 4.067103 -1.457979 128 128 255 -0.530088 0.661164 -0.530913
-1.988539 4.007382 -1.283975 128 128 255 -0.663247 0.543560 -0.514437
-2.181187 3.905931 -1.107429 128 128 255 -0.762830 0.421812 -0.490066
-2.349134 3.765389 -0.932162 128 128 255 -0.833904 0.302651 -0.461526
-2.487940 3.589433 -0.761967 128 128 255 -0.882184 0.189226 -0.431214
-2.593980 3.382624 -0.600527 128 128 255 -0.912585 0.082518 -0.400474
-2.664581 3.150245 -0.451336 128 128 255 -0.928875 -0.017492 -0.369981
-2.698146 2.898146 -0.317623 128 128 255 -0.933827 -0.111090 -0.340040
-2.694308 2.632613 -0.202280 128 128 255 -0.929524 -0.198472 -0.310794
-2.654081 2.360216 -0.107801 128 128 255 -0.917637 -0.279678 -0.282352
-2.579956 2.087591 -0.036229 128 128 255 -0.899579 -0.354683 -0.254866
-2.475857 1.821133 0.010892 128 128 255 -0.876573 -0.423522 -0.228583
-2.346892 1.566611 0.032547 128 128 255 -0.849665 -0.486329 -0.203847
-2.198960 1.328820 0.028272 128 128 255 -0.819805 -0.543257 -0.181085
-2.038328 1.111354 -0.001834 128 128 255 -0.788039 -0.594268 -0.160747
-1.871339 0.916555 -0.057114 128 128 255 -0.755828 -0.638904 -0.143268
-1.704286 0.745584 -0.136367 128 128 255 -0.725476 -0.676036 -0.129074
-1.543387 0.598516 -0.237876 128 128 255 -0.700720 -0.703498 -0.118671
-1.394719 0.474408 -0.359443 128 128 255 -0.687755 -0.717116 -0.112862
-1.264028 0.371322 -0.498439 128 128 255 -0.697309 -0.707784 -0.113152
-1.156461 0.286378 -0.651859 128 128 255 -0.748249 -0.652035 -0.122365
-1.076281 0.215854 -0.816389 128 128 255 -0.864153 -0.482212 -0.143915
-1.026659 0.155349 -0.988472 128 128 255 -0.984267 -0.060904 -0.165862
-1.009553 0.100000 -1.164383 128 128 255 -0.874321 0.463014 -0.145535
-1.025655 0.044700 -1.340316 128 128 255 -0.685647 0.719637 -0.109590
-1.074387 -0.015667 -1.512456 128 128 255 -0.585411 0.805882 -0.088590
-1.153939 -0.086004 -1.677069 128 128 255 -0.551974 0.830046 -0.079673
-1.261336 -0.170786 -1.830582 128 128 255 -0.555469 0.827844 -0.078279
-1.392532 -0.273860 -1.969658 128 128 255 -0.579704 0.810671 -0.082190
-1.542521 -0.398253 -2.091278 128 128 255 -0.616191 0.782371 -0.090577
-1.705471 -0.546008 -2.192801 128 128 255 -0.660157 0.743984 -0.103345
-1.874914 -0.718036 -2.272022 128 128 255 -0.708596 0.695194 -0.120814
-2.043984 -0.914029 -2.327224 128 128 255 -0.759219 0.634808 -0.143543
-2.205722 -1.132434 -2.357211 128 128 255 -0.809760 0.560925 -0.172199
-2.353397 -1.370510 -2.361334 128 128 255 -0.857368 0.471063 -0.207410
-2.480821 -1.624450 -2.339504 128 128 255 -0.897984 0.362415 -0.249559
-2.582603 -1.889554 -2.292194 128 128 255 -0.925699 0.232446 -0.298414
-2.654326 -2.160417 -2.220430 128 128 255 -0.932354 0.080150 -0.352549
-2.692659 -2.431119 -2.125763 128 128 255 -0.908076 -0.091834 -0.408612
-2.695416 -2.695416 -2.010242 128 128 255 -0.843792 -0.274836 -0.460956
-2.661584 -2.946939 -1.876365 128 128 255 -0.735963 -0.453611 -0.502589
-2.591334 -3.179400 -1.727028 128 128 255 -0.590779 -0.610243 -0.527810
-2.486004 -3.386823 -1.565462 128 128 255 -0.423201 -0.731299 -0.534886
-2.348045 -3.563759 -1.395160 128 128 255 -0.250485 -0.812554 -0.526321
-2.180930 -3.705502 -1.219808 128 128 255 -0.085752 -0.857816 -0.506753
-1.989009 -3.808261 -1.043198 128 128 255 0.064158 -0.874547 -0.480678
-1.777334 -3.869289 -0.869152 128 128 255 0.197339 -0.870242 -0.451372
-1.551451 -3.886956 -0.701435 128 128 255 0.314595 -0.850838 -0.420838
-1.317196 -3.860798 -0.543676 128 128 255 0.417728 -0.820537 -0.390156
-1.080486 -3.791540 -0.399289 128 128 255 0.508588 -0.782206 -0.359851
-0.847127 -3.681143 -0.271398 128 128 255 0.588672 -0.737878 -0.330155
-0.622624 -3.532875 -0.162769 128 128 255 0.659064 -0.689145 -0.301188
-0.411959 -3.351345 -0.075751 128 128 255 0.720554 -0.637368 -0.273065
-0.219352 -3.142436 -0.012225 128 128 255 0.773801 -0.583722 -0.245967
-0.048021 -2.913033 0.026438 128 128 255 0.819448 -0.529177 -0.220173
0.100000 -2.670570 0.039405 128 128 255 0.858132 -0.474520 -0.196060
0.223923 -2.422504 0.026400 128 128 255 0.890428 -0.420521 -0.174067
0.324156 -2.175893 -0.012291 128 128 255 0.916778 -0.368244 -0.154644
0.402189 -1.937190 -0.075828 128 128 255 0.937459 -0.319479 -0.138219
0.460473 -1.712220 -0.162834 128 128 255 0.952594 -0.277277 -0.125230
0.502333 -1.506203 -0.271426 128 128 255 0.962069 -0.246797 -0.116252
0.531872 -1.323691 -0.399257 128 128 255 0.964973 -0.237112 -0.112269
0.553836 -1.168386 -0.543566 128 128 255 0.957176 -0.265618 -0.115154
0.573416 -1.042927 -0.701237 128 128 255 0.920897 -0.368104 -0.128248
0.596008 -0.948721 -0.868865 128 128 255 0.781921 -0.604247 -0.153245
0.626966 -0.885884 -1.042829 128 128 255 0.376010 -0.911850 -0.164760
0.671364 -0.853264 -1.219368 128 128 255 -0.099432 -0.986174 -0.132567
0.733784 -0.848524 -1.394663 128 128 255 -0.337087 -0.936049 -0.100914
0.818117 -0.868268 -1.564917 128 128 255 -0.424504 -0.901465 -0.084599
0.927403 -0.908193 -1.726439 128 128 255 -0.445179 -0.891988 -0.078569
1.063683 -0.963260 -1.875726 128 128 255 -0.432438 -0.898186 -0.079110
1.227880 -1.027880 -2.009540 128 128 255 -0.399625 -0.912769 -0.084569
1.419698 -1.096104 -2.124978 128 128 255 -0.352479 -0.931045 -0.094414
1.637557 -1.161840 -2.219539 128 128 255 -0.293440 -0.949776 -0.108715
1.878585 -1.219089 -2.291176 128 128 255 -0.223292 -0.966325 -0.127890
2.138689 -1.262209 -2.338340 128 128 255 -0.141892 -0.978057 -0.152547
2.412712 -1.286186 -2.360016 128 128 255 -0.048607 -0.981844 -0.183359
2.694668 -1.286879 -2.355739 128 128 255 0.057249 -0.973614 -0.220904
2.978011 -1.261198 -2.325609 128 128 255 0.175805 -0.947972 -0.265410
3.255906 -1.207219 -2.270283 128 128 255 0.305652 -0.898062 -0.316323
3.521475 -1.124223 -2.190964 128 128 255 0.442413 -0.816178 -0.371651
3.768000 -1.012676 -2.089375 128 128 255 0.577258 -0.695855 -0.427268
3.989121 -0.874174 -1.967716 128 128 255 0.696768 -0.535822 -0.476874
4.179015 -0.711367 -1.828626 128 128 255 0.786096 -0.343975 -0.513551
4.332587 -0.527845 -1.675118 128 128 255 0.835105 -0.137209 -0.532703
4.445650 -0.328009 -1.510519 128 128 255 0.842912 0.064817 -0.534133
4.515083 -0.116899 -1.338393 128 128 255 0.816718 0.247317 -0.521350
4.538951 0.100000 -1.162470 128 128 255 0.781998 0.340668 -0.521943
4.631707 0.100000 -1.004960 128 128 255 0.809729 0.413087 -0.416771
4.608782 0.321502 -0.829040 128 128 255 0.764205 0.493424 -0.415359
4.539263 0.537229 -0.656945 128 128 255 0.687921 0.613314 -0.388085
4.424971 0.741549 -0.492404 128 128 255 0.605278 0.710294 -0.359334
4.268864 0.929239 -0.338981 128 128 255 0.519682 0.787904 -0.330360
4.074946 1.095672 -0.200002 128 128 255 0.433185 0.849257 -0.301850
3.848208 1.237006 -0.078476 128 128 255 0.347184 0.896826 -0.274163
3.594585 1.350383 0.022962 128 128 255 0.262823 0.932560 -0.247498
3.320883 1.434133 0.102114 128 128 255 0.181114 0.958077 -0.222004
3.034571 1.487949 0.157267 128 128 255 0.102883 0.974819 -0.197848
2.743408 1.512931 0.187226 128 128 255 0.028699 0.984103 -0.175263
2.454919 1.511484 0.191344 128 128 255 -0.041087 0.987131 -0.154546
2.175905 1.487076 0.169532 128 128 255 -0.106127 0.985004 -0.136033
1.912121 1.443960 0.122264 128 128 255 -0.165730 0.978836 -0.120055
1.668181 1.386973 0.050561 128 128 255 -0.218449 0.969975 -0.106904
1.447631 1.321422 -0.044027 128 128 255 -0.261590 0.960305 -0.096878
1.253020 1.253020 -0.159455 128 128 255 -0.290317 0.952650 -0.090405
1.085891 1.187763 -0.293232 128 128 255 -0.295450 0.951267 -0.088318
0.946697 1.131703 -0.442472 128 128 255 -0.257349 0.961897 -0.092330
0.834723 1.090659 -0.603955 128 128 255 -0.128945 0.986025 -0.105490
0.748076 1.069915 -0.774194 128 128 255 0.189637 0.973480 -0.127959
0.683780 1.073979 -0.949514 128 128 255 0.671892 0.728724 -0.132375
0.637934 1.106403 -1.126125 128 128 255 0.925113 0.365193 -0.103927
0.605908 1.169652 -1.300205 128 128 255 0.982789 0.166096 -0.080859
0.582566 1.265018 -1.467984 128 128 255 0.993449 0.090558 -0.069705
0.562488 1.392568 -1.625824 128 128 255 0.994833 0.076981 -0.066186
0.540194 1.551124 -1.770303 128 128 255 0.993045 0.096349 -0.067665
0.510364 1.738264 -1.898285 128 128 255 0.988094 0.135414 -0.073026
0.468054 1.950333 -2.006995 128 128 255 0.978799 0.187706 -0.081964
0.408909 2.182495 -2.094080 128 128 255 0.963644 0.249875 -0.094622
0.329372 2.428857 -2.157652 128 128 255 0.940814 0.320097 -0.111390
0.226878 2.682670 -2.196339 128 128 255 0.908058 0.397241 -0.132781
0.100000 2.936635 -2.209308 128 128 255 0.862526 0.480282 -0.159306
-0.051471 3.183254 -2.196281 128 128 255 0.800648 0.567756 -0.191354
-0.226517 3.415185 -2.157545 128 128 255 0.718157 0.657120 -0.229006
-0.422964 3.625535 -2.093943 128 128 255 0.610430 0.743994 -0.271751
-0.637584 3.808087 -2.006853 128 128 255 0.473488 0.821375 -0.318046
-0.866239 3.957443 -1.898163 128 128 255 0.306034 0.879351 -0.364809
-1.104029 4.069152 -1.770226 128 128 255 0.112365 0.906369 -0.407270
-1.345467 4.139810 -1.625812 128 128 255 -0.095582 0.892971 -0.439849
-1.584672 4.167158 -1.468046 128 128 255 -0.299968 0.836698 -0.458208
-1.815587 4.150169 -1.300344 128 128 255 -0.483207 0.744182 -0.461199
-2.032213 4.089090 -1.126333 128 128 255 -0.634243 0.627977 -0.450977
-2.228840 3.985435 -0.949781 128 128 255 -0.750301 0.500952 -0.431387
-2.400264 3.841909 -0.774507 128 128 255 -0.834376 0.372583 -0.406202
-2.541972 3.662287 -0.604306 128 128 255 -0.891786 0.248297 -0.378242
-2.650291 3.451240 -0.442861 128 128 255 -0.927872 0.130521 -0.349310
-2.722512 3.214162 -0.293664 128 128 255 -0.947058 0.020011 -0.320438
-2.757004 2.957004 -0.159946 128 128 255 -0.952742 -0.083150 -0.292179
-2.753357 2.686132 -0.044598 128 128 255 -0.947539 -0.178990 -0.264826
-2.712541 2.408193 0.049884 128 128 255 -0.933571 -0.267468 -0.238548
-2.637019 2.129912 0.121460 128 128 255 -0.912662 -0.348523 -0.213495
-2.530741 1.857805 0.168583 128 128 255 -0.886394 -0.422210 -0.189853
-2.398924 1.597797 0.190239 128 128 255 -0.856119 -0.488752 -0.167875
-2.247651 1.354846 0.185965 128 128 255 -0.823000 -0.548455 -0.147876
-2.083416 1.132679 0.155860 128 128 255 -0.788192 -0.601501 -0.130194
-1.912772 0.933717 0.100580 128 128 255 -0.753147 -0.647696 -0.115146
-1.742175 0.759141 0.021327 128 128 255 -0.720052 -0.686230 -0.103017
-1.577949 0.609000 -0.080181 128 128 255 -0.692401 -0.715347 -0.094125
-1.426249 0.482306 -0.201748 128 128 255 -0.675962 -0.731543 -0.088995
-1.292906 0.377066 -0.340742 128 128 255 -0.680727 -0.727149 -0.088685
-1.183159 0.290339 -0.494162 128 128 255 -0.724640 -0.682502 -0.095331
-1.101362 0.218324 -0.658690 128 128 255 -0.834099 -0.540095 -0.112145
-1.050755 0.156533 -0.830770 128 128 255 -0.977591 -0.162598 -0.133704
-1.033328 0.100000 -1.006679 128 128 255 -0.914074 0.386029 -0.124297
-1.049770 0.043515 -1.182609 128 128 255 -0.720392 0.687079 -0.094652
-1.099474 -0.018138 -1.354747 128 128 255 -0.608014 0.790282 -0.075978
-1.180578 -0.089956 -1.519357 128 128 255 -0.567583 0.820521 -0.067795
-1.290051 -0.176498 -1.672865 128 128 255 -0.567239 0.820893 -0.066139
-1.423788 -0.281689 -1.811938 128 128 255 -0.589186 0.805047 -0.068982
-1.576723 -0.408628 -1.933554 128 128 255 -0.624147 0.777647 -0.075535
-1.742957 -0.559421 -2.035072 128 128 255 -0.666979 0.740135 -0.085673
-1.915927 -0.735024 -2.114289 128 128 255 -0.714524 0.692479 -0.099637
-2.088634 -0.935147 -2.169487 128 128 255 -0.764496 0.633761 -0.117872
-2.253942 -1.158208 -2.199470 128 128 255 -0.814779 0.562390 -0.140903
-2.404926 -1.401395 -2.203589 128 128 255 -0.862873 0.476252 -0.169215
-2.535205 -1.660788 -2.181756 128 128 255 -0.905358 0.372920 -0.203120
-2.639233 -1.931554 -2.134445 128 128 255 -0.937357 0.250073 -0.242541
-2.712487 -2.208148 -2.062680 128 128 255 -0.952105 0.106345 -0.286682
-2.751580 -2.484521 -1.968013 128 128 255 -0.941000 -0.057185 -0.333540
-2.754305 -2.754305 -1.852493 128 128 255 -0.894879 -0.234960 -0.379455
-2.719658 -3.011013 -1.718617 128 128 255 -0.807248 -0.415452 -0.419227
-2.647832 -3.248244 -1.569283 128 128 255 -0.678672 -0.582420 -0.447427
-2.540204 -3.459903 -1.407719 128 128 255 -0.518953 -0.720076 -0.460628
-2.399280 -3.640437 -1.237420 128 128 255 -0.344009 -0.819201 -0.458876
-2.228609 -3.785049 -1.062071 128 128 255 -0.169437 -0.879301 -0.445109
-2.032636 -3.889881 -0.885465 128 128 255 -0.005851 -0.905969 -0.423303
-1.816523 -3.952148 -0.711423 128 128 255 0.141806 -0.906814 -0.396962
-1.585940 -3.970219 -0.543711 128 128 255 0.272586 -0.888745 -0.368550
-1.346840 -3.943645 -0.385958 128 128 255 0.387529 -0.857035 -0.339578
-1.105250 -3.873178 -0.241576 128 128 255 0.488288 -0.815428 -0.310889
-0.867079 -3.760796 -0.113691 128 128 255 0.576411 -0.766617 -0.282930
-0.637918 -3.609765 -0.005069 128 128 255 0.653120 -0.712692 -0.255937
-0.422839 -3.424697 0.081942 128 128 255 0.719366 -0.655425 -0.230067
-0.226155 -3.211512 0.145459 128 128 255 0.775990 -0.596338 -0.205475
-0.051173 -2.977207 0.184113 128 128 255 0.823842 -0.536681 -0.182367
0.100000 -2.729415 0.197070 128 128 255 0.863792 -0.477426 -0.161020
0.226543 -2.475848 0.184055 128 128 255 0.896660 -0.419409 -0.141763
0.328876 -2.223820 0.145353 128 128 255 0.923125 -0.363639 -0.124930
0.408536 -1.979983 0.081805 128 128 255 0.943687 -0.311725 -0.110827
0.468045 -1.750285 -0.005211 128 128 255 0.958685 -0.266413 -0.099740
0.510802 -1.540013 -0.113814 128 128 255 0.968264 -0.232370 -0.092030
0.540993 -1.353758 -0.241655 128 128 255 0.971985 -0.217804 -0.088355
0.563456 -1.195272 -0.385972 128 128 255 0.966983 -0.238393 -0.090066
0.583487 -1.067240 -0.543651 128 128 255 0.939850 -0.326690 -0.099778
0.606595 -0.971106 -0.711287 128 128 255 0.830961 -0.543217 -0.120077
0.638245 -0.906986 -0.885258 128 128 255 0.472857 -0.870619 -0.135751
0.683610 -0.873694 -1.061804 128 128 255 -0.027662 -0.993074 -0.114187
0.747353 -0.868832 -1.237106 128 128 255 -0.300521 -0.949798 -0.087010
0.833433 -0.888920 -1.407365 128 128 255 -0.403413 -0.912152 -0.072365
0.944941 -0.929564 -1.568892 128 128 255 -0.430810 -0.899974 -0.066698
1.083960 -0.985633 -1.718183 128 128 255 -0.421412 -0.904413 -0.066695
1.251449 -1.051449 -1.852000 128 128 255 -0.390560 -0.917849 -0.070828
1.447142 -1.120978 -1.967440 128 128 255 -0.344837 -0.935368 -0.078578
1.669472 -1.188033 -2.062003 128 128 255 -0.287125 -0.953659 -0.089966
1.915547 -1.246502 -2.133641 128 128 255 -0.218494 -0.970139 -0.105316
2.181202 -1.290615 -2.180807 128 128 255 -0.139018 -0.982355 -0.125113
2.461151 -1.315219 -2.202484 128 128 255 -0.048247 -0.987526 -0.149885
2.749232 -1.316044 -2.198208 128 128 255 0.054392 -0.982148 -0.180076
3.038704 -1.289903 -2.168079 128 128 255 0.169105 -0.961661 -0.215897
3.322544 -1.234822 -2.112755 128 128 255 0.294995 -0.920266 -0.257077
3.593710 -1.150069 -2.033438 128 128 255 0.429000 -0.851157 -0.302475
3.845353 -1.036141 -1.931850 128 128 255 0.564588 -0.747691 -0.349567
4.071003 -0.894685 -1.810194 128 128 255 0.690930 -0.606043 -0.394116
4.264743 -0.728419 -1.671107 128 128 255 0.794084 -0.428947 -0.430622
4.421391 -0.541018 -1.517601 128 128 255 0.861310 -0.227959 -0.454070
4.536685 -0.336975 -1.353004 128 128 255 0.886572 -0.020943 -0.462117
4.607446 -0.121437 -1.180881 128 128 255 0.872707 0.174652 -0.455938
4.631707 0.100000 -1.004960 128 128 255 0.843895 0.275695 -0.460253
4.711746 0.100000 -0.836755 128 128 255 0.862012 0.363879 -0.352884
4.688323 0.325410 -0.660838 128 128 255 0.818866 0.451599 -0.354284
4.617527 0.544938 -0.488745 128 128 255 0.740161 0.585492 -0.330698
4.501242 0.752863 -0.324206 128 128 255 0.652228 0.693931 -0.305056
4.342500 0.943886 -0.170785 128 128 255 0.559856 0.780240 -0.278904
4.145382 1.113315 -0.031807 128 128 255 0.466030 0.847778 -0.253159
3.914937 1.257249 0.089716 128 128 255 0.372725 0.899413 -0.228323
3.657136 1.372764 0.191152 128 128 255 0.281452 0.937497 -0.204658
3.378814 1.458129 0.270303 128 128 255 0.193468 0.964021 -0.182300
3.087501 1.512983 0.325454 128 128 255 0.109764 0.980773 -0.161355
2.791072 1.538408 0.355411 128 128 255 0.030992 0.989388 -0.141955
2.497239 1.536850 0.359526 128 128 255 -0.042503 0.991334 -0.124297
2.213016 1.511872 0.337712 128 128 255 -0.110473 0.987926 -0.108621
1.944349 1.467862 0.290442 128 128 255 -0.172415 0.980415 -0.095180
1.695984 1.409790 0.218737 128 128 255 -0.227152 0.970213 -0.084190
1.471521 1.343074 0.124149 128 128 255 -0.272350 0.959204 -0.075847
1.273511 1.273511 0.008720 128 128 255 -0.303698 0.950162 -0.070420
1.103482 1.207172 -0.125057 128 128 255 -0.312970 0.947292 -0.068465
0.961871 1.150193 -0.274295 128 128 255 -0.282647 0.956577 -0.071211
0.847947 1.108490 -0.435775 128 128 255 -0.170694 0.981985 -0.081047
0.759791 1.087447 -0.606011 128 128 255 0.118524 0.987967 -0.099366
0.694373 1.091651 -0.781327 128 128 255 0.606967 0.787357 -0.107980
0.647716 1.124704 -0.957934 128 128 255 0.905137 0.416044 -0.087371
0.615103 1.189094 -1.132009 128 128 255 0.978289 0.195810 -0.067893
0.591302 1.286109 -1.299782 128 128 255 0.992297 0.109370 -0.058174
0.570800 1.415799 -1.457615 128 128 255 0.994385 0.090462 -0.054907
0.548034 1.576970 -1.602086 128 128 255 0.992701 0.106924 -0.055793
0.517609 1.767187 -1.730060 128 128 255 0.987746 0.144148 -0.059828
0.474510 1.982787 -1.838762 128 128 255 0.978525 0.195034 -0.066716
0.414312 2.218921 -1.925837 128 128 255 0.963663 0.255915 -0.076560
0.333389 2.469639 -1.989399 128 128 255 0.941520 0.324804 -0.089682
0.229109 2.728083 -2.028077 128 128 255 0.910084 0.400506 -0.106498
0.100000 2.986784 -2.041035 128 128 255 0.866841 0.482031 -0.127411
-0.054162 3.238041 -2.027999 128 128 255 0.808675 0.568088 -0.152709
-0.232340 3.474304 -1.989254 128 128 255 0.731881 0.656551 -0.182457
-0.432305 3.688510 -1.925643 128 128 255 0.632362 0.743852 -0.216340
-0.650759 3.874318 -1.838545 128 128 255 0.506252 0.824309 -0.253423
-0.883476 4.026258 -1.729847 128 128 255 0.351260 0.889644 -0.291805
