ply
format ascii 1.0
element vertex 691
property float x
property float y
property float z
property uchar red
property uchar green
property uchar blue
property float nx
property float ny
property float nz
end_header
0.687401 -0.769714 0.320169 128 128 255 -0.700061 -0.601355 0.385079
0.703063 -0.769684 0.318478 128 128 255 0.179056 -0.473000 0.862676
0.718727 -0.769656 0.309489 128 128 255 -0.568299 0.054939 0.820986
0.734379 -0.769614 0.327571 128 128 255 0.116013 -0.669705 0.733509
0.750038 -0.769583 0.320449 128 128 255 -0.395091 -0.453482 0.798910
0.765690 -0.769545 0.326258 128 128 255 0.021769 -0.665525 0.746058
0.781344 -0.769510 0.323904 128 128 255 0.007035 -0.654640 0.755908
0.908193 -0.769383 0.331135 128 128 255 0.014950 -0.331198 0.943443
0.923842 -0.769350 0.321783 128 128 255 0.234866 -0.338844 0.911056
0.939487 -0.769313 0.318719 128 128 255 0.081278 -0.400212 0.912811
0.955129 -0.769274 0.318257 128 128 255 -0.000287 -0.623633 0.781717
0.970769 -0.769234 0.318096 128 128 255 -0.010872 -0.648835 0.760851
0.986401 -0.769188 0.327908 128 128 255 0.850525 -0.509945 0.128696
1.002070 -0.769180 0.014398 128 128 255 0.433449 -0.885397 0.167909
1.017676 -0.769110 0.317143 128 128 255 -0.864311 0.424360 -0.269973
0.922134 -0.769157 0.302644 128 128 255 0.051912 0.713154 -0.699082
0.937762 -0.769109 0.309681 128 128 255 -0.241709 0.386360 0.890114
0.953392 -0.769065 0.306798 128 128 255 0.214258 -0.190615 0.957998
0.969022 -0.769022 0.302326 128 128 255 0.228993 -0.282964 0.931394
0.984649 -0.768978 0.298137 128 128 255 0.162161 -0.314716 0.935231
1.000274 -0.768933 0.299157 128 128 255 -0.363354 -0.153409 0.918934
1.015898 -0.768888 0.304355 128 128 255 -0.550424 -0.051669 0.833285
1.031514 -0.768838 0.319145 128 128 255 -0.170167 -0.312322 0.934611
1.158285 -0.768718 0.338466 128 128 255 -0.136749 -0.304094 0.942776
-0.958333 -0.753080 -0.129535 128 128 255 -0.550022 0.432653 0.714344
-0.831589 -0.753238 -0.033554 128 128 255 -0.670858 0.188958 0.717109
-0.815980 -0.753295 0.006704 128 128 255 -0.921542 0.099442 0.375330
-0.800363 -0.753347 0.042710 128 128 255 -0.883103 0.178184 0.434028
-0.784741 -0.753395 0.068515 128 128 255 -0.834809 0.050830 0.548188
-0.769114 -0.753441 0.089235 128 128 255 -0.777424 -0.037915 0.627833
-0.753485 -0.753485 0.105611 128 128 255 -0.713351 -0.126609 0.689275
-0.737853 -0.753528 0.119555 128 128 255 -0.716791 -0.141090 0.682865
-0.722219 -0.753571 0.138858 128 128 255 -0.341416 0.399892 -0.850600
-0.817763 -0.753524 0.153762 128 128 255 -0.302439 0.254813 -0.918478
-0.802126 -0.753564 0.166574 128 128 255 -0.465944 -0.501081 0.729256
-0.786487 -0.753603 0.177597 128 128 255 -0.478289 -0.464994 0.744997
-0.770847 -0.753641 0.186657 128 128 255 -0.249015 -0.333240 0.909364
-0.755205 -0.753679 0.193907 128 128 255 0.949232 -0.125568 0.288429
-0.739557 -0.753712 0.081195 128 128 255 0.209828 0.478455 0.852674
-0.723918 -0.753757 0.160283 128 128 255 -0.917879 -0.099735 0.384125
-0.708271 -0.753794 0.167335 128 128 255 -0.122468 -0.515331 0.848195
-0.581416 -0.753919 0.181503 128 128 255 -0.095861 -0.075005 0.992565
-0.565762 -0.753955 0.176833 128 128 255 -0.474798 -0.290903 0.830628
-0.550104 -0.753987 0.198641 128 128 255 -0.620799 0.098705 0.777731
-0.534443 -0.754017 0.216576 128 128 255 -0.210404 0.295487 0.931889
-0.518783 -0.754050 0.216917 128 128 255 -0.277894 0.292356 0.915043
-0.503122 -0.754082 0.211686 128 128 255 0.327481 -0.482892 0.812140
-0.487460 -0.754115 0.201161 128 128 255 0.036079 -0.288050 0.956935
-0.471793 -0.754143 0.212928 128 128 255 -0.209952 0.199814 -0.957076
-0.567362 -0.754088 0.217451 128 128 255 0.073969 0.328872 -0.941473
-0.551699 -0.754120 0.206824 128 128 255 0.828682 -0.336404 0.447345
-0.536038 -0.754156 0.156091 128 128 255 0.072164 -0.046563 0.996305
-0.520367 -0.754178 0.193684 128 128 255 -0.196423 -0.373130 0.906748
-0.504699 -0.754208 0.177150 128 128 255 0.244908 -0.410249 0.878474
-0.489029 -0.754235 0.172148 128 128 255 0.507566 -0.319597 0.800146
-0.473358 -0.754262 0.164131 128 128 255 -0.206198 -0.252635 0.945335
-0.457683 -0.754284 0.182546 128 128 255 0.103417 -0.913881 0.392590
-0.330744 -0.754383 0.090467 128 128 255 0.138517 -0.918670 0.369943
-0.315065 -0.754404 0.136321 128 128 255 -0.826952 -0.484558 0.285226
-0.299379 -0.754414 0.210625 128 128 255 -0.899237 -0.218213 0.379151
-0.283697 -0.754433 0.218023 128 128 255 -0.581770 -0.452386 0.675937
-0.268013 -0.754448 0.234053 128 128 255 -0.432820 -0.437365 0.788276
-0.252329 -0.754466 0.237632 128 128 255 -0.432287 -0.383823 0.815971
-0.236643 -0.754481 0.247119 128 128 255 -0.292701 -0.472029 0.831574
-0.220958 -0.754498 0.244424 128 128 255 -0.039018 0.749568 -0.660776
-0.316564 -0.754462 0.243661 128 128 255 -0.073313 0.476063 -0.876350
-0.300878 -0.754475 0.258317 128 128 255 -0.581114 -0.392507 0.712913
-0.285191 -0.754488 0.270237 128 128 255 -0.427521 -0.519309 0.739962
-0.269504 -0.754502 0.274519 128 128 255 -0.100947 -0.626999 0.772452
-0.253817 -0.754516 0.277264 128 128 255 -0.271971 -0.499580 0.822467
-0.238128 -0.754527 0.286105 128 128 255 -0.171734 -0.330918 0.927901
-0.222440 -0.754540 0.283805 128 128 255 -0.091626 -0.078064 0.992729
-0.206749 -0.754548 0.295991 128 128 255 -0.119998 0.120485 0.985436
-0.079750 -0.754593 0.298367 128 128 255 0.046339 -0.572004 0.818941
-0.064058 -0.754604 0.288613 128 128 255 0.130063 -0.592136 0.795273
-0.048365 -0.754610 0.293989 128 128 255 0.639939 -0.573180 0.511803
-0.032675 -0.754636 0.221193 128 128 255 0.466624 -0.701440 0.538743
-0.016980 -0.754629 0.275097 128 128 255 -0.749084 0.293101 0.594109
-0.001286 -0.754633 0.277394 128 128 255 -0.165447 0.488222 0.856894
0.014409 -0.754636 0.282239 128 128 255 0.467110 -0.461660 0.754108
0.030102 -0.754649 0.253010 128 128 255 0.313695 0.351121 -0.882218
-0.065525 -0.754636 0.254095 128 128 255 0.101375 0.064813 -0.992735
-0.049831 -0.754643 0.244094 128 128 255 -0.034479 -0.329648 0.943474
-0.034136 -0.754644 0.256746 128 128 255 0.371335 -0.062913 0.926365
-0.018443 -0.754656 0.221370 128 128 255 0.830883 -0.445466 0.333456
-0.002749 -0.754669 0.161145 128 128 255 0.888321 -0.425042 0.173853
0.012946 -0.754675 0.100279 128 128 255 -0.813627 -0.289658 0.504093
0.028642 -0.754665 0.214648 128 128 255 -0.818424 0.199232 0.538970
0.100000 -0.754667 0.223424 128 128 255 -0.192626 0.233757 0.953023
0.171358 -0.754662 0.230723 128 128 255 0.030736 -0.326503 0.944696
0.187053 -0.754661 0.228745 128 128 255 -0.628427 -0.193506 0.753416
0.202747 -0.754654 0.247529 128 128 255 -0.715555 -0.201024 0.669007
0.218441 -0.754645 0.270836 128 128 255 -0.570770 -0.552139 0.607753
0.234136 -0.754641 0.271867 128 128 255 -0.184726 -0.567037 0.802711
0.249830 -0.754634 0.282562 128 128 255 0.200865 -0.346599 0.916254
0.265525 -0.754635 0.262373 128 128 255 -0.253090 0.172470 -0.951945
0.169897 -0.754635 0.301474 128 128 255 -0.428688 -0.277377 -0.859819
0.185591 -0.754630 0.304035 128 128 255 0.235067 -0.543771 0.805640
0.201285 -0.754631 0.288481 128 128 255 -0.270082 -0.369117 0.889274
0.216978 -0.754615 0.317775 128 128 255 -0.339570 -0.589478 0.732945
0.232672 -0.754613 0.306228 128 128 255 0.701446 -0.664629 0.257375
0.248370 -0.754636 0.177558 128 128 255 0.052469 -0.697945 0.714227
0.264055 -0.754589 0.327908 128 128 255 -0.896370 0.335434 0.289836
0.279748 -0.754585 0.318463 128 128 255 -0.001938 -0.509996 0.860175
0.406748 -0.754544 0.306503 128 128 255 0.099575 -0.685390 0.721336
0.422437 -0.754532 0.306173 128 128 255 -0.276277 -0.115324 0.954134
0.438123 -0.754511 0.322845 128 128 255 0.428175 -0.660386 0.616893
0.453816 -0.754512 0.283909 128 128 255 0.574332 -0.651172 0.496103
0.469503 -0.754497 0.283309 128 128 255 0.992515 -0.091331 0.081076
0.485171 -0.754435 -0.121289 128 128 255 0.679961 -0.577844 0.451386
0.500873 -0.754464 0.284261 128 128 255 -0.947847 -0.297623 0.114044
0.516569 -0.754472 0.186888 128 128 255 0.601941 -0.478530 -0.639277
0.420963 -0.754512 0.159147 128 128 255 0.134788 0.923912 -0.358077
0.436650 -0.754497 0.150888 128 128 255 -0.379471 -0.820851 0.426855
0.452334 -0.754477 0.169153 128 128 255 -0.715437 -0.343785 0.608245
0.468016 -0.754457 0.183284 128 128 255 -0.815954 -0.039264 0.576783
0.483695 -0.754429 0.221508 128 128 255 -0.685742 -0.202592 0.699081
0.499379 -0.754414 0.196397 128 128 255 0.009423 -0.518932 0.854764
0.515056 -0.754387 0.223238 128 128 255 -0.799038 0.108744 0.591366
0.530731 -0.754358 0.250358 128 128 255 -0.264012 -0.025730 0.964176
0.657669 -0.754261 0.263236 128 128 255 -0.249912 -0.102589 0.962819
0.673339 -0.754232 0.278237 128 128 255 0.118384 -0.391858 0.912377
0.689011 -0.754207 0.280446 128 128 255 -0.626665 0.048672 0.777767
0.704682 -0.754182 0.279362 128 128 255 0.060904 -0.601395 0.796627
0.720350 -0.754155 0.281733 128 128 255 -0.595429 -0.304573 0.743438
0.736013 -0.754121 0.297740 128 128 255 -0.607231 -0.428210 0.669258
0.751670 -0.754079 0.326984 128 128 255 -0.461804 -0.474093 0.749648
0.767337 -0.754055 0.318533 128 128 255 0.418604 0.500070 -0.758090
0.671783 -0.754128 0.269006 128 128 255 0.015996 0.064421 -0.997795
0.687434 -0.754078 0.318291 128 128 255 -0.883547 0.030687 0.467335
0.703091 -0.754039 0.334594 128 128 255 0.307378 -0.443809 0.841755
0.718761 -0.754020 0.309740 128 128 255 -0.512147 -0.352402 0.783274
0.734404 -0.753965 0.353868 128 128 255 -0.496917 -0.586531 0.639574
0.750070 -0.753943 0.332160 128 128 255 0.001024 -0.775552 0.631283
0.765713 -0.753893 0.359611 128 128 255 -0.294971 -0.590829 0.750941
0.781369 -0.753861 0.353956 128 128 255 0.026303 -0.716147 0.697453
0.908226 -0.753744 0.343668 128 128 255 0.043908 -0.809531 0.585433
0.923875 -0.753710 0.337189 128 128 255 0.235562 -0.729593 0.642032
0.939520 -0.753672 0.336438 128 128 255 -0.042917 -0.689184 0.723315
0.955159 -0.753631 0.341678 128 128 255 -0.163418 -0.641783 0.749272
0.970795 -0.753587 0.349232 128 128 255 0.141558 -0.668519 0.730098
0.986440 -0.753553 0.335478 128 128 255 0.803817 0.549899 0.226912
1.002079 -0.753516 0.327486 128 128 255 0.445397 -0.489499 0.749675
1.017715 -0.753476 0.323926 128 128 255 -0.615638 -0.596401 -0.515068
0.922168 -0.753518 0.320470 128 128 255 0.267704 0.384685 -0.883375
0.937814 -0.753488 0.292765 128 128 255 0.339552 -0.366992 0.866037
0.953434 -0.753434 0.311018 128 128 255 -0.357385 0.304776 0.882829
0.969062 -0.753389 0.310203 128 128 255 0.145876 -0.088004 0.985381
0.984688 -0.753344 0.308020 128 128 255 0.098317 -0.235943 0.966781
1.000316 -0.753302 0.304624 128 128 255 -0.307738 -0.278693 0.909741
1.015934 -0.753253 0.319068 128 128 255 -0.546874 -0.276578 0.790211
1.031554 -0.753206 0.328813 128 128 255 -0.153589 -0.147486 0.977066
1.158328 -0.753089 0.341698 128 128 255 -0.116065 -0.160297 0.980221
-0.958368 -0.737443 -0.140939 128 128 255 -0.180161 -0.949661 0.256293
-0.831631 -0.737606 -0.039848 128 128 255 -0.508493 -0.697049 0.505528
-0.816023 -0.737664 0.005709 128 128 255 -0.699829 -0.651621 0.292625
-0.800404 -0.737713 0.031540 128 128 255 -0.608865 -0.712160 0.349444
-0.784784 -0.737763 0.067020 128 128 255 -0.715084 -0.561317 0.416627
-0.769158 -0.737809 0.091975 128 128 255 -0.647847 -0.582587 0.490803
-0.753528 -0.737853 0.113202 128 128 255 -0.634151 -0.570759 0.521619
-0.737895 -0.737895 0.131805 128 128 255 -0.561694 -0.640148 0.524129
-0.722260 -0.737937 0.148294 128 128 255 -0.228081 0.733750 -0.639992
-0.817802 -0.737888 0.162928 128 128 255 -0.294659 0.541550 -0.787338
-0.802165 -0.737928 0.175789 128 128 255 -0.438252 -0.627446 0.643620
-0.786526 -0.737966 0.186297 128 128 255 -0.317545 -0.591112 0.741453
-0.770885 -0.738005 0.189897 128 128 255 -0.088537 -0.669476 0.737539
-0.755244 -0.738044 0.178983 128 128 255 0.940541 -0.205030 0.270823
-0.739594 -0.738074 0.084001 128 128 255 0.392829 -0.370876 0.841509
-0.723955 -0.738119 0.168355 128 128 255 -0.940705 -0.210090 0.266337
-0.708305 -0.738153 0.198808 128 128 255 -0.062504 -0.795696 0.602463
-0.581451 -0.738279 0.188783 128 128 255 -0.087470 -0.765000 0.638063
-0.565793 -0.738311 0.209697 128 128 255 -0.241351 -0.805946 0.540557
-0.550136 -0.738345 0.208859 128 128 255 -0.090238 -0.823849 0.559580
-0.534478 -0.738379 0.205765 128 128 255 0.342281 -0.641028 0.686969
-0.518819 -0.738413 0.184122 128 128 255 -0.328388 -0.078695 0.941259
-0.503153 -0.738439 0.218452 128 128 255 -0.575561 -0.144152 0.804953
-0.487489 -0.738469 0.217599 128 128 255 0.263654 -0.671772 0.692249
-0.471824 -0.738500 0.208692 128 128 255 -0.088832 0.170691 -0.981312
-0.567391 -0.738443 0.225306 128 128 255 -0.059382 -0.005846 -0.998218
-0.551727 -0.738474 0.216307 128 128 255 0.644080 -0.445210 0.622053
-0.536065 -0.738508 0.180402 128 128 255 0.509458 -0.693367 0.509603
-0.520393 -0.738530 0.206018 128 128 255 -0.579017 -0.302658 0.757058
-0.504724 -0.738559 0.195140 128 128 255 0.322981 -0.514806 0.794140
-0.489052 -0.738583 0.197503 128 128 255 0.520761 -0.436092 0.733915
-0.473381 -0.738611 0.179033 128 128 255 -0.019099 -0.348697 0.937041
-0.457706 -0.738634 0.189692 128 128 255 -0.119460 0.349556 0.929269
-0.330760 -0.738723 0.206952 128 128 255 0.056721 -0.865056 0.498459
-0.315078 -0.738740 0.223160 128 128 255 -0.576843 -0.676320 0.458086
-0.299399 -0.738763 0.213481 128 128 255 -0.601341 -0.519803 0.606790
-0.283715 -0.738780 0.225776 128 128 255 -0.669212 -0.171811 0.722936
-0.268030 -0.738795 0.239676 128 128 255 -0.226093 -0.258504 0.939179
-0.252346 -0.738813 0.240553 128 128 255 -0.596667 0.060546 0.800202
-0.236659 -0.738826 0.254772 128 128 255 -0.539348 -0.408511 0.736358
-0.220972 -0.738840 0.262401 128 128 255 -0.152269 0.727237 -0.669284
-0.316577 -0.738800 0.276986 128 128 255 -0.034352 0.818109 -0.574037
-0.300892 -0.738818 0.272481 128 128 255 -0.305562 -0.702082 0.643206
-0.285204 -0.738829 0.286374 128 128 255 -0.454456 -0.549562 0.701036
-0.269516 -0.738841 0.296224 128 128 255 -0.217165 -0.651901 0.726542
-0.253829 -0.738856 0.292864 128 128 255 -0.037217 -0.746855 0.663945
-0.238140 -0.738868 0.296006 128 128 255 0.010785 -0.701563 0.712526
-0.222452 -0.738883 0.288846 128 128 255 0.220013 -0.684928 0.694600
-0.206763 -0.738897 0.282465 128 128 255 -0.067437 -0.569083 0.819510
-0.079759 -0.738936 0.297212 128 128 255 -0.091517 -0.164495 0.982123
-0.064066 -0.738942 0.302013 128 128 255 0.300415 -0.534079 0.790260
-0.048373 -0.738953 0.290690 128 128 255 -0.182342 -0.418389 0.889776
-0.032678 -0.738956 0.301902 128 128 255 0.368937 -0.842448 0.392641
-0.016985 -0.738966 0.289011 128 128 255 0.341104 -0.792648 0.505329
-0.001292 -0.738979 0.260277 128 128 255 0.066987 -0.127688 0.989550
0.014404 -0.738979 0.274999 128 128 255 -0.455132 -0.036926 0.889658
0.030099 -0.738980 0.281700 128 128 255 0.276400 0.680687 -0.678430
-0.065530 -0.738976 0.254362 128 128 255 0.066226 0.666780 -0.742306
-0.049835 -0.738977 0.267371 128 128 255 0.253876 -0.501388 0.827138
-0.034141 -0.738985 0.250017 128 128 255 0.114969 -0.311226 0.943356
-0.018445 -0.738987 0.254612 128 128 255 0.878065 0.192010 0.438332
-0.002751 -0.738994 0.239018 128 128 255 0.958450 -0.060916 0.278680
0.012944 -0.739013 0.106940 128 128 255 0.441877 -0.821398 0.360623
0.028640 -0.739008 0.188872 128 128 255 -0.814587 -0.126710 0.566033
0.100000 -0.739006 0.219609 128 128 255 -0.233677 -0.065219 0.970124
0.171359 -0.738999 0.239605 128 128 255 -0.319247 -0.064349 0.945484
0.187055 -0.738996 0.247429 128 128 255 -0.400074 -0.679219 0.615307
0.202750 -0.738991 0.256711 128 128 255 -0.524647 -0.630043 0.572530
0.218445 -0.738981 0.283239 128 128 255 -0.776250 -0.178797 0.604540
0.234139 -0.738972 0.301890 128 128 255 -0.081329 -0.572002 0.816211
0.249834 -0.738974 0.284792 128 128 255 0.175490 -0.637813 0.749932
0.265529 -0.738970 0.282849 128 128 255 -0.109367 0.792320 -0.600223
0.169900 -0.738974 0.305983 128 128 255 -0.321032 0.672376 -0.666970
0.185595 -0.738965 0.322112 128 128 255 -0.252452 -0.510848 0.821768
0.201290 -0.738963 0.314286 128 128 255 0.012908 -0.799827 0.600091
0.216983 -0.738955 0.323151 128 128 255 -0.388807 -0.539995 0.746481
0.232677 -0.738945 0.333639 128 128 255 -0.392585 -0.301804 0.868787
0.248369 -0.738933 0.344743 128 128 255 0.416619 -0.880473 0.226266
0.264065 -0.738939 0.311742 128 128 255 -0.328992 -0.864993 0.378882
0.279758 -0.738932 0.307081 128 128 255 -0.088660 -0.219867 0.971493
0.406755 -0.738874 0.341738 128 128 255 -0.057410 -0.331717 0.941630
0.422448 -0.738872 0.317564 128 128 255 0.439637 -0.745095 0.501551
0.438138 -0.738863 0.308653 128 128 255 -0.157575 -0.365660 0.917313
0.453825 -0.738845 0.318776 128 128 255 0.732138 -0.432407 0.526307
0.469517 -0.738843 0.283654 128 128 255 0.995333 0.053926 0.080031
0.485201 -0.738818 -0.046990 128 128 255 0.826912 0.487506 0.280276
0.500898 -0.738830 0.215309 128 128 255 -0.947818 0.301651 0.103191
0.516587 -0.738822 0.160515 128 128 255 0.641014 -0.569098 -0.515004
0.420979 -0.738859 0.138793 128 128 255 -0.097238 -0.851609 -0.515079
0.436665 -0.738840 0.174488 128 128 255 -0.730232 0.163743 0.663287
0.452350 -0.738822 0.184348 128 128 255 -0.476714 -0.172137 0.862040
0.468034 -0.738803 0.191374 128 128 255 -0.752458 -0.046738 0.656979
0.483715 -0.738780 0.209703 128 128 255 -0.774038 0.202590 0.599851
0.499393 -0.738752 0.238755 128 128 255 -0.509023 -0.090965 0.855933
0.515075 -0.738733 0.234891 128 128 255 -0.314337 -0.554973 0.770193
0.530754 -0.738711 0.242750 128 128 255 -0.235313 0.275807 0.931965
0.657693 -0.738613 0.265781 128 128 255 -0.267242 0.268698 0.925410
0.673360 -0.738578 0.295158 128 128 255 -0.152244 -0.017824 0.988182
0.689043 -0.738570 0.257202 128 128 255 -0.501206 -0.201467 0.841548
0.704701 -0.738525 0.307915 128 128 255 -0.653215 -0.391665 0.648003
0.720373 -0.738503 0.300854 128 128 255 -0.257137 -0.687987 0.678642
0.736034 -0.738465 0.325367 128 128 255 -0.600387 -0.481842 0.638251
0.751700 -0.738438 0.326479 128 128 255 -0.252409 -0.536063 0.805560
0.767366 -0.738410 0.326217 128 128 255 0.325944 -0.887640 -0.325354
0.671807 -0.738477 0.294050 128 128 255 -0.236831 -0.870349 -0.431746
0.687464 -0.738434 0.324637 128 128 255 -0.681586 -0.592293 0.429685
0.703123 -0.738398 0.337809 128 128 255 0.019443 -0.744071 0.667817
0.718791 -0.738375 0.322372 128 128 255 -0.062088 -0.693526 0.717751
0.734439 -0.738327 0.354333 128 128 255 -0.829276 -0.081664 0.552840
0.750092 -0.738289 0.364601 128 128 255 0.003236 -0.665773 0.746147
0.765750 -0.738257 0.360336 128 128 255 0.022893 -0.711155 0.702662
0.781409 -0.738229 0.348003 128 128 255 -0.012119 -0.599879 0.799999
0.908254 -0.738097 0.366609 128 128 255 -0.012471 -0.541762 0.840439
0.923903 -0.738063 0.361485 128 128 255 0.235258 -0.728546 0.643331
0.939552 -0.738031 0.351087 128 128 255 0.358348 -0.640837 0.678907
0.955195 -0.737992 0.350964 128 128 255 -0.106663 -0.323423 0.940224
0.970837 -0.737955 0.346517 128 128 255 0.234744 -0.336928 0.911798
0.986478 -0.737918 0.341096 128 128 255 0.869686 -0.475395 0.132840
1.002155 -0.737917 0.041749 128 128 255 0.514922 -0.515383 0.685007
1.017757 -0.737844 0.322808 128 128 255 -0.771645 0.543375 -0.330617
0.922211 -0.737887 0.321431 128 128 255 0.105372 0.319761 -0.941621
0.937840 -0.737840 0.325670 128 128 255 0.524792 -0.298974 0.796999
0.953483 -0.737809 0.300867 128 128 255 0.183990 -0.382583 0.905416
0.969107 -0.737760 0.306726 128 128 255 0.047576 0.060311 0.997045
0.984734 -0.737716 0.303337 128 128 255 -0.038501 0.177511 0.983365
1.000357 -0.737669 0.309212 128 128 255 -0.282538 0.162985 0.945309
1.015980 -0.737624 0.317891 128 128 255 -0.603068 0.199647 0.772302
1.031599 -0.737577 0.329274 128 128 255 -0.155988 -0.105421 0.982117
1.158375 -0.737462 0.336481 128 128 255 -0.071097 -0.105917 0.991830
-0.958469 -0.721860 -0.029718 128 128 255 0.533674 0.292394 -0.793535
-0.831700 -0.721996 0.033707 128 128 255 0.540675 -0.664128 -0.516338
-0.816082 -0.722045 0.072971 128 128 255 0.923576 -0.052197 -0.379846
-0.800460 -0.722091 0.113314 128 128 255 0.835343 -0.159271 -0.526151
-0.784832 -0.722134 0.117403 128 128 255 0.634934 -0.261022 -0.727136
-0.769203 -0.722177 0.131258 128 128 255 0.683964 -0.195123 -0.702937
-0.753571 -0.722219 0.141634 128 128 255 0.699591 -0.170383 -0.693932
-0.737937 -0.722260 0.159340 128 128 255 0.728350 -0.143306 -0.670052
-0.722300 -0.722300 0.175433 128 128 255 0.175645 0.069504 0.981997
-0.817841 -0.722251 0.179359 128 128 255 0.483568 0.675104 0.557133
-0.802203 -0.722289 0.199158 128 128 255 0.570594 -0.183763 -0.800409
-0.786563 -0.722327 0.203271 128 128 255 0.086757 -0.248027 -0.964861
-0.770922 -0.722365 0.204038 128 128 255 0.000520 -0.082627 -0.996580
-0.755278 -0.722401 0.220664 128 128 255 -0.981626 -0.013197 -0.190357
-0.739632 -0.722436 0.099052 128 128 255 0.939066 -0.041361 -0.341240
-0.723990 -0.722477 0.189056 128 128 255 0.924809 -0.104095 -0.365913
-0.708339 -0.722511 0.211716 128 128 255 -0.050868 -0.007009 -0.998681
-0.581483 -0.722636 0.207541 128 128 255 0.431191 -0.149223 -0.889835
-0.565825 -0.722666 0.229647 128 128 255 0.568367 -0.193161 -0.799780
-0.550166 -0.722698 0.235811 128 128 255 0.116816 -0.293324 -0.948849
-0.534506 -0.722730 0.236729 128 128 255 -0.122871 -0.403655 -0.906623
-0.518847 -0.722764 0.221273 128 128 255 -0.110650 -0.546927 -0.829836
-0.503182 -0.722793 0.228330 128 128 255 -0.279493 -0.269201 -0.921637
-0.487516 -0.722821 0.233782 128 128 255 0.395729 -0.129398 -0.909205
-0.471850 -0.722850 0.227853 128 128 255 -0.084704 0.213545 0.973254
-0.567421 -0.722798 0.222356 128 128 255 -0.448580 0.522119 0.725374
-0.551755 -0.722827 0.216855 128 128 255 -0.013640 -0.074142 -0.997154
-0.536087 -0.722853 0.219845 128 128 255 -0.772456 -0.194164 -0.604659
-0.520421 -0.722884 0.196940 128 128 255 -0.242748 0.038754 -0.969315
-0.504749 -0.722909 0.201728 128 128 255 -0.181488 0.088573 -0.979396
-0.489077 -0.722934 0.196946 128 128 255 -0.687027 0.022011 -0.726299
-0.473407 -0.722963 0.167349 128 128 255 0.068026 0.066951 -0.995435
-0.457730 -0.722983 0.192845 128 128 255 -0.128007 0.215013 -0.968186
-0.330784 -0.723076 0.173690 128 128 255 -0.062752 0.594338 -0.801764
-0.315105 -0.723099 0.149606 128 128 255 0.820463 0.268493 -0.504729
-0.299418 -0.723110 0.208974 128 128 255 0.915970 0.094598 -0.389937
-0.283734 -0.723126 0.222596 128 128 255 0.795719 -0.096960 -0.597854
-0.268047 -0.723138 0.249895 128 128 255 0.069479 -0.306352 -0.949380
-0.252364 -0.723160 0.226941 128 128 255 0.562416 -0.239258 -0.791482
-0.236674 -0.723168 0.263350 128 128 255 0.623312 -0.092516 -0.776481
-0.220985 -0.723179 0.279065 128 128 255 0.249869 0.022351 0.968022
-0.316591 -0.723140 0.291965 128 128 255 0.087271 0.609083 0.788290
-0.300906 -0.723157 0.287006 128 128 255 0.576655 -0.213266 -0.788661
-0.285218 -0.723169 0.298192 128 128 255 0.105269 -0.303392 -0.947033
-0.269530 -0.723183 0.299749 128 128 255 0.530708 -0.179779 -0.828268
-0.253840 -0.723193 0.310552 128 128 255 0.084679 -0.287225 -0.954113
-0.238151 -0.723205 0.313428 128 128 255 0.248415 -0.292713 -0.923368
-0.222461 -0.723217 0.311124 128 128 255 -0.420589 -0.329749 -0.845204
-0.206771 -0.723229 0.310610 128 128 255 -0.007488 -0.094993 -0.995450
-0.079766 -0.723269 0.316820 128 128 255 0.163901 -0.360067 -0.918416
-0.064072 -0.723277 0.315210 128 128 255 -0.250246 -0.297224 -0.921431
-0.048379 -0.723288 0.302178 128 128 255 -0.750160 -0.098761 -0.653839
-0.032684 -0.723290 0.316303 128 128 255 0.646379 0.117041 -0.753987
-0.016990 -0.723299 0.303842 128 128 255 -0.604000 -0.304150 -0.736666
-0.001296 -0.723314 0.269551 128 128 255 -0.439830 -0.435006 -0.785697
0.014400 -0.723312 0.288899 128 128 255 -0.015844 -0.219310 -0.975526
0.030095 -0.723316 0.289383 128 128 255 -0.236086 0.036570 0.971044
-0.065535 -0.723311 0.262182 128 128 255 -0.485921 0.442865 0.753493
-0.049840 -0.723314 0.268383 128 128 255 0.070299 0.007785 -0.997496
-0.034145 -0.723320 0.258151 128 128 255 -0.583260 -0.058979 -0.810141
-0.018449 -0.723322 0.259533 128 128 255 -0.986327 0.019646 -0.163623
-0.002755 -0.723345 0.128297 128 128 255 -0.817417 0.448214 -0.361847
0.012942 -0.723345 0.159994 128 128 255 0.979655 0.071561 -0.187497
0.028639 -0.723341 0.205700 128 128 255 0.337254 -0.182699 -0.923516
0.100000 -0.723337 0.241884 128 128 255 0.326662 -0.210258 -0.921457
0.171361 -0.723336 0.234779 128 128 255 0.138141 -0.479829 -0.866419
0.187057 -0.723329 0.260023 128 128 255 0.824800 -0.061511 -0.562069
0.202752 -0.723319 0.289046 128 128 255 0.662628 -0.219859 -0.715951
0.218448 -0.723318 0.284979 128 128 255 0.065458 -0.285373 -0.956179
0.234143 -0.723312 0.292244 128 128 255 0.301308 -0.048199 -0.952308
0.249838 -0.723307 0.297506 128 128 255 0.299538 -0.159003 -0.940742
0.265533 -0.723301 0.302873 128 128 255 0.172433 0.053089 0.983589
0.169904 -0.723306 0.324359 128 128 255 0.693168 0.398940 0.600305
0.185599 -0.723303 0.322165 128 128 255 0.156878 -0.289994 -0.944083
0.201294 -0.723295 0.331948 128 128 255 0.282352 -0.225590 -0.932409
0.216988 -0.723286 0.343434 128 128 255 0.038196 -0.286457 -0.957331
0.232684 -0.723288 0.324518 128 128 255 0.115508 -0.293327 -0.949008
0.248377 -0.723277 0.335447 128 128 255 -0.124002 -0.156345 -0.979888
0.264071 -0.723271 0.334499 128 128 255 -0.289293 -0.201634 -0.935763
0.279764 -0.723260 0.341380 128 128 255 0.068126 -0.223613 -0.972294
0.406768 -0.723221 0.329936 128 128 255 0.029606 -0.428804 -0.902912
0.422456 -0.723203 0.347104 128 128 255 -0.022947 -0.283665 -0.958649
0.438148 -0.723197 0.331142 128 128 255 -0.874019 -0.121881 -0.470358
0.453837 -0.723185 0.328253 128 128 255 -0.803141 0.135878 -0.580088
0.469531 -0.723186 0.286254 128 128 255 -0.998874 0.006549 -0.046980
0.485192 -0.723105 -0.151678 128 128 255 0.961262 0.193617 -0.196182
0.500917 -0.723181 0.112355 128 128 255 0.968997 0.195119 -0.151569
0.516604 -0.723165 0.157080 128 128 255 -0.151029 0.127196 0.980312
0.420994 -0.723201 0.109066 128 128 255 0.627657 -0.356692 0.691967
0.436681 -0.723186 0.154221 128 128 255 0.918130 0.088120 -0.386358
0.452367 -0.723168 0.174956 128 128 255 0.600671 -0.124167 -0.789795
0.468052 -0.723151 0.174982 128 128 255 0.759301 -0.084672 -0.645207
0.483733 -0.723124 0.217916 128 128 255 0.488318 -0.077351 -0.869231
0.499417 -0.723107 0.206282 128 128 255 0.579657 0.094593 -0.809352
0.515095 -0.723080 0.236979 128 128 255 0.840423 -0.002481 -0.541926
0.530776 -0.723060 0.240639 128 128 255 0.017256 -0.138746 -0.990178
0.657719 -0.722966 0.259671 128 128 255 0.451586 0.100039 -0.886601
0.673393 -0.722942 0.265400 128 128 255 0.330026 -0.046047 -0.942848
0.689063 -0.722912 0.282047 128 128 255 0.850186 -0.121890 -0.512179
0.704727 -0.722877 0.310359 128 128 255 0.658574 -0.173829 -0.732164
0.720395 -0.722848 0.319006 128 128 255 0.230782 -0.301887 -0.924989
0.736065 -0.722824 0.317524 128 128 255 0.388705 -0.125704 -0.912747
0.751726 -0.722787 0.338820 128 128 255 0.595164 -0.091212 -0.798411
0.767392 -0.722761 0.337447 128 128 255 -0.902373 -0.021183 0.430435
0.671856 -0.722859 0.171249 128 128 255 0.891044 -0.433462 0.134729
0.687484 -0.722776 0.355492 128 128 255 0.966385 0.069583 -0.247506
0.703144 -0.722741 0.368044 128 128 255 0.019891 -0.265746 -0.963838
0.718812 -0.722718 0.353737 128 128 255 0.230485 -0.449887 -0.862832
0.734473 -0.722687 0.353855 128 128 255 0.441413 -0.360849 -0.821549
0.750127 -0.722649 0.366160 128 128 255 0.250474 -0.268595 -0.930118
0.765779 -0.722610 0.375631 128 128 255 0.167989 -0.242372 -0.955529
0.781432 -0.722574 0.378525 128 128 255 -0.086715 -0.112191 -0.989896
0.908286 -0.722454 0.378453 128 128 255 0.037200 -0.237815 -0.970598
0.923938 -0.722423 0.368446 128 128 255 0.147395 -0.194200 -0.969825
0.939581 -0.722383 0.371868 128 128 255 -0.616966 -0.297370 -0.728645
0.955237 -0.722359 0.344299 128 128 255 -0.089401 -0.296854 -0.950729
0.970871 -0.722313 0.358927 128 128 255 -0.286438 -0.258178 -0.922658
0.986515 -0.722279 0.347033 128 128 255 -0.241036 -0.194126 -0.950903
1.002147 -0.722234 0.356140 128 128 255 0.084178 -0.930304 -0.356999
1.017794 -0.722206 0.330325 128 128 255 -0.335470 -0.283471 0.898390
0.922247 -0.722247 0.333596 128 128 255 -0.682863 0.244147 0.688542
0.937894 -0.722218 0.304442 128 128 255 -0.307382 -0.013606 -0.951489
0.953520 -0.722170 0.311586 128 128 255 -0.031388 -0.083037 -0.996052
0.969147 -0.722125 0.312274 128 128 255 -0.400822 -0.058848 -0.914264
0.984777 -0.722083 0.303659 128 128 255 -0.334397 0.043012 -0.941450
1.000403 -0.722040 0.304492 128 128 255 0.533654 0.080253 -0.841886
1.016031 -0.721999 0.306753 128 128 255 0.667806 -0.005675 -0.744313
1.031647 -0.721949 0.325296 128 128 255 0.189476 -0.055272 -0.980328
1.158412 -0.721826 0.346254 128 128 255 0.185960 -0.161359 -0.969217
-0.958396 -0.817381 -0.137635 128 128 255 0.526894 0.581971 -0.619429
-0.831640 -0.817529 -0.034222 128 128 255 0.489504 0.584610 -0.647006
-0.816030 -0.817585 0.015958 128 128 255 0.918781 0.204635 -0.337589
-0.800410 -0.817633 0.052152 128 128 255 0.888760 0.248071 -0.385444
-0.784784 -0.817678 0.081501 128 128 255 0.726889 0.278031 -0.627958
-0.769155 -0.817721 0.106584 128 128 255 0.776945 0.145220 -0.612591
-0.753523 -0.817762 0.128594 128 128 255 0.730501 0.069634 -0.679352
-0.737889 -0.817803 0.148155 128 128 255 0.762413 0.040599 -0.645815
-0.722251 -0.817842 0.165599 128 128 255 0.758283 0.012077 0.651813
-0.817797 -0.817797 0.181065 128 128 255 0.151303 -0.041482 0.987617
-0.802157 -0.817834 0.194456 128 128 255 0.689584 -0.043953 -0.722871
-0.786516 -0.817870 0.204559 128 128 255 0.298835 -0.120196 -0.946705
-0.770873 -0.817906 0.205751 128 128 255 -0.266166 -0.275829 -0.923620
-0.755230 -0.817943 0.191823 128 128 255 -0.883407 -0.165942 -0.438241
-0.739574 -0.817968 0.075368 128 128 255 -0.952214 -0.097457 -0.289465
-0.723936 -0.818014 0.194242 128 128 255 0.981442 -0.018255 -0.190888
-0.708285 -0.818047 0.213085 128 128 255 0.203495 -0.241715 -0.948769
-0.581431 -0.818171 0.190220 128 128 255 0.007240 0.063343 -0.997966
-0.565772 -0.818199 0.228877 128 128 255 0.835579 -0.025260 -0.548789
-0.550113 -0.818230 0.236598 128 128 255 0.262012 -0.138385 -0.955091
-0.534454 -0.818262 0.235400 128 128 255 0.165191 -0.121076 -0.978802
-0.518792 -0.818291 0.241762 128 128 255 -0.249375 -0.139208 -0.958349
-0.503129 -0.818321 0.240054 128 128 255 -0.218166 -0.184690 -0.958276
-0.487467 -0.818354 0.223321 128 128 255 0.124631 -0.091994 -0.987929
-0.471798 -0.818378 0.240698 128 128 255 0.169541 0.189625 0.967108
-0.567362 -0.818324 0.234428 128 128 255 -0.105562 0.104184 0.988940
-0.551697 -0.818354 0.224383 128 128 255 -0.153272 0.168990 -0.973627
-0.536029 -0.818380 0.224476 128 128 255 -0.693292 0.152329 -0.704373
-0.520365 -0.818413 0.185066 128 128 255 -0.740064 -0.194152 -0.643902
-0.504694 -0.818437 0.194565 128 128 255 0.135110 -0.081718 -0.987455
-0.489023 -0.818463 0.185487 128 128 255 -0.372867 -0.074520 -0.924887
-0.473351 -0.818488 0.177432 128 128 255 -0.634462 -0.074453 -0.769360
-0.457677 -0.818511 0.180519 128 128 255 -0.019183 -0.223131 -0.974600
-0.330744 -0.818610 0.144710 128 128 255 -0.086093 0.036778 -0.995608
-0.315063 -0.818627 0.174695 128 128 255 0.503824 -0.004866 -0.863793
-0.299379 -0.818641 0.211778 128 128 255 0.943215 -0.044775 -0.329150
-0.283694 -0.818652 0.241577 128 128 255 0.809122 -0.003758 -0.587629
-0.268009 -0.818665 0.261750 128 128 255 0.748736 0.049625 -0.661008
-0.252325 -0.818682 0.263287 128 128 255 -0.335708 -0.216466 -0.916757
-0.236639 -0.818693 0.280151 128 128 255 0.697461 -0.287285 -0.656517
-0.220954 -0.818712 0.270492 128 128 255 0.450799 0.502160 0.737981
-0.316548 -0.818667 0.290402 128 128 255 0.182310 0.016027 0.983110
-0.300863 -0.818683 0.290071 128 128 255 0.268836 -0.103690 -0.957588
-0.285175 -0.818690 0.312906 128 128 255 0.529030 -0.196072 -0.825641
-0.269490 -0.818707 0.308914 128 128 255 0.296300 -0.253542 -0.920827
-0.253800 -0.818714 0.325415 128 128 255 0.367157 -0.187544 -0.911056
-0.238114 -0.818731 0.316930 128 128 255 0.106001 -0.244336 -0.963880
-0.222424 -0.818739 0.327563 128 128 255 -0.196811 -0.286600 -0.937617
-0.206738 -0.818757 0.309177 128 128 255 -0.161301 -0.524751 -0.835834
-0.079749 -0.818807 0.301547 128 128 255 0.068718 -0.073550 -0.994921
-0.064056 -0.818807 0.320508 128 128 255 0.388796 0.009618 -0.921274
-0.048363 -0.818814 0.322854 128 128 255 -0.777761 -0.230551 -0.584751
-0.032673 -0.818836 0.274930 128 128 255 0.088380 -0.227430 -0.969775
-0.016978 -0.818830 0.309123 128 128 255 0.485566 0.030051 -0.873684
-0.001285 -0.818833 0.313832 128 128 255 -0.692428 -0.244276 -0.678876
0.014408 -0.818842 0.299589 128 128 255 -0.131401 -0.309576 -0.941752
0.030102 -0.818850 0.284785 128 128 255 -0.476500 0.470697 0.742558
-0.065516 -0.818841 0.268099 128 128 255 -0.269114 0.066676 0.960797
-0.049823 -0.818849 0.258309 128 128 255 0.097302 0.002735 -0.995251
-0.034129 -0.818850 0.266586 128 128 255 -0.483181 -0.120013 -0.867256
-0.018436 -0.818860 0.242801 128 128 255 -0.938019 -0.130836 -0.320940
-0.002743 -0.818880 0.114836 128 128 255 -0.981953 -0.086929 -0.167962
0.012952 -0.818883 0.106544 128 128 255 0.922255 0.161800 -0.351093
0.028647 -0.818871 0.225885 128 128 255 0.864102 -0.187981 -0.466894
0.100000 -0.818876 0.222554 128 128 255 0.358152 0.008794 -0.933622
0.171352 -0.818862 0.266727 128 128 255 0.198868 0.017568 -0.979869
0.187046 -0.818860 0.267078 128 128 255 0.609401 -0.140177 -0.780372
0.202740 -0.818854 0.280755 128 128 255 0.802539 -0.068853 -0.592613
0.218434 -0.818846 0.297840 128 128 255 0.302273 -0.161175 -0.939496
0.234128 -0.818841 0.302208 128 128 255 0.372348 -0.194007 -0.907589
0.249821 -0.818835 0.307247 128 128 255 0.203813 -0.145815 -0.968090
0.265514 -0.818830 0.308089 128 128 255 0.191495 0.611959 0.767356
0.169898 -0.818842 0.314249 128 128 255 0.286222 0.070713 0.955550
0.185590 -0.818827 0.342851 128 128 255 0.520733 -0.057765 -0.851763
0.201284 -0.818822 0.345687 128 128 255 0.122030 -0.173988 -0.977158
0.216977 -0.818820 0.338538 128 128 255 0.239988 -0.157828 -0.957860
0.232669 -0.818810 0.347770 128 128 255 0.078012 -0.264931 -0.961107
0.248361 -0.818798 0.360952 128 128 255 0.267750 -0.196265 -0.943287
0.264054 -0.818796 0.349443 128 128 255 -0.569910 -0.285776 -0.770412
0.279747 -0.818797 0.326902 128 128 255 0.027945 -0.307185 -0.951239
0.406733 -0.818742 0.347008 128 128 255 0.040971 -0.114042 -0.992631
0.422421 -0.818728 0.351626 128 128 255 0.459328 -0.070395 -0.885473
0.438110 -0.818718 0.345705 128 128 255 -0.862907 -0.062084 -0.501535
0.453805 -0.818727 0.286864 128 128 255 -0.859683 -0.100255 -0.500894
0.469494 -0.818717 0.271566 128 128 255 -0.974596 -0.204614 -0.091078
0.485147 -0.818619 -0.168427 128 128 255 -0.957784 -0.278839 -0.069996
0.500875 -0.818708 0.115592 128 128 255 0.996853 -0.025122 -0.075181
0.516559 -0.818692 0.152170 128 128 255 0.729760 0.526841 0.435763
0.420962 -0.818734 0.120539 128 128 255 -0.308377 0.069605 0.948714
0.436648 -0.818718 0.151537 128 128 255 0.937315 -0.012363 -0.348264
0.452331 -0.818696 0.195799 128 128 255 0.861777 0.040314 -0.505683
0.468013 -0.818676 0.209970 128 128 255 0.348853 -0.237329 -0.906629
0.483695 -0.818654 0.221486 128 128 255 0.790542 -0.159323 -0.591320
0.499376 -0.818635 0.220413 128 128 255 -0.023638 -0.181781 -0.983055
0.515054 -0.818610 0.237411 128 128 255 0.858545 -0.054339 -0.509851
0.530729 -0.818581 0.269037 128 128 255 0.150267 -0.475028 -0.867046
0.657666 -0.818494 0.255569 128 128 255 0.159239 -0.183101 -0.970112
0.673331 -0.818456 0.296773 128 128 255 0.690908 -0.074937 -0.719049
0.689005 -0.818434 0.296634 128 128 255 0.641066 -0.128747 -0.756610
0.704671 -0.818401 0.318035 128 128 255 0.790320 -0.015365 -0.612501
0.720337 -0.818371 0.330771 128 128 255 0.464291 -0.202810 -0.862150
0.736006 -0.818345 0.333408 128 128 255 0.120773 -0.238239 -0.963668
0.751672 -0.818318 0.337581 128 128 255 0.629685 -0.067913 -0.773876
0.767334 -0.818285 0.350384 128 128 255 -0.555846 0.822644 0.119551
0.671805 -0.818389 0.144787 128 128 255 -0.533805 0.625932 0.568560
0.687435 -0.818307 0.359591 128 128 255 0.993877 0.012200 -0.109816
0.703101 -0.818281 0.353390 128 128 255 0.224019 -0.117946 -0.967422
0.718762 -0.818250 0.357805 128 128 255 0.181924 -0.141214 -0.973120
0.734415 -0.818209 0.377595 128 128 255 0.628034 -0.031342 -0.777555
0.750067 -0.818168 0.393503 128 128 255 0.477812 0.056950 -0.876614
0.765726 -0.818139 0.387525 128 128 255 -0.139965 -0.013636 -0.990062
0.781383 -0.818108 0.383368 128 128 255 -0.152418 -0.518363 -0.841468
0.908248 -0.818005 0.357624 128 128 255 -0.031973 -0.095008 -0.994963
0.923890 -0.817962 0.373444 128 128 255 0.269373 -0.082359 -0.959508
0.939531 -0.817921 0.384059 128 128 255 0.043692 -0.229828 -0.972250
0.955182 -0.817892 0.369272 128 128 255 -0.605013 -0.230453 -0.762136
0.970820 -0.817850 0.376355 128 128 255 0.177984 -0.164994 -0.970102
0.986468 -0.817820 0.361132 128 128 255 -0.603641 -0.218049 -0.766859
1.002110 -0.817785 0.352609 128 128 255 -0.378050 -0.156681 -0.912430
1.017758 -0.817758 0.326594 128 128 255 -0.754004 -0.061203 0.654013
0.922205 -0.817793 0.329750 128 128 255 -0.043964 -0.117340 0.992118
0.937845 -0.817758 0.315919 128 128 255 -0.657899 -0.132521 -0.741355
0.953472 -0.817712 0.322347 128 128 255 0.123782 -0.145391 -0.981600
0.969107 -0.817674 0.310493 128 128 255 -0.375578 -0.024249 -0.926473
0.984739 -0.817634 0.300881 128 128 255 -0.495651 0.012658 -0.868429
1.000371 -0.817596 0.292910 128 128 255 0.266317 0.097565 -0.958935
1.015990 -0.817547 0.316145 128 128 255 0.647987 -0.009213 -0.761595
1.031608 -0.817500 0.335330 128 128 255 0.359213 -0.221511 -0.906586
1.158395 -0.817394 0.351171 128 128 255 0.144609 -0.108547 -0.983517
-0.958454 -0.801762 -0.105113 128 128 255 -0.509499 -0.483385 0.711864
-0.831688 -0.801900 -0.019234 128 128 255 -0.554532 -0.614579 0.561059
-0.816075 -0.801954 0.030197 128 128 255 -0.907301 -0.242927 0.343207
-0.800452 -0.801999 0.060430 128 128 255 -0.847633 -0.325208 0.419236
-0.784826 -0.802043 0.090085 128 128 255 -0.812862 -0.365191 0.453751
-0.769197 -0.802086 0.116205 128 128 255 -0.760041 -0.437363 0.480677
-0.753564 -0.802126 0.137776 128 128 255 -0.658597 -0.530596 0.533590
-0.737928 -0.802166 0.155976 128 128 255 -0.618058 -0.505267 0.602253
-0.722290 -0.802205 0.170334 128 128 255 -0.273315 0.573536 -0.772241
-0.817834 -0.802158 0.184152 128 128 255 -0.338580 0.360534 -0.869126
-0.802194 -0.802194 0.201170 128 128 255 -0.608009 -0.382142 0.695911
-0.786552 -0.802229 0.213445 128 128 255 -0.420050 -0.408252 0.810486
-0.770908 -0.802265 0.220539 128 128 255 -0.264877 -0.316636 0.910814
-0.755262 -0.802299 0.229078 128 128 255 0.931543 -0.134174 0.337972
-0.739618 -0.802337 0.147767 128 128 255 0.335725 -0.780819 0.526887
-0.723970 -0.802371 0.205853 128 128 255 -0.864861 -0.424978 0.267224
-0.708318 -0.802403 0.226555 128 128 255 0.045586 -0.781440 0.622313
-0.581464 -0.802528 0.194811 128 128 255 -0.052440 -0.670061 0.740451
-0.565804 -0.802555 0.239273 128 128 255 -0.817050 -0.309979 0.486151
-0.550144 -0.802586 0.245821 128 128 255 -0.238492 -0.620887 0.746740
-0.534483 -0.802615 0.250892 128 128 255 0.409699 -0.405003 0.817386
-0.518822 -0.802647 0.242321 128 128 255 0.007453 0.031872 0.999464
-0.503160 -0.802678 0.234068 128 128 255 0.130293 -0.331479 0.934422
-0.487494 -0.802706 0.237532 128 128 255 0.005733 -0.446171 0.894929
-0.471825 -0.802732 0.243798 128 128 255 0.071171 0.207432 -0.975657
-0.567391 -0.802679 0.226334 128 128 255 0.260082 0.002500 -0.965583
-0.551726 -0.802708 0.217040 128 128 255 0.742158 -0.347835 0.572898
-0.536062 -0.802741 0.170488 128 128 255 0.067916 0.181056 0.981125
-0.520386 -0.802758 0.224277 128 128 255 -0.288480 0.159948 0.944032
-0.504717 -0.802786 0.207384 128 128 255 0.326378 -0.372647 0.868684
-0.489045 -0.802809 0.205898 128 128 255 0.477425 -0.293695 0.828136
-0.473373 -0.802836 0.185976 128 128 255 0.653488 -0.278955 0.703660
-0.457700 -0.802861 0.177808 128 128 255 0.035277 0.547583 0.836007
-0.330762 -0.802954 0.180023 128 128 255 0.143955 -0.237417 0.960682
-0.315083 -0.802976 0.162012 128 128 255 -0.863806 -0.069685 0.498981
-0.299397 -0.802987 0.217256 128 128 255 -0.908135 -0.107971 0.404516
-0.283713 -0.803002 0.232751 128 128 255 -0.555779 -0.268017 0.786941
-0.268029 -0.803017 0.240259 128 128 255 -0.614986 0.148866 0.774359
-0.252343 -0.803033 0.245671 128 128 255 -0.757756 0.029366 0.651877
-0.236653 -0.803037 0.287341 128 128 255 -0.781962 0.000462 0.623326
-0.220967 -0.803051 0.291105 128 128 255 -0.096066 0.076599 -0.992423
-0.316561 -0.803006 0.307197 128 128 255 -0.182274 0.433577 -0.882489
-0.300878 -0.803025 0.299103 128 128 255 -0.286668 -0.403952 0.868702
-0.285189 -0.803034 0.316229 128 128 255 -0.645186 -0.065309 0.761229
-0.269501 -0.803044 0.326731 128 128 255 -0.242091 -0.326106 0.913809
-0.253814 -0.803059 0.322738 128 128 255 -0.330391 -0.405522 0.852287
-0.238125 -0.803068 0.332748 128 128 255 -0.126143 -0.487497 0.863965
-0.222435 -0.803079 0.334802 128 128 255 -0.134158 -0.508943 0.850281
-0.206746 -0.803091 0.331537 128 128 255 0.078465 -0.639140 0.765077
-0.079755 -0.803138 0.329903 128 128 255 0.049690 -0.724010 0.687998
-0.064063 -0.803148 0.322846 128 128 255 -0.099943 -0.483964 0.869362
-0.048370 -0.803155 0.320364 128 128 255 0.302283 0.058587 0.951416
-0.032677 -0.803158 0.327673 128 128 255 0.281057 -0.233521 0.930846
-0.016983 -0.803166 0.321906 128 128 255 0.202161 -0.325451 0.923695
-0.001290 -0.803174 0.310847 128 128 255 0.291295 0.314365 0.903506
0.014404 -0.803182 0.297902 128 128 255 0.414631 0.067910 0.907452
0.030099 -0.803184 0.301259 128 128 255 0.198985 0.280175 -0.939099
-0.065521 -0.803176 0.282375 128 128 255 0.365138 0.608510 -0.704549
-0.049828 -0.803186 0.263382 128 128 255 0.411237 0.133594 0.901686
-0.034133 -0.803188 0.270017 128 128 255 -0.027614 0.483262 0.875040
-0.018439 -0.803193 0.262281 128 128 255 0.929745 0.150577 0.336007
-0.002745 -0.803210 0.198496 128 128 255 0.958490 -0.210794 0.191995
0.012949 -0.803220 0.106704 128 128 255 -0.782457 -0.454735 0.425415
0.028646 -0.803207 0.235559 128 128 255 -0.806133 0.192568 0.559524
0.100000 -0.803210 0.239286 128 128 255 -0.169022 -0.217590 0.961294
0.171354 -0.803204 0.249482 128 128 255 -0.306554 -0.373638 0.875454
0.187049 -0.803201 0.257951 128 128 255 -0.695661 0.085660 0.713244
0.202743 -0.803188 0.295974 128 128 255 -0.810942 0.103697 0.575864
0.218437 -0.803182 0.304731 128 128 255 -0.560159 -0.291528 0.775392
0.234131 -0.803177 0.312092 128 128 255 0.024822 -0.488031 0.872473
0.249826 -0.803175 0.305890 128 128 255 -0.313861 -0.309745 0.897524
0.265519 -0.803166 0.317439 128 128 255 -0.201410 0.381189 -0.902291
0.169901 -0.803175 0.331912 128 128 255 -0.245730 0.454371 -0.856250
0.185595 -0.803169 0.338736 128 128 255 -0.362309 -0.376211 0.852759
0.201289 -0.803165 0.338899 128 128 255 -0.258258 -0.080748 0.962695
0.216982 -0.803157 0.346611 128 128 255 -0.539706 -0.220474 0.812470
0.232674 -0.803143 0.367154 128 128 255 0.057539 -0.493138 0.868046
0.248369 -0.803146 0.346617 128 128 255 0.123962 -0.024298 0.991989
0.264061 -0.803136 0.353697 128 128 255 0.348003 0.364540 0.863716
0.279753 -0.803129 0.351897 128 128 255 -0.035715 0.483689 0.874511
0.406742 -0.803079 0.361077 128 128 255 -0.090515 -0.347324 0.933366
0.422432 -0.803069 0.356086 128 128 255 0.577445 -0.282782 0.765893
0.438125 -0.803068 0.329660 128 128 255 0.701550 -0.143532 0.698016
0.453815 -0.803060 0.315092 128 128 255 0.645413 -0.366613 0.670103
0.469500 -0.803040 0.331429 128 128 255 0.753631 0.635413 0.168199
0.485187 -0.803029 0.321833 128 128 255 0.944320 -0.287618 0.159797
0.500890 -0.803052 0.138356 128 128 255 -0.122747 -0.978314 0.166838
0.516573 -0.803032 0.195831 128 128 255 0.031317 0.750699 -0.659902
0.420976 -0.803078 0.131547 128 128 255 0.138181 0.851522 -0.505782
0.436663 -0.803061 0.162580 128 128 255 -0.694054 -0.499459 0.518488
0.452348 -0.803044 0.175948 128 128 255 -0.749402 -0.025464 0.661626
0.468032 -0.803025 0.191470 128 128 255 -0.766946 0.380222 0.516939
0.483711 -0.802999 0.230404 128 128 255 -0.743189 0.159947 0.649682
0.499394 -0.802981 0.224884 128 128 255 -0.040869 -0.331325 0.942631
0.515073 -0.802958 0.240975 128 128 255 -0.778042 0.291957 0.556248
0.530749 -0.802929 0.272345 128 128 255 -0.255867 0.275155 0.926726
0.657687 -0.802840 0.266938 128 128 255 -0.037522 -0.505557 0.861977
0.673359 -0.802814 0.280795 128 128 255 -0.741101 -0.091601 0.665116
0.689030 -0.802786 0.294840 128 128 255 -0.402506 0.056139 0.913695
0.704701 -0.802761 0.301756 128 128 255 -0.756601 0.336727 0.560508
0.720361 -0.802721 0.339300 128 128 255 -0.779509 0.210966 0.589796
0.736030 -0.802696 0.341449 128 128 255 -0.102991 -0.584435 0.804878
0.751700 -0.802672 0.337190 128 128 255 -0.253987 -0.490605 0.833545
0.767360 -0.802636 0.358722 128 128 255 0.006411 -0.926192 -0.376998
0.671794 -0.802684 0.370250 128 128 255 0.171444 0.927033 -0.333491
0.687469 -0.802669 0.347212 128 128 255 -0.604653 -0.753263 0.258824
0.703126 -0.802631 0.368992 128 128 255 -0.530875 -0.459712 0.711925
0.718785 -0.802595 0.381014 128 128 255 -0.140831 -0.769717 0.622657
0.734450 -0.802570 0.372473 128 128 255 0.277384 -0.684251 0.674432
0.750113 -0.802545 0.361796 128 128 255 -0.039553 -0.202199 0.978545
0.765773 -0.802516 0.356883 128 128 255 -0.382148 0.206473 0.900740
0.781411 -0.802461 0.396890 128 128 255 -0.082964 0.568622 0.818404
0.908270 -0.802350 0.388433 128 128 255 0.048448 -0.334900 0.941007
0.923920 -0.802317 0.385242 128 128 255 -0.177421 -0.505648 0.844300
0.939563 -0.802278 0.391895 128 128 255 -0.074165 -0.273701 0.958951
0.955213 -0.802247 0.380844 128 128 255 0.564170 -0.500697 0.656517
0.970864 -0.802219 0.363619 128 128 255 0.440226 -0.113871 0.890637
0.986502 -0.802179 0.367512 128 128 255 0.670326 0.702994 0.237620
1.002143 -0.802143 0.362428 128 128 255 -0.332130 0.925966 0.179657
1.017789 -0.802114 0.341015 128 128 255 0.440892 0.410271 -0.798306
0.922251 -0.802164 0.316904 128 128 255 0.098102 0.281504 -0.954532
0.937880 -0.802117 0.327040 128 128 255 0.059644 -0.048230 0.997054
0.953512 -0.802076 0.323942 128 128 255 0.284994 -0.180657 0.941351
0.969148 -0.802039 0.309752 128 128 255 0.585524 -0.222187 0.779612
0.984779 -0.801999 0.301416 128 128 255 0.337133 -0.245370 0.908919
1.000411 -0.801961 0.295688 128 128 255 -0.232725 -0.406518 0.883506
1.016034 -0.801916 0.312189 128 128 255 -0.798829 -0.060832 0.598475
1.031648 -0.801865 0.339021 128 128 255 -0.261122 0.143899 0.954520
1.158433 -0.801757 0.355584 128 128 255 -0.127689 0.008211 0.991780
-0.958489 -0.786122 -0.112631 128 128 255 -0.340286 -0.793508 0.504530
-0.831732 -0.786267 -0.012493 128 128 255 -0.668690 -0.276872 0.690070
-0.816117 -0.786319 0.035016 128 128 255 -0.933918 -0.064606 0.351601
-0.800496 -0.786365 0.073011 128 128 255 -0.905664 -0.026459 0.423169
-0.784869 -0.786408 0.106368 128 128 255 -0.875703 -0.014110 0.482643
-0.769238 -0.786449 0.133240 128 128 255 -0.864555 0.035762 0.501264
-0.753604 -0.786488 0.160849 128 128 255 -0.793153 -0.052082 0.606791
-0.737967 -0.786527 0.174842 128 128 255 -0.673941 -0.156690 0.721978
-0.722328 -0.786565 0.186253 128 128 255 -0.313347 0.068809 -0.947142
-0.817870 -0.786516 0.197336 128 128 255 -0.276252 0.545876 -0.791014
-0.802229 -0.786552 0.213571 128 128 255 -0.606434 -0.255140 0.753088
-0.786587 -0.786587 0.223470 128 128 255 -0.326243 -0.204293 0.922946
-0.770943 -0.786622 0.223164 128 128 255 -0.226842 -0.385548 0.894369
-0.755299 -0.786658 0.217930 128 128 255 0.969121 -0.004120 0.246552
-0.739649 -0.786690 0.118586 128 128 255 -0.320873 0.806932 0.495885
-0.724003 -0.786726 0.221364 128 128 255 -0.965095 0.032154 0.259918
-0.708349 -0.786756 0.248482 128 128 255 -0.041845 -0.745972 0.664661
-0.581495 -0.786882 0.219833 128 128 255 0.055867 -0.858664 0.509484
-0.565834 -0.786909 0.247130 128 128 255 -0.837536 -0.129126 0.530905
-0.550172 -0.786937 0.264264 128 128 255 -0.354782 -0.204878 0.912225
-0.534511 -0.786967 0.263164 128 128 255 0.764636 -0.119124 0.633357
-0.518854 -0.787004 0.224173 128 128 255 -0.104843 0.308125 0.945551
