ply
format ascii 1.0
element vertex 698
property float x
property float y
property float z
property uchar red
property uchar green
property uchar blue
property float nx
property float ny
property float nz
end_header
-0.573750 1.641736 -0.801559 128 128 255 0.590052 0.494072 0.638538
-0.506175 1.641739 -0.854258 128 128 255 0.390775 -0.663549 0.637964
-0.426825 1.641750 -0.892656 128 128 255 0.147050 -0.910931 0.385462
-0.336688 1.641768 -0.916546 128 128 255 0.058182 -0.956162 0.287000
-0.237116 1.641791 -0.926122 128 128 255 0.014322 -0.970441 0.240913
-0.129796 1.641817 -0.921960 128 128 255 -0.012794 -0.976198 0.216502
-0.016696 1.641843 -0.904970 128 128 255 -0.032571 -0.978591 0.203220
0.100000 1.641867 -0.876350 128 128 255 -0.049047 -0.979261 0.196577
0.217961 1.641886 -0.837517 128 128 255 -0.064333 -0.978832 0.194292
0.334793 1.641898 -0.790037 128 128 255 -0.079716 -0.977569 0.194947
0.448122 1.641902 -0.735550 128 128 255 -0.096056 -0.975613 0.197363
0.555677 1.641899 -0.675692 128 128 255 -0.113881 -0.973111 0.200214
0.655368 1.641889 -0.612027 128 128 255 -0.133285 -0.970331 0.201723
0.745362 1.641874 -0.545977 128 128 255 -0.153695 -0.967772 0.199486
0.824133 1.641858 -0.478770 128 128 255 -0.173600 -0.966184 0.190660
0.890518 1.641841 -0.411395 128 128 255 -0.190552 -0.966352 0.172781
0.943737 1.641828 -0.344578 128 128 255 -0.201855 -0.968594 0.145193
0.983411 1.641818 -0.278764 128 128 255 -0.205934 -0.972352 0.110100
1.009558 1.641815 -0.214126 128 128 255 -0.203426 -0.976441 0.071978
1.022566 1.641817 -0.150579 128 128 255 -0.196953 -0.979774 0.035399
1.023161 1.641826 -0.087821 128 128 255 -0.189814 -0.981815 0.003103
1.012356 1.641841 -0.025375 128 128 255 -0.184863 -0.982461 -0.024402
0.991384 1.641860 0.037356 128 128 255 -0.184266 -0.981693 -0.048210
0.961638 1.641884 0.101021 128 128 255 -0.178565 -0.981733 -0.065687
1.038351 1.683445 0.100963 128 128 255 -0.921563 0.288531 0.259753
1.071077 1.683416 0.220250 128 128 255 -0.920619 0.326922 0.213501
1.093078 1.683387 0.336932 128 128 255 -0.915850 0.380862 0.127134
1.102847 1.683361 0.448506 128 128 255 -0.904489 0.425784 0.024648
1.099144 1.683340 0.552665 128 128 255 -0.885237 0.454629 -0.098323
1.081065 1.683326 0.647383 128 128 255 -0.854176 0.457815 -0.246554
1.048110 1.683321 0.730990 128 128 255 -0.802387 0.422097 -0.421911
1.000220 1.683325 0.802222 128 128 255 -0.715447 0.332780 -0.614323
0.937802 1.683339 0.860260 128 128 255 -0.582481 0.186225 -0.791224
0.861732 1.683361 0.904740 128 128 255 -0.415527 0.007182 -0.909553
0.773330 1.683391 0.935744 128 128 255 -0.249137 -0.161587 -0.954893
0.674322 1.683428 0.953772 128 128 255 -0.110375 -0.293096 -0.949691
0.566777 1.683468 0.959690 128 128 255 -0.004719 -0.384380 -0.923163
0.453031 1.683508 0.954666 128 128 255 0.074249 -0.442854 -0.893514
0.335595 1.683546 0.940089 128 128 255 0.135003 -0.476419 -0.868792
0.217062 1.683577 0.917486 128 128 255 0.184560 -0.490741 -0.851535
0.100000 1.683600 0.888427 128 128 255 0.228133 -0.489440 -0.841668
-0.013143 1.683614 0.854439 128 128 255 0.269587 -0.474945 -0.837705
-0.120133 1.683618 0.816921 128 128 255 0.311924 -0.449510 -0.837045
-0.219032 1.683614 0.777074 128 128 255 0.357656 -0.416415 -0.835871
-0.308262 1.683605 0.735839 128 128 255 0.409051 -0.381399 -0.828983
-0.386653 1.683593 0.693860 128 128 255 0.468176 -0.354005 -0.809624
-0.453471 1.683580 0.651459 128 128 255 0.536167 -0.347865 -0.769100
-0.508417 1.683568 0.608640 128 128 255 0.610329 -0.377778 -0.696263
-0.551614 1.683560 0.565106 128 128 255 0.678578 -0.450166 -0.580416
-0.583566 1.683555 0.520300 128 128 255 0.719716 -0.549071 -0.424887
-0.605108 1.683556 0.473459 128 128 255 0.723298 -0.639833 -0.259717
-0.617328 1.683561 0.423686 128 128 255 0.705330 -0.698539 -0.120634
-0.621492 1.683570 0.370026 128 128 255 0.690446 -0.723101 -0.020245
-0.618953 1.683582 0.311557 128 128 255 0.694069 -0.718300 0.048108
-0.611066 1.683596 0.247465 128 128 255 0.722856 -0.684346 0.095659
-0.599099 1.683610 0.177133 128 128 255 0.778848 -0.613275 0.131491
-0.584158 1.683621 0.100206 128 128 255 0.858016 -0.487760 0.160931
-0.567124 1.683629 0.016652 128 128 255 0.940274 -0.286203 0.184316
-0.548601 1.683632 -0.073201 128 128 255 0.980496 -0.009793 0.196293
-0.528887 1.683627 -0.168638 128 128 255 0.939699 0.282738 0.192421
-0.507966 1.683614 -0.268565 128 128 255 0.837694 0.516021 0.178859
-0.485516 1.683593 -0.371520 128 128 255 0.723915 0.669540 0.166321
-0.460939 1.683566 -0.475722 128 128 255 0.626070 0.763009 0.160793
-0.433414 1.683532 -0.579127 128 128 255 0.549648 0.819105 0.164177
-0.401953 1.683496 -0.679506 128 128 255 0.491750 0.852477 0.177382
-0.365487 1.683460 -0.774531 128 128 255 0.447958 0.870925 0.202045
-0.322938 1.683426 -0.861871 128 128 255 0.414124 0.877588 0.241537
-0.273315 1.683396 -0.939291 128 128 255 0.386159 0.871556 0.302111
-0.215791 1.683372 -1.004748 128 128 255 0.358626 0.845976 0.394603
-0.149785 1.683356 -1.056478 128 128 255 0.321273 0.781165 0.535317
-0.075025 1.683345 -1.093078 128 128 255 0.252075 0.629965 0.734576
0.008398 1.683341 -1.113563 128 128 255 0.120362 0.328255 0.936889
0.100000 1.683341 -1.117414 128 128 255 -0.052346 -0.060110 0.996818
0.198889 1.683345 -1.104594 128 128 255 -0.190368 -0.347085 0.918310
0.303774 1.683352 -1.075554 128 128 255 -0.280589 -0.499564 0.819576
0.412998 1.683358 -1.031208 128 128 255 -0.345477 -0.569765 0.745663
0.524584 1.683363 -0.972891 128 128 255 -0.401100 -0.594185 0.697182
0.636304 1.683365 -0.902293 128 128 255 -0.455382 -0.590433 0.666345
0.745765 1.683362 -0.821389 128 128 255 -0.511690 -0.567358 0.645196
0.850498 1.683354 -0.732346 128 128 255 -0.570549 -0.531359 0.626204
0.948057 1.683342 -0.637428 128 128 255 -0.630295 -0.490271 0.601965
1.036123 1.683325 -0.538897 128 128 255 -0.687517 -0.455733 0.565356
1.112595 1.683308 -0.438923 128 128 255 -0.737160 -0.443376 0.509915
1.175678 1.683291 -0.339490 128 128 255 -0.771202 -0.469423 0.429987
1.223955 1.683277 -0.242330 128 128 255 -0.776106 -0.542061 0.322226
1.256444 1.683268 -0.148856 128 128 255 -0.736185 -0.648963 0.192037
1.272631 1.683266 -0.060125 128 128 255 -0.650867 -0.756842 0.059690
1.272486 1.683271 0.023180 128 128 255 -0.544550 -0.837170 -0.051102
1.256458 1.683284 0.100751 128 128 255 -0.445871 -0.885347 -0.131753
1.225439 1.683305 0.172632 128 128 255 -0.368657 -0.910332 -0.188115
1.180720 1.683334 0.239180 128 128 255 -0.314428 -0.920969 -0.230111
1.123923 1.683370 0.301002 128 128 255 -0.280458 -0.922117 -0.266538
1.056920 1.683410 0.358888 128 128 255 -0.264270 -0.915013 -0.304817
0.981742 1.683453 0.413730 128 128 255 -0.265441 -0.897349 -0.352570
0.900487 1.683497 0.466436 128 128 255 -0.286848 -0.860930 -0.420140
0.815222 1.683537 0.517851 128 128 255 -0.336321 -0.782508 -0.523994
0.727893 1.683572 0.568670 128 128 255 -0.424376 -0.594112 -0.683327
0.640249 1.683599 0.619378 128 128 255 -0.517168 -0.150569 -0.842536
0.553768 1.683617 0.670190 128 128 255 -0.471365 0.435650 -0.766827
0.469612 1.683626 0.721015 128 128 255 -0.345330 0.754197 -0.558511
0.388595 1.683626 0.771437 128 128 255 -0.253726 0.876101 -0.409964
0.311172 1.683618 0.820719 128 128 255 -0.195794 0.926652 -0.320907
0.237449 1.683604 0.867820 128 128 255 -0.156489 0.950794 -0.267400
0.167217 1.683585 0.911444 128 128 255 -0.126512 0.963659 -0.235278
0.100000 1.683564 0.950094 128 128 255 -0.100368 0.970988 -0.217044
0.035117 1.683543 0.982151 128 128 255 -0.074402 0.975188 -0.208503
-0.028239 1.683524 1.005952 128 128 255 -0.045914 0.977284 -0.206900
-0.090921 1.683507 1.019887 128 128 255 -0.013038 0.977657 -0.209804
-0.153743 1.683494 1.022484 128 128 255 0.024763 0.976428 -0.214419
-0.217400 1.683485 1.012503 128 128 255 0.065925 0.973850 -0.217417
-0.282391 1.683481 0.989009 128 128 255 0.106565 0.970650 -0.215596
-0.348959 1.683479 0.951443 128 128 255 0.141726 0.967990 -0.207145
-0.417044 1.683480 0.899668 128 128 255 0.167682 0.966874 -0.192450
-0.486255 1.683482 0.834003 128 128 255 0.183494 0.967570 -0.173602
-0.555860 1.683483 0.755226 128 128 255 0.190724 0.969629 -0.153114
-0.624803 1.683482 0.664566 128 128 255 0.192091 0.972335 -0.132913
-0.691729 1.683475 0.563667 128 128 255 0.190287 0.975084 -0.114029
-0.755046 1.683463 0.454531 128 128 255 0.187460 0.977498 -0.096729
-0.812987 1.683445 0.339449 128 128 255 0.185187 0.979378 -0.080770
-0.863691 1.683422 0.220913 128 128 255 0.184682 0.980609 -0.065559
-0.905299 1.683396 0.101519 128 128 255 0.187086 0.981060 -0.050192
-0.936039 1.683368 -0.016129 128 128 255 0.193862 0.980464 -0.033295
-0.954324 1.683344 -0.129526 128 128 255 0.207455 0.978164 -0.012530
-0.958835 1.683324 -0.236354 128 128 255 0.232843 0.972370 0.016772
-0.948600 1.683310 -0.334574 128 128 255 0.282241 0.957064 0.066089
-0.923048 1.683305 -0.422493 128 128 255 0.393645 0.902904 0.172650
-0.882060 1.683310 -0.498823 128 128 255 0.687033 0.541640 0.484367
-0.825988 1.683323 -0.562708 128 128 255 0.514889 -0.658335 0.549076
-0.755653 1.683346 -0.613745 128 128 255 0.218271 -0.912665 0.345544
-0.672330 1.683377 -0.651967 128 128 255 0.112825 -0.956660 0.268463
-0.577702 1.683415 -0.677817 128 128 255 0.062404 -0.970060 0.234710
-0.473800 1.683458 -0.692101 128 128 255 0.032574 -0.975056 0.219554
-0.362925 1.683502 -0.695914 128 128 255 0.012000 -0.976561 0.214905
-0.247560 1.683545 -0.690571 128 128 255 -0.004205 -0.975993 0.217763
-0.130270 1.683582 -0.677514 128 128 255 -0.018710 -0.973675 0.227173
-0.013606 1.683611 -0.658225 128 128 255 -0.033403 -0.969388 0.243250
0.100000 1.683630 -0.634136 128 128 255 -0.050046 -0.962457 0.266782
0.208322 1.683640 -0.606551 128 128 255 -0.070678 -0.951665 0.298895
0.309424 1.683641 -0.576568 128 128 255 -0.097849 -0.935215 0.340291
0.401725 1.683635 -0.545029 128 128 255 -0.134427 -0.911236 0.389332
0.484042 1.683624 -0.512476 128 128 255 -0.182161 -0.880163 0.438326
0.555620 1.683612 -0.479137 128 128 255 -0.238278 -0.849863 0.470060
0.616133 1.683599 -0.444923 128 128 255 -0.292174 -0.837141 0.462417
0.665669 1.683589 -0.409449 128 128 255 -0.328669 -0.852833 0.405773
0.704686 1.683583 -0.372078 128 128 255 -0.340338 -0.885218 0.317110
0.733964 1.683580 -0.331978 128 128 255 -0.335554 -0.914197 0.227261
0.754531 1.683582 -0.288187 128 128 255 -0.329482 -0.931299 0.155317
0.767579 1.683587 -0.239703 128 128 255 -0.333604 -0.936995 0.103674
0.774385 1.683596 -0.185558 128 128 255 -0.355987 -0.932058 0.067388
0.776215 1.683607 -0.124912 128 128 255 -0.406872 -0.912588 0.040475
0.774247 1.683618 -0.057127 128 128 255 -0.507052 -0.861746 0.017077
0.769489 1.683628 0.018157 128 128 255 -0.699405 -0.714648 -0.010552
0.762722 1.683635 0.100971 128 128 255 -0.431578 -0.898404 -0.081310
1.050433 1.725054 0.100906 128 128 255 -0.916677 0.285971 0.279149
1.086245 1.725024 0.221695 128 128 255 -0.915965 0.327223 0.232235
1.110966 1.724994 0.339631 128 128 255 -0.911571 0.384896 0.144548
1.122863 1.724968 0.451984 128 128 255 -0.900945 0.432197 0.038784
1.120512 1.724947 0.556262 128 128 255 -0.882788 0.460969 -0.090518
1.102886 1.724935 0.650315 128 128 255 -0.852304 0.459649 -0.249602
1.069432 1.724931 0.732416 128 128 255 -0.797739 0.411606 -0.440673
1.020118 1.724938 0.801328 128 128 255 -0.700110 0.299312 -0.648273
0.955459 1.724954 0.856334 128 128 255 -0.548904 0.124873 -0.826505
0.876508 1.724979 0.897245 128 128 255 -0.368215 -0.070637 -0.927054
0.784831 1.725012 0.924383 128 128 255 -0.201992 -0.237239 -0.950219
0.682439 1.725051 0.938530 128 128 255 -0.072892 -0.355962 -0.931653
0.571715 1.725093 0.940861 128 128 255 0.020963 -0.432155 -0.901556
0.455305 1.725136 0.932851 128 128 255 0.089511 -0.476254 -0.874740
0.336010 1.725174 0.916174 128 128 255 0.141990 -0.496145 -0.856551
0.216662 1.725205 0.892591 128 128 255 0.185215 -0.496446 -0.848078
0.100000 1.725227 0.863842 128 128 255 0.224022 -0.479464 -0.848486
-0.011443 1.725239 0.831533 128 128 255 0.261969 -0.446365 -0.855646
-0.115448 1.725242 0.797048 128 128 255 0.301873 -0.398572 -0.866033
-0.210194 1.725237 0.761468 128 128 255 0.346268 -0.339699 -0.874473
-0.294322 1.725228 0.725516 128 128 255 0.397896 -0.277996 -0.874298
-0.366971 1.725216 0.689527 128 128 255 0.460236 -0.228413 -0.857910
-0.427788 1.725204 0.653441 128 128 255 0.536922 -0.212440 -0.816446
-0.476910 1.725195 0.616830 128 128 255 0.626667 -0.252559 -0.737226
-0.514916 1.725189 0.578940 128 128 255 0.711740 -0.354700 -0.606312
-0.542765 1.725187 0.538767 128 128 255 0.760291 -0.484150 -0.433078
-0.561702 1.725189 0.495139 128 128 255 0.766402 -0.585348 -0.264567
-0.573162 1.725196 0.446818 128 128 255 0.760566 -0.634299 -0.138580
-0.578659 1.725205 0.392608 128 128 255 0.771089 -0.634176 -0.056948
-0.579679 1.725216 0.331459 128 128 255 0.809887 -0.586550 -0.006477
-0.577571 1.725228 0.262572 128 128 255 0.876602 -0.480574 0.024833
-0.573462 1.725237 0.185480 128 128 255 0.954207 -0.295860 0.044211
-0.568175 1.725244 0.100119 128 128 255 0.998136 -0.027276 0.054603
-0.562178 1.725244 0.006880 128 128 255 0.960614 0.271877 0.057477
-0.555555 1.725237 -0.093379 128 128 255 0.853971 0.517223 0.056701
-0.548002 1.725222 -0.199333 128 128 255 0.732162 0.678732 0.057110
-0.538854 1.725198 -0.309225 128 128 255 0.628105 0.775701 0.061413
-0.527132 1.725167 -0.420927 128 128 255 0.548623 0.833073 0.070721
-0.511612 1.725132 -0.532021 128 128 255 0.490721 0.867061 0.086008
-0.490920 1.725094 -0.639901 128 128 255 0.450048 0.886325 0.109018
-0.463628 1.725057 -0.741886 128 128 255 0.423283 0.894624 0.143109
-0.428364 1.725024 -0.835339 128 128 255 0.408488 0.891745 0.194750
-0.383924 1.724997 -0.917789 128 128 255 0.404860 0.871445 0.276898
-0.329364 1.724978 -0.987047 128 128 255 0.410963 0.811010 0.416380
-0.264099 1.724966 -1.041302 128 128 255 0.411888 0.630235 0.658143
-0.187969 1.724961 -1.079209 128 128 255 0.323879 0.141072 0.935522
-0.101287 1.724963 -1.099943 128 128 255 0.111537 -0.442221 0.889944
-0.004864 1.724971 -1.103239 128 128 255 -0.037286 -0.709111 0.704111
0.100000 1.724981 -1.089392 128 128 255 -0.115750 -0.808050 0.577631
0.211543 1.724994 -1.059234 128 128 255 -0.163677 -0.848970 0.502454
0.327606 1.725006 -1.014090 128 128 255 -0.199324 -0.866738 0.457204
0.445709 1.725015 -0.955694 128 128 255 -0.230516 -0.873198 0.429404
0.563157 1.725020 -0.886105 128 128 255 -0.260964 -0.873121 0.411773
0.677151 1.725019 -0.807592 128 128 255 -0.292467 -0.868933 0.399272
0.784913 1.725012 -0.722524 128 128 255 -0.325521 -0.862498 0.387471
0.883805 1.725000 -0.633247 128 128 255 -0.359285 -0.856022 0.371673
0.971449 1.724985 -0.541972 128 128 255 -0.391221 -0.852516 0.346645
1.045826 1.724970 -0.450677 128 128 255 -0.416843 -0.855469 0.307270
1.105365 1.724956 -0.361019 128 128 255 -0.430239 -0.867282 0.250432
1.149004 1.724946 -0.274269 128 128 255 -0.426280 -0.886946 0.177798
1.176222 1.724942 -0.191281 128 128 255 -0.404218 -0.909485 0.097180
1.187055 1.724945 -0.112472 128 128 255 -0.369609 -0.928982 0.019527
1.182067 1.724955 -0.037844 128 128 255 -0.331608 -0.942247 -0.046976
1.162311 1.724973 0.032981 128 128 255 -0.298261 -0.949223 -0.100078
1.129254 1.724998 0.100688 128 128 255 -0.274352 -0.951058 -0.142198
1.084687 1.725028 0.166195 128 128 255 -0.262221 -0.948472 -0.177878
1.030623 1.725063 0.230549 128 128 255 -0.263592 -0.940962 -0.212388
0.969179 1.725099 0.294825 128 128 255 -0.281432 -0.925937 -0.251866
0.902465 1.725134 0.360018 128 128 255 -0.322207 -0.896236 -0.304867
0.832470 1.725165 0.426948 128 128 255 -0.399643 -0.831613 -0.385623
0.760966 1.725190 0.496164 128 128 255 -0.536862 -0.667962 -0.515370
0.689421 1.725206 0.567876 128 128 255 -0.707819 -0.234505 -0.666333
0.618940 1.725213 0.641905 128 128 255 -0.672386 0.407576 -0.617882
0.550224 1.725211 0.717659 128 128 255 -0.490421 0.751012 -0.442117
0.483565 1.725199 0.794132 128 128 255 -0.360717 0.874704 -0.323691
0.418855 1.725180 0.869933 128 128 255 -0.281306 0.924443 -0.257434
0.355630 1.725155 0.943341 128 128 255 -0.229132 0.947906 -0.221297
0.293138 1.725127 1.012381 128 128 255 -0.190902 0.960270 -0.203563
0.230417 1.725099 1.074919 128 128 255 -0.159118 0.967082 -0.198578
0.166397 1.725072 1.128769 128 128 255 -0.128878 0.970540 -0.203573
0.100000 1.725048 1.171812 128 128 255 -0.096391 0.971408 -0.216970
0.030250 1.725029 1.202104 128 128 255 -0.058538 0.969690 -0.237224
-0.043630 1.725015 1.217996 128 128 255 -0.013276 0.965046 -0.261745
-0.122126 1.725005 1.218222 128 128 255 0.039182 0.957400 -0.286093
-0.205363 1.725000 1.201981 128 128 255 0.095205 0.947804 -0.304309
-0.293057 1.724997 1.168995 128 128 255 0.148217 0.938765 -0.311051
-0.384487 1.724997 1.119537 128 128 255 0.191617 0.933104 -0.304303
-0.478496 1.724996 1.054433 128 128 255 0.221992 0.932129 -0.286103
-0.573526 1.724994 0.975039 128 128 255 0.239978 0.935094 -0.260787
-0.667664 1.724989 0.883182 128 128 255 0.248817 0.940190 -0.232666
-0.758729 1.724980 0.781089 128 128 255 0.252483 0.945694 -0.204731
-0.844365 1.724965 0.671286 128 128 255 0.254595 0.950441 -0.178448
-0.922148 1.724946 0.556489 128 128 255 0.258213 0.953722 -0.154079
-0.989710 1.724926 0.439479 128 128 255 0.266220 0.954971 -0.130989
-1.044853 1.724904 0.322985 128 128 255 0.282166 0.953303 -0.107686
-1.085664 1.724886 0.209564 128 128 255 0.311951 0.946613 -0.081298
-1.110609 1.724872 0.101496 128 128 255 0.368003 0.928708 -0.045562
-1.118620 1.724864 0.000693 128 128 255 0.482157 0.875928 0.016615
-1.109153 1.724865 -0.091368 128 128 255 0.737691 0.655195 0.162884
-1.082220 1.724874 -0.173686 128 128 255 0.885749 -0.248041 0.392331
-1.038392 1.724892 -0.245754 128 128 255 0.478440 -0.809797 0.339592
-0.978784 1.724920 -0.307542 128 128 255 0.275698 -0.918235 0.284316
-0.904996 1.724956 -0.359464 128 128 255 0.184444 -0.947437 0.261427
-0.819044 1.725000 -0.402312 128 128 255 0.136770 -0.956778 0.256651
-0.723266 1.725049 -0.437172 128 128 255 0.109945 -0.957903 0.265204
-0.620211 1.725099 -0.465330 128 128 255 0.095269 -0.953011 0.287566
-0.512519 1.725149 -0.488161 128 128 255 0.089440 -0.940147 0.328821
-0.402807 1.725193 -0.507026 128 128 255 0.092266 -0.911092 0.401745
-0.293546 1.725228 -0.523163 128 128 255 0.106906 -0.837195 0.536355
-0.186959 1.725254 -0.537595 128 128 255 0.139404 -0.600207 0.787603
-0.084930 1.725270 -0.551051 128 128 255 0.156295 0.098230 0.982814
0.011065 1.725276 -0.563912 128 128 255 0.100079 0.700076 0.707020
0.100000 1.725273 -0.576175 128 128 255 0.056635 0.880103 0.471393
0.181318 1.725264 -0.587448 128 128 255 0.031260 0.936599 0.349007
0.254918 1.725251 -0.596970 128 128 255 0.012355 0.959108 0.282771
0.321116 1.725237 -0.603658 128 128 255 -0.005954 0.969399 0.245417
0.380587 1.725222 -0.606175 128 128 255 -0.027188 0.974046 0.224709
0.434281 1.725209 -0.603019 128 128 255 -0.053966 0.975307 0.214160
0.483326 1.725199 -0.592620 128 128 255 -0.087814 0.973954 0.209051
0.528926 1.725192 -0.573454 128 128 255 -0.127734 0.970479 0.204585
0.572252 1.725189 -0.544149 128 128 255 -0.168463 0.966066 0.195796
0.614341 1.725189 -0.503593 128 128 255 -0.201365 0.962926 0.179516
0.655998 1.725192 -0.451024 128 128 255 -0.219535 0.962967 0.156524
0.697729 1.725195 -0.386109 128 128 255 -0.222383 0.966156 0.130724
0.739676 1.725197 -0.308994 128 128 255 -0.214556 0.970935 0.106069
0.781594 1.725197 -0.220333 128 128 255 -0.201757 0.975771 0.084648
0.822838 1.725191 -0.121293 128 128 255 -0.188152 0.979866 0.066799
0.862396 1.725179 -0.013520 128 128 255 -0.176050 0.983011 0.051924
0.898924 1.725159 0.100909 128 128 255 -0.197725 0.979351 0.042153
1.062394 1.766663 0.100847 128 128 255 -0.911025 0.283402 0.299528
1.101542 1.766632 0.223117 128 128 255 -0.910584 0.327681 0.251917
1.129189 1.766602 0.342249 128 128 255 -0.906643 0.389243 0.162755
1.143337 1.766576 0.455256 128 128 255 -0.896966 0.438880 0.053259
1.142348 1.766556 0.559441 128 128 255 -0.880245 0.467124 -0.083447
1.125058 1.766545 0.652525 128 128 255 -0.850448 0.459828 -0.255532
1.090866 1.766544 0.732739 128 128 255 -0.791738 0.395877 -0.465223
1.039790 1.766552 0.798901 128 128 255 -0.679271 0.255310 -0.688046
0.972489 1.766570 0.850443 128 128 255 -0.506572 0.052176 -0.860618
0.890250 1.766598 0.887412 128 128 255 -0.315538 -0.152123 -0.936640
0.794937 1.766634 0.910435 128 128 255 -0.155431 -0.307931 -0.938626
0.688912 1.766675 0.920644 128 128 255 -0.039418 -0.409197 -0.911594
0.574919 1.766719 0.919579 128 128 255 0.041591 -0.468196 -0.882645
0.455960 1.766763 0.909069 128 128 255 0.099624 -0.496260 -0.862439
0.335141 1.766801 0.891097 128 128 255 0.143822 -0.499925 -0.854044
0.215529 1.766831 0.867659 128 128 255 0.180379 -0.481787 -0.857523
0.100000 1.766851 0.840630 128 128 255 0.213487 -0.441845 -0.871319
-0.008892 1.766861 0.811639 128 128 255 0.246077 -0.378981 -0.892087
-0.109031 1.766862 0.781965 128 128 255 0.280336 -0.293292 -0.913997
-0.198823 1.766856 0.752464 128 128 255 0.318365 -0.189858 -0.928761
-0.277252 1.766846 0.723515 128 128 255 0.363478 -0.082824 -0.927914
-0.343893 1.766834 0.695016 128 128 255 0.422171 0.003628 -0.906509
-0.398896 1.766824 0.666404 128 128 255 0.504538 0.039130 -0.862502
-0.442935 1.766816 0.636714 128 128 255 0.616718 -0.005637 -0.787164
-0.477122 1.766811 0.604662 128 128 255 0.738286 -0.136886 -0.660451
-0.502898 1.766811 0.568755 128 128 255 0.820216 -0.297125 -0.488838
-0.521911 1.766814 0.527422 128 128 255 0.854427 -0.401075 -0.330294
-0.535875 1.766820 0.479143 128 128 255 0.880908 -0.417642 -0.222655
-0.546441 1.766829 0.422588 128 128 255 0.924168 -0.346561 -0.160653
-0.555061 1.766837 0.356739 128 128 255 0.974838 -0.183104 -0.127138
-0.562881 1.766845 0.281000 128 128 255 0.992141 0.065284 -0.106744
-0.570652 1.766849 0.195278 128 128 255 0.935882 0.340936 -0.088814
-0.578671 1.766848 0.100038 128 128 255 0.821761 0.565506 -0.070085
-0.586753 1.766839 -0.003681 128 128 255 0.699035 0.713219 -0.051659
-0.594244 1.766822 -0.114282 128 128 255 0.596184 0.802125 -0.034063
-0.600061 1.766796 -0.229663 128 128 255 0.518345 0.855012 -0.016532
-0.602770 1.766764 -0.347299 128 128 255 0.462170 0.886788 0.002337
-0.600684 1.766727 -0.464357 128 128 255 0.423430 0.905599 0.024440
-0.591986 1.766689 -0.577828 128 128 255 0.399219 0.915345 0.052606
-0.574865 1.766653 -0.684672 128 128 255 0.388527 0.916861 0.091715
-0.547649 1.766623 -0.781969 128 128 255 0.392875 0.907029 0.151484
-0.508943 1.766601 -0.867065 128 128 255 0.417909 0.872202 0.254196
-0.457744 1.766587 -0.937700 128 128 255 0.473689 0.753386 0.456102
-0.393541 1.766582 -0.992122 128 128 255 0.508413 0.285164 0.812525
-0.316385 1.766585 -1.029168 128 128 255 0.269438 -0.509995 0.816890
-0.226925 1.766595 -1.048313 128 128 255 0.064416 -0.804294 0.590729
-0.126413 1.766611 -1.049684 128 128 255 -0.028504 -0.886101 0.462615
-0.016665 1.766630 -1.034035 128 128 255 -0.078058 -0.915723 0.394154
0.100000 1.766651 -1.002690 128 128 255 -0.110477 -0.928219 0.355253
0.220866 1.766670 -0.957456 128 128 255 -0.135737 -0.933289 0.332486
0.342938 1.766686 -0.900505 128 128 255 -0.158355 -0.934348 0.319246
0.463085 1.766695 -0.834244 128 128 255 -0.180703 -0.932864 0.311627
0.578192 1.766698 -0.761168 128 128 255 -0.204081 -0.929695 0.306626
0.685307 1.766693 -0.683725 128 128 255 -0.228980 -0.925670 0.301170
0.781786 1.766683 -0.604168 128 128 255 -0.254931 -0.921966 0.291528
0.865413 1.766670 -0.524449 128 128 255 -0.280114 -0.920281 0.273163
0.934505 1.766658 -0.446111 128 128 255 -0.301077 -0.922503 0.241537
0.987972 1.766647 -0.370229 128 128 255 -0.313312 -0.929559 0.194310
1.025358 1.766642 -0.297372 128 128 255 -0.313429 -0.940086 0.134165
1.046834 1.766642 -0.227608 128 128 255 -0.302023 -0.950782 0.069246
1.053159 1.766649 -0.160537 128 128 255 -0.284259 -0.958704 0.009074
1.045615 1.766663 -0.095360 128 128 255 -0.267056 -0.962824 -0.040631
1.025898 1.766682 -0.030974 128 128 255 -0.256066 -0.963394 -0.079389
0.996005 1.766706 0.033909 128 128 255 -0.255081 -0.960630 -0.110103
0.958095 1.766733 0.100639 128 128 255 -0.267325 -0.953807 -0.137078
0.914348 1.766761 0.170487 128 128 255 -0.297539 -0.940270 -0.165420
0.866825 1.766786 0.244521 128 128 255 -0.355122 -0.912743 -0.201962
0.817348 1.766807 0.323485 128 128 255 -0.459985 -0.849625 -0.257976
0.767390 1.766820 0.407708 128 128 255 -0.647302 -0.676666 -0.350890
0.717995 1.766825 0.497032 128 128 255 -0.871221 -0.187171 -0.453807
0.669732 1.766820 0.590774 128 128 255 -0.785699 0.475176 -0.396086
0.622680 1.766805 0.687728 128 128 255 -0.562069 0.778389 -0.279622
0.576450 1.766782 0.786195 128 128 255 -0.418986 0.882866 -0.212126
0.530237 1.766753 0.884050 128 128 255 -0.334830 0.925001 -0.179619
0.482908 1.766719 0.978842 128 128 255 -0.281884 0.944619 -0.168038
0.433103 1.766686 1.067909 128 128 255 -0.245707 0.954033 -0.171607
0.379367 1.766655 1.148519 128 128 255 -0.218383 0.957303 -0.189421
0.320282 1.766628 1.218016 128 128 255 -0.194429 0.954936 -0.224266
0.254596 1.766607 1.273962 128 128 255 -0.168229 0.944161 -0.283299
0.181353 1.766592 1.314277 128 128 255 -0.131113 0.915583 -0.380155
0.100000 1.766583 1.337355 128 128 255 -0.066584 0.842008 -0.535341
0.010466 1.766579 1.342159 128 128 255 0.051406 0.657375 -0.751808
-0.086778 1.766578 1.328279 128 128 255 0.219171 0.307627 -0.925921
-0.190708 1.766580 1.295966 128 128 255 0.359018 -0.050274 -0.931975
-0.299754 1.766582 1.246116 128 128 255 0.445532 -0.254473 -0.858338
-0.411858 1.766583 1.180233 128 128 255 0.511029 -0.329388 -0.793947
-0.524556 1.766582 1.100342 128 128 255 0.574471 -0.325436 -0.751049
-0.635086 1.766576 1.008892 128 128 255 0.639461 -0.272970 -0.718733
-0.740524 1.766566 0.908619 128 128 255 0.702598 -0.196396 -0.683948
-0.837928 1.766552 0.802405 128 128 255 0.759905 -0.125278 -0.637848
-0.924486 1.766536 0.693134 128 128 255 0.811131 -0.095387 -0.577034
-0.997662 1.766519 0.583541 128 128 255 0.855097 -0.144784 -0.497842
-1.055325 1.766504 0.476083 128 128 255 0.870259 -0.303141 -0.388271
-1.095859 1.766493 0.372826 128 128 255 0.803671 -0.544517 -0.240031
-1.118244 1.766488 0.275358 128 128 255 0.647153 -0.757252 -0.088109
-1.122103 1.766490 0.184739 128 128 255 0.480834 -0.876560 0.021002
-1.107717 1.766500 0.101476 128 128 255 0.356678 -0.930262 0.085987
-1.075996 1.766519 0.025547 128 128 255 0.275211 -0.953256 0.124751
-1.028426 1.766546 -0.043556 128 128 255 0.224445 -0.962686 0.151196
-0.966974 1.766581 -0.106740 128 128 255 0.195000 -0.965285 0.173781
-0.893974 1.766621 -0.165210 128 128 255 0.181731 -0.963123 0.198416
-0.811997 1.766666 -0.220343 128 128 255 0.183265 -0.955513 0.231104
-0.723702 1.766711 -0.273554 128 128 255 0.202608 -0.938015 0.281207
-0.631692 1.766753 -0.326167 128 128 255 0.250954 -0.895105 0.368522
-0.538379 1.766788 -0.379284 128 128 255 0.359056 -0.760543 0.540975
-0.445863 1.766815 -0.433680 128 128 255 0.537371 -0.223978 0.813060
-0.355830 1.766831 -0.489715 128 128 255 0.437257 0.614367 0.656780
-0.269485 1.766837 -0.547279 128 128 255 0.269514 0.875324 0.401461
-0.187517 1.766832 -0.605767 128 128 255 0.186138 0.942450 0.277741
-0.110097 1.766819 -0.664093 128 128 255 0.140751 0.966398 0.215088
-0.036911 1.766799 -0.720735 128 128 255 0.111621 0.977105 0.181128
0.032771 1.766776 -0.773813 128 128 255 0.089610 0.982545 0.163017
0.100000 1.766751 -0.821195 128 128 255 0.070045 0.985423 0.155032
0.166037 1.766727 -0.860620 128 128 255 0.049959 0.986769 0.154244
0.232221 1.766706 -0.889839 128 128 255 0.027202 0.986949 0.158721
0.299836 1.766689 -0.906755 128 128 255 0.000389 0.986035 0.166535
0.369978 1.766676 -0.909561 128 128 255 -0.030597 0.984064 0.175163
0.443444 1.766667 -0.896865 128 128 255 -0.063977 0.981315 0.181462
0.520631 1.766662 -0.867790 128 128 255 -0.096157 0.978492 0.182500
0.601464 1.766659 -0.822049 128 128 255 -0.123141 0.976499 0.176878
0.685364 1.766658 -0.759987 128 128 255 -0.142495 0.975891 0.165323
0.771237 1.766655 -0.682589 128 128 255 -0.154221 0.976586 0.149983
0.857511 1.766650 -0.591443 128 128 255 -0.160101 0.978079 0.133152
0.942196 1.766640 -0.488681 128 128 255 -0.162530 0.979809 0.116442
1.022984 1.766624 -0.376880 128 128 255 -0.163729 0.981362 0.100610
1.097367 1.766604 -0.258940 128 128 255 -0.165546 0.982470 0.085714
1.162768 1.766580 -0.137945 128 128 255 -0.169628 0.982927 0.071284
1.216694 1.766555 -0.017015 128 128 255 -0.177845 0.982444 0.056346
1.256871 1.766532 0.100847 128 128 255 -0.158126 0.985997 0.052966
1.074237 1.808272 0.100788 128 128 255 -0.904534 0.280804 0.320885
1.116991 1.808241 0.224516 128 128 255 -0.904412 0.328270 0.272539
1.147780 1.808211 0.344780 128 128 255 -0.901026 0.393864 0.181723
1.164292 1.808185 0.458299 128 128 255 -0.892571 0.445758 0.067953
1.164642 1.808167 0.562154 128 128 255 -0.877717 0.472873 -0.077485
1.147517 1.808158 0.653933 128 128 255 -0.848633 0.457645 -0.265297
1.112277 1.808159 0.731847 128 128 255 -0.783532 0.373046 -0.496905
1.059018 1.808169 0.794809 128 128 255 -0.650679 0.198603 -0.732921
0.988596 1.808190 0.842464 128 128 255 -0.454929 -0.030181 -0.890016
0.902594 1.808219 0.875170 128 128 255 -0.260067 -0.232341 -0.937221
0.803249 1.808257 0.893936 128 128 255 -0.112152 -0.369680 -0.922366
0.693337 1.808300 0.900322 128 128 255 -0.011595 -0.450452 -0.892725
0.576028 1.808346 0.896299 128 128 255 0.056081 -0.490666 -0.869541
0.454708 1.808389 0.884091 128 128 255 0.103409 -0.500342 -0.859630
0.332800 1.808426 0.866001 128 128 255 0.138663 -0.483249 -0.864432
0.213581 1.808454 0.844236 128 128 255 0.166934 -0.438512 -0.883086
0.100000 1.808471 0.820750 128 128 255 0.191181 -0.362118 -0.912316
-0.005462 1.808478 0.797096 128 128 255 0.212829 -0.249584 -0.944675
-0.100918 1.808476 0.774327 128 128 255 0.232410 -0.101924 -0.967263
-0.185144 1.808469 0.752922 128 128 255 0.251329 0.066049 -0.965646
-0.257617 1.808458 0.732765 128 128 255 0.275111 0.224455 -0.934844
-0.318493 1.808447 0.713167 128 128 255 0.315855 0.341161 -0.885350
-0.368550 1.808437 0.692929 128 128 255 0.391230 0.393269 -0.832033
-0.409086 1.808429 0.670453 128 128 255 0.516584 0.364328 -0.774858
-0.441782 1.808425 0.643875 128 128 255 0.678137 0.253040 -0.690001
-0.468545 1.808424 0.611225 128 128 255 0.815495 0.119622 -0.566267
-0.491339 1.808427 0.570600 128 128 255 0.893643 0.064275 -0.444152
-0.512014 1.808432 0.520333 128 128 255 0.926240 0.127587 -0.354684
-0.532146 1.808438 0.459150 128 128 255 0.913080 0.285777 -0.290888
-0.552903 1.808443 0.386302 128 128 255 0.845601 0.477775 -0.238098
-0.574939 1.808445 0.301666 128 128 255 0.742104 0.642375 -0.191407
-0.598333 1.808442 0.205800 128 128 255 0.635451 0.757060 -0.151862
-0.622567 1.808432 0.099964 128 128 255 0.545051 0.829850 -0.119455
-0.646555 1.808413 -0.013925 128 128 255 0.475173 0.875027 -0.092410
-0.668713 1.808386 -0.133359 128 128 255 0.423710 0.903208 -0.068445
-0.687066 1.808352 -0.255369 128 128 255 0.387513 0.920752 -0.045267
-0.699393 1.808315 -0.376667 128 128 255 0.364289 0.931063 -0.020364
-0.703388 1.808279 -0.493826 128 128 255 0.353261 0.935474 0.009713
-0.696834 1.808246 -0.603461 128 128 255 0.355894 0.933135 0.050968
-0.677776 1.808221 -0.702417 128 128 255 0.377927 0.918487 0.116415
-0.644678 1.808204 -0.787935 128 128 255 0.435501 0.867323 0.241016
-0.596558 1.808197 -0.857805 128 128 255 0.559600 0.637522 0.529541
-0.533091 1.808200 -0.910477 128 128 255 0.496961 -0.271196 0.824307
-0.454670 1.808210 -0.945129 128 128 255 0.174816 -0.796770 0.578444
-0.362415 1.808229 -0.961702 128 128 255 0.038581 -0.903169 0.427548
-0.258145 1.808254 -0.960869 128 128 255 -0.023670 -0.934173 0.356035
-0.144300 1.808283 -0.943976 128 128 255 -0.059693 -0.945861 0.319036
-0.023821 1.808313 -0.912931 128 128 255 -0.084991 -0.950236 0.299714
0.100000 1.808341 -0.870065 128 128 255 -0.105925 -0.950843 0.290994
0.223694 1.808363 -0.817964 128 128 255 -0.125747 -0.948914 0.289396
0.343799 1.808377 -0.759296 128 128 255 -0.146484 -0.944896 0.292770
0.457049 1.808382 -0.696633 128 128 255 -0.169574 -0.939019 0.299145
0.560544 1.808380 -0.632284 128 128 255 -0.195937 -0.931714 0.305805
0.651899 1.808372 -0.568157 128 128 255 -0.225574 -0.924147 0.308333
0.729362 1.808362 -0.505646 128 128 255 -0.256655 -0.918768 0.299988
0.791881 1.808352 -0.445563 128 128 255 -0.284556 -0.919007 0.272862
0.839139 1.808345 -0.388113 128 128 255 -0.302523 -0.926764 0.222683
0.871526 1.808342 -0.332913 128 128 255 -0.306032 -0.939270 0.155291
0.890083 1.808345 -0.279058 128 128 255 -0.298031 -0.950697 0.085744
0.896390 1.808353 -0.225226 128 128 255 -0.287700 -0.957328 0.027429
0.892432 1.808365 -0.169811 128 128 255 -0.284325 -0.958603 -0.015474
0.880436 1.808382 -0.111084 128 128 255 -0.294707 -0.954490 -0.045789
0.862698 1.808400 -0.047361 128 128 255 -0.325453 -0.943054 -0.068771
0.841412 1.808418 0.022832 128 128 255 -0.387846 -0.917300 -0.090205
0.818504 1.808434 0.100601 128 128 255 -0.506314 -0.854350 -0.117189
0.795499 1.808445 0.186553 128 128 255 -0.726569 -0.668421 -0.159093
0.773414 1.808449 0.280702 128 128 255 -0.973720 -0.111920 -0.198349
0.752690 1.808444 0.382412 128 128 255 -0.815221 0.557608 -0.156489
0.733175 1.808430 0.490386 128 128 255 -0.566631 0.817025 -0.106764
0.714145 1.808406 0.602700 128 128 255 -0.423356 0.902117 -0.083398
0.694374 1.808375 0.716882 128 128 255 -0.343210 0.936172 -0.076082
0.672240 1.808339 0.830037 128 128 255 -0.296396 0.951768 -0.079295
0.645868 1.808302 0.938992 128 128 255 -0.269371 0.958617 -0.092152
0.613286 1.808268 1.040470 128 128 255 -0.256424 0.959404 -0.117435
0.572594 1.808240 1.131278 128 128 255 -0.256523 0.952566 -0.163751
0.522142 1.808219 1.208484 128 128 255 -0.273924 0.927293 -0.255136
0.460676 1.808206 1.269587 128 128 255 -0.323098 0.821164 -0.470423
0.387476 1.808200 1.312661 128 128 255 -0.353376 0.166527 -0.920540
0.302451 1.808201 1.336466 128 128 255 -0.098184 -0.728117 -0.678384
0.206195 1.808206 1.340511 128 128 255 0.020559 -0.898467 -0.438560
0.100000 1.808216 1.325078 128 128 255 0.068709 -0.938842 -0.337425
-0.014181 1.808227 1.291197 128 128 255 0.096483 -0.952855 -0.287678
-0.133817 1.808239 1.240570 128 128 255 0.117338 -0.958259 -0.260712
-0.255914 1.808248 1.175465 128 128 255 0.136100 -0.959798 -0.245487
-0.377171 1.808253 1.098566 128 128 255 0.154903 -0.959186 -0.236576
-0.494157 1.808253 1.012807 128 128 255 0.174668 -0.957287 -0.230418
-0.603492 1.808247 0.921190 128 128 255 0.195387 -0.954847 -0.223809
-0.702033 1.808236 0.826604 128 128 255 0.215944 -0.952835 -0.213246
-0.787049 1.808223 0.731663 128 128 255 0.233870 -0.952514 -0.194991
-0.856359 1.808211 0.638553 128 128 255 0.245548 -0.955039 -0.166152
-0.908448 1.808202 0.548931 128 128 255 0.247580 -0.960556 -0.126635
-0.942536 1.808197 0.463846 128 128 255 0.239070 -0.967666 -0.080427
-0.958598 1.808200 0.383719 128 128 255 0.222899 -0.974245 -0.034103
-0.957343 1.808209 0.308360 128 128 255 0.204323 -0.978880 0.006792
-0.940145 1.808225 0.237032 128 128 255 0.188317 -0.981289 0.040098
-0.908933 1.808249 0.168559 128 128 255 0.178229 -0.981724 0.066730
-0.866047 1.808278 0.101456 128 128 255 0.176192 -0.980299 0.089273
-0.814076 1.808310 0.034088 128 128 255 0.184374 -0.976554 0.111121
-0.755680 1.808343 -0.035157 128 128 255 0.206713 -0.968802 0.136720
-0.693415 1.808374 -0.107709 128 128 255 0.252199 -0.952012 0.173401
-0.629567 1.808400 -0.184657 128 128 255 0.343867 -0.908573 0.237170
-0.566012 1.808418 -0.266621 128 128 255 0.544366 -0.753343 0.368973
-0.504112 1.808426 -0.353657 128 128 255 0.831861 -0.073033 0.550158
-0.444642 1.808423 -0.445199 128 128 255 0.597071 0.702464 0.387363
-0.387772 1.808409 -0.540054 128 128 255 0.378127 0.892795 0.244819
-0.333086 1.808387 -0.636433 128 128 255 0.274554 0.944098 0.182480
-0.279653 1.808358 -0.732033 128 128 255 0.218903 0.963329 0.155173
-0.226129 1.808326 -0.824153 128 128 255 0.184841 0.971793 0.146468
-0.170896 1.808295 -0.909851 128 128 255 0.161397 0.975253 0.151102
-0.112220 1.808266 -0.986107 128 128 255 0.142770 0.975263 0.168756
-0.048422 1.808242 -1.050009 128 128 255 0.124541 0.971266 0.202811
0.021957 1.808225 -1.098932 128 128 255 0.101291 0.959893 0.261428
0.100000 1.808212 -1.130701 128 128 255 0.063389 0.930608 0.360485
0.186288 1.808205 -1.143729 128 128 255 -0.008579 0.851299 0.524611
0.280801 1.808202 -1.137125 128 128 255 -0.142211 0.641895 0.753490
0.382867 1.808201 -1.110754 128 128 255 -0.313377 0.263436 0.912358
0.491155 1.808201 -1.065253 128 128 255 -0.434948 -0.064977 0.898108
0.603706 1.808201 -1.002000 128 128 255 -0.512632 -0.210602 0.832379
0.718023 1.808199 -0.923038 128 128 255 -0.581798 -0.222823 0.782216
0.831187 1.808194 -0.830957 128 128 255 -0.650670 -0.153550 0.743674
0.940012 1.808184 -0.728747 128 128 255 -0.712896 -0.044239 0.699873
1.041219 1.808171 -0.619621 128 128 255 -0.763971 0.057599 0.642675
1.131621 1.808154 -0.506837 128 128 255 -0.811265 0.102080 0.575698
1.208302 1.808138 -0.393515 128 128 255 -0.864701 0.040133 0.500682
1.268789 1.808123 -0.282462 128 128 255 -0.899426 -0.178348 0.399030
1.311189 1.808112 -0.176035 128 128 255 -0.819025 -0.518797 0.245046
1.334298 1.808107 -0.076024 128 128 255 -0.616781 -0.782205 0.087959
1.337662 1.808110 0.016415 128 128 255 -0.431951 -0.901819 -0.011915
1.321604 1.808120 0.100789 128 128 255 -0.674558 -0.737978 0.018960
1.085967 1.849883 0.100729 128 128 255 -0.897132 0.278156 0.343196
1.132617 1.849852 0.225892 128 128 255 -0.897384 0.328968 0.294078
1.166771 1.849822 0.347216 128 128 255 -0.894686 0.398717 0.201401
1.185745 1.849798 0.461089 128 128 255 -0.887802 0.452732 0.082710
1.187374 1.849782 0.564348 128 128 255 -0.875345 0.477936 -0.073133
1.170177 1.849775 0.654451 128 128 255 -0.846813 0.452130 -0.280153
1.133489 1.849777 0.729621 128 128 255 -0.771673 0.340674 -0.537086
1.077531 1.849790 0.788927 128 128 255 -0.611736 0.127724 -0.780683
1.003418 1.849812 0.832302 128 128 255 -0.395074 -0.118081 -0.911029
0.913111 1.849843 0.860507 128 128 255 -0.205335 -0.305935 -0.929646
0.809305 1.849882 0.875032 128 128 255 -0.074620 -0.419408 -0.904726
0.695271 1.849927 0.877950 128 128 255 0.009167 -0.477923 -0.878354
0.574656 1.849972 0.871728 128 128 255 0.063138 -0.497410 -0.865215
0.451265 1.850015 0.859015 128 128 255 0.098896 -0.484472 -0.869199
0.328823 1.850049 0.842425 128 128 255 0.123058 -0.438234 -0.890398
0.210759 1.850074 0.824321 128 128 255 0.138787 -0.352017 -0.925647
0.100000 1.850087 0.806631 128 128 255 0.146704 -0.216321 -0.965237
-0.001185 1.850090 0.790693 128 128 255 0.145959 -0.028276 -0.988886
-0.091301 1.850086 0.777157 128 128 255 0.137278 0.191647 -0.971816
-0.169672 1.850076 0.765941 128 128 255 0.127332 0.398074 -0.908473
-0.236442 1.850064 0.756245 128 128 255 0.128577 0.552738 -0.823377
-0.292496 1.850052 0.746627 128 128 255 0.155144 0.646659 -0.746835
-0.339346 1.850041 0.735131 128 128 255 0.221512 0.686281 -0.692785
-0.378958 1.850033 0.719460 128 128 255 0.337676 0.676686 -0.654272
-0.413553 1.850028 0.697174 128 128 255 0.486905 0.628318 -0.606746
-0.445398 1.850027 0.665911 128 128 255 0.613212 0.582640 -0.533387
-0.476585 1.850028 0.623598 128 128 255 0.672441 0.589464 -0.447611
-0.508835 1.850030 0.568654 128 128 255 0.665477 0.649964 -0.366997
-0.543334 1.850032 0.500149 128 128 255 0.615679 0.729598 -0.297701
-0.580609 1.850032 0.417927 128 128 255 0.549281 0.800182 -0.240829
-0.620462 1.850027 0.322668 128 128 255 0.484548 0.852663 -0.195395
-0.661960 1.850015 0.215890 128 128 255 0.429668 0.888865 -0.159074
-0.703489 1.849994 0.099896 128 128 255 0.386555 0.913176 -0.129168
-0.742861 1.849966 -0.022347 128 128 255 0.354648 0.929294 -0.103136
-0.777470 1.849933 -0.147367 128 128 255 0.333005 0.939645 -0.078578
-0.804487 1.849897 -0.271391 128 128 255 0.321302 0.945502 -0.052835
-0.821076 1.849863 -0.390573 128 128 255 0.320602 0.946956 -0.022113
-0.824613 1.849835 -0.501219 128 128 255 0.334815 0.942057 0.020672
-0.812898 1.849816 -0.600018 128 128 255 0.375016 0.922382 0.092600
-0.784340 1.849806 -0.684231 128 128 255 0.474281 0.844773 0.247822
-0.738100 1.849805 -0.751852 128 128 255 0.668473 0.370407 0.644936
-0.674191 1.849815 -0.801714 128 128 255 0.369936 -0.659537 0.654339
-0.593504 1.849833 -0.833531 128 128 255 0.123042 -0.886383 0.446303
-0.497790 1.849860 -0.847889 128 128 255 0.029580 -0.933134 0.358309
-0.389569 1.849894 -0.846168 128 128 255 -0.016977 -0.947768 0.318508
-0.271992 1.849931 -0.830414 128 128 255 -0.045976 -0.952413 0.301324
-0.148653 1.849969 -0.803163 128 128 255 -0.067720 -0.952200 0.297876
-0.023380 1.850003 -0.767242 128 128 255 -0.087014 -0.948364 0.305014
0.100000 1.850029 -0.725540 128 128 255 -0.106888 -0.940641 0.322134
0.217890 1.850046 -0.680795 128 128 255 -0.130009 -0.927651 0.350087
0.327133 1.850053 -0.635388 128 128 255 -0.159433 -0.906692 0.390500
0.425194 1.850052 -0.591173 128 128 255 -0.199004 -0.873463 0.444365
0.510292 1.850045 -0.549351 128 128 255 -0.252831 -0.823368 0.508077
0.581477 1.850036 -0.510400 128 128 255 -0.322251 -0.759155 0.565542
0.638646 1.850026 -0.474063 128 128 255 -0.399832 -0.706863 0.583506
0.682499 1.850020 -0.439394 128 128 255 -0.465522 -0.709822 0.528623
0.714439 1.850016 -0.404863 128 128 255 -0.495883 -0.767528 0.406203
0.736420 1.850017 -0.368508 128 128 255 -0.496625 -0.823601 0.273944
0.750756 1.850021 -0.328124 128 128 255 -0.505012 -0.844064 0.180327
0.759914 1.850029 -0.281474 128 128 255 -0.554705 -0.821803 0.130162
0.766293 1.850038 -0.226504 128 128 255 -0.676398 -0.727739 0.113493
0.772017 1.850047 -0.161548 128 128 255 -0.888866 -0.441763 0.121504
0.778749 1.850055 -0.085511 128 128 255 -0.974186 0.190079 0.121788
0.787547 1.850058 0.001997 128 128 255 -0.724738 0.683396 0.087892
0.798774 1.850055 0.100571 128 128 255 -0.506563 0.860131 0.059737
0.812059 1.850044 0.208981 128 128 255 -0.381539 0.923400 0.041944
0.826319 1.850023 0.325208 128 128 255 -0.309067 0.950601 0.028914
0.839844 1.849994 0.446532 128 128 255 -0.265297 0.964011 0.017348
0.850434 1.849959 0.569676 128 128 255 -0.238962 0.971015 0.005157
0.855570 1.849922 0.690998 128 128 255 -0.224989 0.974313 -0.009708
0.852623 1.849887 0.806701 128 128 255 -0.221963 0.974582 -0.030374
0.839074 1.849857 0.913068 128 128 255 -0.232209 0.970599 -0.063380
0.812725 1.849836 1.006691 128 128 255 -0.266181 0.955560 -0.126695
0.771898 1.849824 1.084676 128 128 255 -0.366544 0.883480 -0.291734
0.715599 1.849820 1.144817 128 128 255 -0.592249 0.086266 -0.801124
0.643628 1.849826 1.185727 128 128 255 -0.182621 -0.868418 -0.460978
0.556645 1.849839 1.206906 128 128 255 -0.045368 -0.955195 -0.292481
0.456163 1.849858 1.208754 128 128 255 0.005076 -0.972965 -0.230896
0.344490 1.849883 1.192516 128 128 255 0.031826 -0.978782 -0.202418
0.224606 1.849910 1.160175 128 128 255 0.049847 -0.980808 -0.188494
0.100000 1.849937 1.114297 128 128 255 0.064456 -0.981070 -0.182612
-0.025538 1.849959 1.057829 128 128 255 0.078162 -0.980206 -0.181898
-0.148142 1.849974 0.993890 128 128 255 0.092452 -0.978431 -0.184733
-0.264102 1.849982 0.925539 128 128 255 0.108349 -0.975835 -0.189753
-0.370088 1.849981 0.855563 128 128 255 0.126485 -0.972584 -0.195147
-0.463343 1.849975 0.786290 128 128 255 0.146830 -0.969142 -0.198002
-0.541836 1.849967 0.719442 128 128 255 0.168099 -0.966504 -0.193940
-0.604363 1.849958 0.656031 128 128 255 0.187255 -0.966043 -0.178036
-0.650591 1.849952 0.596325 128 128 255 0.200339 -0.968483 -0.148006
-0.681033 1.849951 0.539866 128 128 255 0.205357 -0.972743 -0.107706
-0.696976 1.849955 0.485550 128 128 255 0.204796 -0.976591 -0.065798
-0.700343 1.849964 0.431757 128 128 255 0.204455 -0.978426 -0.029676
-0.693519 1.849977 0.376523 128 128 255 0.210536 -0.977585 -0.001778
-0.679148 1.849994 0.317744 128 128 255 0.229108 -0.973208 0.019393
-0.659912 1.850013 0.253388 128 128 255 0.268964 -0.962430 0.037226
-0.638312 1.850031 0.181710 128 128 255 0.349488 -0.935220 0.056755
-0.616474 1.850045 0.101437 128 128 255 0.524370 -0.846944 0.087873
-0.595982 1.850054 0.011931 128 128 255 0.892810 -0.426044 0.146209
-0.577758 1.850055 -0.086702 128 128 255 0.825761 0.548582 0.131058
-0.562002 1.850046 -0.193561 128 128 255 0.494943 0.865385 0.078362
-0.548182 1.850028 -0.306955 128 128 255 0.343818 0.937273 0.057523
-0.535095 1.850000 -0.424466 128 128 255 0.270303 0.961405 0.051348
-0.520972 1.849966 -0.543074 128 128 255 0.231054 0.971474 0.053405
-0.503643 1.849930 -0.659328 128 128 255 0.210592 0.975566 0.062629
-0.480722 1.849895 -0.769549 128 128 255 0.203490 0.975706 0.081176
-0.449827 1.849866 -0.870056 128 128 255 0.210005 0.970770 0.116204
-0.408790 1.849844 -0.957396 128 128 255 0.238643 0.952416 0.189616
-0.355868 1.849830 -1.028566 128 128 255 0.327038 0.860016 0.391688
-0.289917 1.849824 -1.081194 128 128 255 0.451032 -0.090477 0.887910
-0.210528 1.849825 -1.113693 128 128 255 0.116830 -0.879564 0.461213
-0.118111 1.849832 -1.125353 128 128 255 0.015159 -0.956403 0.291657
-0.013916 1.849843 -1.116377 128 128 255 -0.025099 -0.973491 0.227343
0.100000 1.849858 -1.087850 128 128 255 -0.048148 -0.979271 0.196751
0.220872 1.849873 -1.041659 128 128 255 -0.065043 -0.981337 0.180961
0.345375 1.849887 -0.980348 128 128 255 -0.079829 -0.981687 0.172969
0.469814 1.849897 -0.906934 128 128 255 -0.094385 -0.981021 0.169380
0.590344 1.849902 -0.824701 128 128 255 -0.109650 -0.979681 0.167933
0.703203 1.849900 -0.736966 128 128 255 -0.125892 -0.977972 0.166498
0.804936 1.849893 -0.646864 128 128 255 -0.142606 -0.976335 0.162581
0.892610 1.849883 -0.557140 128 128 255 -0.158287 -0.975417 0.153321
0.963975 1.849873 -0.469983 128 128 255 -0.170517 -0.975887 0.136269
1.017595 1.849866 -0.386900 128 128 255 -0.176870 -0.977967 0.110898
1.052913 1.849862 -0.308653 128 128 255 -0.176528 -0.981063 0.079703
1.070253 1.849865 -0.235249 128 128 255 -0.171244 -0.984095 0.047240
1.070767 1.849875 -0.165992 128 128 255 -0.164545 -0.986213 0.017567
1.056322 1.849891 -0.099596 128 128 255 -0.160104 -0.987071 -0.007535
1.029341 1.849913 -0.034333 128 128 255 -0.160974 -0.986546 -0.028529
0.992606 1.849939 0.031772 128 128 255 -0.170072 -0.984295 -0.047318
0.949040 1.849967 0.100729 128 128 255 -0.147016 -0.986797 -0.067956
1.097588 1.891496 0.100669 128 128 255 -0.888744 0.275437 0.366428
1.148443 1.891465 0.227244 128 128 255 -0.889436 0.329747 0.316498
1.186192 1.891436 0.349548 128 128 255 -0.887596 0.403749 0.221719
1.207710 1.891414 0.463598 128 128 255 -0.882733 0.459685 0.097326
1.210503 1.891400 0.565962 128 128 255 -0.873318 0.481941 -0.071052
1.192914 1.891395 0.653986 128 128 255 -0.844779 0.441925 -0.301746
1.154277 1.891400 0.725947 128 128 255 -0.753816 0.295749 -0.586766
1.094993 1.891413 0.781144 128 128 255 -0.560261 0.043128 -0.827192
1.016525 1.891437 0.819904 128 128 255 -0.330238 -0.205273 -0.921307
0.921308 1.891469 0.843502 128 128 255 -0.155091 -0.368307 -0.916677
0.812596 1.891509 0.854023 128 128 255 -0.044851 -0.455033 -0.889345
0.694241 1.891554 0.854143 128 128 255 0.021467 -0.489865 -0.871534
0.570426 1.891599 0.846883 128 128 255 0.060824 -0.485149 -0.872314
0.445379 1.891639 0.835328 128 128 255 0.082603 -0.441743 -0.893331
0.323091 1.891670 0.822356 128 128 255 0.090733 -0.351332 -0.931844
0.207045 1.891690 0.810382 128 128 255 0.085385 -0.199663 -0.976137
0.100000 1.891698 0.801146 128 128 255 0.065322 0.019935 -0.997665
0.003826 1.891697 0.795570 128 128 255 0.033583 0.277854 -0.960036
-0.080578 1.891689 0.793673 128 128 255 0.001888 0.508037 -0.861333
-0.153294 1.891677 0.794578 128 128 255 -0.016189 0.667791 -0.744172
-0.215308 1.891662 0.796595 128 128 255 -0.011936 0.762052 -0.647405
-0.268367 1.891649 0.797368 128 128 255 0.021829 0.811471 -0.583985
-0.314766 1.891637 0.794095 128 128 255 0.092984 0.830520 -0.549173
-0.357103 1.891628 0.783778 128 128 255 0.200943 0.826301 -0.526164
-0.398004 1.891622 0.763500 128 128 255 0.319599 0.809339 -0.492775
-0.439854 1.891618 0.730701 128 128 255 0.406848 0.800488 -0.440106
-0.484543 1.891617 0.683426 128 128 255 0.443423 0.812846 -0.377700
-0.533271 1.891616 0.620529 128 128 255 0.439753 0.840160 -0.317410
-0.586395 1.891612 0.541816 128 128 255 0.414956 0.870391 -0.265011
