ply
format ascii 1.0
element vertex 698
property float x
property float y
property float z
property uchar red
property uchar green
property uchar blue
property float nx
property float ny
property float nz
end_header
0.041530 0.204058 -0.367563 128 128 255 -0.907744 -0.418177 -0.033591
0.056554 0.167116 -0.182691 128 128 255 -0.991931 -0.106944 0.068088
0.088290 0.112034 0.114507 128 128 255 0.691473 0.721084 0.043632
0.152882 0.031396 0.450741 128 128 255 0.831216 0.554904 -0.034083
0.194137 -0.013639 0.733663 128 128 255 0.804428 0.593187 -0.032017
0.222184 -0.034470 0.891663 128 128 255 0.774988 0.628205 -0.068937
0.230618 -0.030618 0.904714 128 128 255 -0.802442 -0.566526 -0.187444
0.220473 -0.009581 0.801667 128 128 255 -0.704314 -0.708446 -0.045240
0.197632 0.018826 0.633443 128 128 255 -0.657200 -0.753272 -0.025884
0.169259 0.046642 0.448295 128 128 255 -0.606020 -0.795225 -0.018925
0.142612 0.068432 0.286967 128 128 255 -0.548744 -0.835796 -0.018052
0.126119 0.080224 0.191246 128 128 255 -0.442802 -0.895497 -0.044850
0.129327 0.079607 0.204567 128 128 255 0.487599 0.872528 -0.030702
0.159120 0.067514 0.354065 128 128 255 0.414041 0.910026 -0.020538
0.214035 0.049380 0.624828 128 128 255 0.354225 0.935134 -0.007008
0.259578 0.033429 0.949513 128 128 255 0.278894 0.960100 -0.020628
0.321704 0.026506 1.239364 128 128 255 0.218575 0.974500 -0.050746
0.385127 0.030645 1.424835 128 128 255 0.156703 0.981181 -0.112815
0.400130 0.043113 1.485231 128 128 255 -0.114277 0.762023 -0.637387
0.393531 0.059205 1.446028 128 128 255 -0.138818 -0.966241 -0.217041
0.374517 0.075084 1.352397 128 128 255 -0.039565 -0.989703 -0.137557
0.329530 0.088876 1.245158 128 128 255 0.016002 -0.992712 -0.119446
0.398384 0.100000 1.254072 128 128 255 0.217101 -0.871115 -0.440484
0.381094 0.125260 1.188326 128 128 255 0.294248 -0.852822 -0.431408
0.374213 0.138764 1.167050 128 128 255 0.487753 0.562775 -0.667369
0.386154 0.154674 1.224597 128 128 255 0.025912 0.982466 -0.184634
0.421492 0.177085 1.382045 128 128 255 -0.110609 0.987440 -0.112817
0.474135 0.208383 1.619047 128 128 255 -0.249524 0.967273 -0.046044
0.504510 0.223932 1.867435 128 128 255 -0.166560 0.979684 -0.111697
0.536426 0.260682 2.040020 128 128 255 -0.227327 0.938936 -0.258305
0.534739 0.287394 2.076545 128 128 255 0.173885 -0.812065 -0.557059
0.500394 0.298561 1.972352 128 128 255 0.456850 -0.880311 -0.127828
0.467405 0.294596 1.770286 128 128 255 0.519876 -0.850875 -0.075766
0.405496 0.280065 1.528295 128 128 255 0.425709 -0.903177 -0.055160
0.325268 0.260629 1.293364 128 128 255 0.419341 -0.906338 -0.052000
0.278240 0.242222 1.100387 128 128 255 0.546643 -0.835258 -0.059372
0.248435 0.232545 0.985808 128 128 255 0.482621 -0.863055 -0.149042
0.241352 0.241352 0.990233 128 128 255 -0.793406 0.596591 -0.120775
0.257787 0.276469 1.137599 128 128 255 -0.818741 0.572334 -0.045802
0.289992 0.337231 1.406775 128 128 255 -0.809907 0.584423 -0.050012
0.323214 0.433632 1.725255 128 128 255 -0.760553 0.645616 -0.068843
0.365090 0.479982 1.998360 128 128 255 -0.759280 0.644120 -0.092754
0.363810 0.526577 2.155890 128 128 255 -0.806336 0.475551 -0.351674
0.321266 0.544955 2.181737 128 128 255 0.333601 -0.633483 -0.698147
0.289552 0.539586 2.106874 128 128 255 0.843923 -0.495107 -0.206550
0.254282 0.519753 1.978049 128 128 255 0.882785 -0.445264 -0.149769
0.220422 0.493707 1.832744 128 128 255 0.964138 -0.252904 -0.080479
0.212733 0.468148 1.698892 128 128 255 0.954846 -0.265077 -0.134177
0.188155 0.473573 1.609094 128 128 255 0.884480 -0.256326 -0.389862
0.168901 0.475983 1.603511 128 128 255 -0.916593 0.179768 -0.357129
0.152491 0.482595 1.708957 128 128 255 -0.985327 0.105461 -0.134197
0.134456 0.534330 1.910110 128 128 255 -0.993615 0.037263 -0.106491
0.111111 0.615129 2.142545 128 128 255 -0.984529 -0.045109 -0.169313
0.060170 0.659108 2.321074 128 128 255 -0.947348 -0.158681 -0.278121
0.029815 0.673165 2.385386 128 128 255 -0.307041 -0.581015 -0.753755
0.002632 0.655718 2.328614 128 128 255 0.970181 -0.074884 -0.230525
-0.018635 0.616973 2.189332 128 128 255 0.994499 0.017402 -0.103291
-0.034162 0.548122 2.019464 128 128 255 0.996348 0.060841 -0.059915
-0.023625 0.503563 1.858701 128 128 255 0.983391 0.167148 -0.070735
-0.034217 0.467483 1.733981 128 128 255 0.974605 0.149268 -0.166926
-0.047940 0.468346 1.676329 128 128 255 0.485628 0.207937 -0.849075
-0.070873 0.468275 1.717405 128 128 255 -0.850671 -0.452827 -0.267034
-0.108599 0.469437 1.874444 128 128 255 -0.824020 -0.546163 -0.150655
-0.183706 0.508648 2.122267 128 128 255 -0.815164 -0.570824 -0.098328
-0.243729 0.546699 2.386531 128 128 255 -0.866159 -0.475530 -0.153751
-0.274158 0.564657 2.573122 128 128 255 -0.850523 -0.457984 -0.258576
-0.305308 0.551369 2.614767 128 128 255 0.554811 0.508986 -0.658118
-0.308471 0.508471 2.500381 128 128 255 0.692301 0.708066 -0.139151
-0.286516 0.469137 2.267598 128 128 255 0.714300 0.695454 -0.078221
-0.269509 0.401336 1.970863 128 128 255 0.769015 0.635247 -0.071256
-0.220815 0.313902 1.655725 128 128 255 0.681575 0.728416 -0.069748
-0.169854 0.256918 1.357848 128 128 255 0.434275 0.899587 -0.046352
-0.103704 0.235135 1.116589 128 128 255 0.297405 0.954008 -0.037670
-0.078675 0.207812 0.977345 128 128 255 0.493848 0.857450 -0.144547
-0.081772 0.196988 0.970275 128 128 255 -0.245720 -0.953557 -0.174216
-0.111962 0.196741 1.081344 128 128 255 -0.250493 -0.964933 -0.078469
-0.177391 0.197631 1.245374 128 128 255 -0.198115 -0.976842 -0.080813
-0.212731 0.191930 1.374593 128 128 255 -0.067519 -0.987786 -0.140429
-0.223924 0.177601 1.404641 128 128 255 0.727930 0.593907 -0.342625
-0.207108 0.157992 1.323653 128 128 255 0.339242 0.937237 -0.080630
-0.169805 0.138301 1.164877 128 128 255 0.172536 0.983913 -0.046338
-0.101324 0.122244 0.975215 128 128 255 0.117637 0.992273 -0.039440
-0.055323 0.111111 0.790232 128 128 255 0.075237 0.992886 -0.092291
-0.016097 0.082222 0.634120 128 128 255 -0.047174 0.989887 -0.133784
-0.013078 0.078172 0.534335 128 128 255 -0.306955 0.940781 -0.143910
-0.010352 0.073171 0.525052 128 128 255 -0.104485 -0.968993 -0.223910
-0.034766 0.062605 0.626896 128 128 255 0.182064 -0.981114 -0.065337
-0.057961 0.043586 0.818822 128 128 255 0.172425 -0.982184 -0.074731
-0.106563 0.018162 1.031749 128 128 255 0.203846 -0.974139 -0.097468
-0.136981 -0.006345 1.177373 128 128 255 0.273467 -0.941073 -0.198991
-0.135855 -0.021067 1.194133 128 128 255 -0.241688 0.943896 -0.225049
-0.103760 -0.020594 1.075911 128 128 255 -0.387331 0.920227 -0.056182
-0.052046 -0.005310 0.863985 128 128 255 -0.471486 0.881753 -0.014606
-0.016899 0.020189 0.614672 128 128 255 -0.537552 0.843229 0.001561
0.035595 0.050169 0.373319 128 128 255 -0.550706 0.834656 -0.008535
0.076408 0.078782 0.173227 128 128 255 -0.583315 0.812246 -0.000002
0.121942 0.120863 0.049080 128 128 255 0.719611 -0.694213 0.015120
0.122601 0.122601 0.042266 128 128 255 -0.695751 0.718222 0.009358
0.077691 0.076453 0.175451 128 128 255 0.754915 -0.653280 -0.057687
0.039235 0.027572 0.424306 128 128 255 0.578339 -0.812562 -0.072574
-0.000380 -0.033980 0.715809 128 128 255 0.700271 -0.711036 -0.063630
-0.026341 -0.066328 0.954756 128 128 255 0.952067 -0.303904 0.034789
-0.031261 -0.096995 1.070675 128 128 255 0.848613 -0.498752 -0.176358
-0.017408 -0.097509 1.047445 128 128 255 -0.918725 0.352259 -0.178487
0.007175 -0.072421 0.916285 128 128 255 -0.929267 0.361409 -0.076462
0.034283 -0.031141 0.724465 128 128 255 -0.917336 0.393626 -0.059603
0.058547 -0.004494 0.510253 128 128 255 -0.956671 0.287751 -0.044494
0.077058 0.044737 0.302613 128 128 255 -0.985651 0.163612 -0.041516
0.088166 0.085486 0.135391 128 128 255 -0.985793 0.097885 -0.136497
0.113946 0.129009 0.049877 128 128 255 0.986082 -0.078128 0.146758
0.112363 0.123027 0.075175 128 128 255 0.434518 -0.845378 -0.310693
0.087921 0.070428 0.197402 128 128 255 -0.340786 0.917093 0.206892
0.088889 0.031264 0.353699 128 128 255 0.967550 -0.181077 -0.176234
0.115534 0.004495 0.460992 128 128 255 0.957891 -0.015132 -0.286734
0.119934 0.004942 0.460858 128 128 255 -0.996456 0.081345 -0.021405
0.119879 0.033529 0.348217 128 128 255 -0.704125 0.682546 0.195804
0.113107 0.079500 0.163299 128 128 255 0.643668 0.750414 0.150235
0.078139 0.151232 -0.041174 128 128 255 0.856726 -0.457570 -0.238013
0.061955 0.194004 -0.223581 128 128 255 0.946220 0.322054 -0.030798
0.045826 0.223293 -0.355616 128 128 255 0.790521 0.611588 0.032204
0.034743 0.232725 -0.407800 128 128 255 0.661048 0.222386 -0.716631
0.035552 0.215791 -0.346029 128 128 255 -0.916378 -0.399315 -0.028262
0.054567 0.170558 -0.151860 128 128 255 -0.863647 -0.504081 -0.004066
0.114897 0.083059 0.149389 128 128 255 0.711454 0.701453 0.042379
0.164424 0.015510 0.481729 128 128 255 0.712370 0.701590 0.017299
0.211099 -0.034586 0.751698 128 128 255 0.600794 0.798859 0.029516
0.218855 -0.033231 0.891206 128 128 255 0.775055 0.615537 -0.142842
0.225877 -0.025877 0.888034 128 128 255 -0.996104 -0.087654 -0.009709
0.234834 -0.022512 0.778409 128 128 255 -0.936056 -0.351810 -0.005418
0.208831 0.009757 0.615151 128 128 255 -0.658854 -0.751653 -0.030481
0.177869 0.040386 0.442010 128 128 255 -0.604923 -0.795927 -0.023844
0.149129 0.064200 0.292718 128 128 255 -0.544026 -0.838714 -0.024367
0.131508 0.077113 0.204611 128 128 255 -0.424797 -0.902870 -0.066129
0.136088 0.076162 0.221022 128 128 255 0.486667 0.872793 -0.037258
0.171265 0.062107 0.370974 128 128 255 0.631061 0.772144 -0.074543
0.235308 0.041214 0.639918 128 128 255 0.526766 0.847756 -0.061857
0.291097 0.023188 0.958341 128 128 255 0.306391 0.951086 -0.039491
0.383377 0.015936 1.236644 128 128 255 0.210233 0.975860 -0.059150
0.428397 0.021448 1.408785 128 128 255 0.139861 0.982118 -0.126026
0.444001 0.036164 1.461405 128 128 255 -0.294904 0.586281 -0.754524
0.437238 0.054612 1.426498 128 128 255 -0.212617 -0.937748 -0.274631
0.419133 0.072746 1.349982 128 128 255 -0.062224 -0.978061 -0.198811
0.398404 0.088874 1.266801 128 128 255 0.026926 -0.984836 -0.171385
0.446662 0.100000 1.272131 128 128 255 0.415895 -0.664086 -0.621306
0.432888 0.127975 1.227830 128 128 255 0.525709 -0.596717 -0.606266
0.428844 0.144506 1.220403 128 128 255 0.530269 0.612590 -0.586130
0.444034 0.163841 1.283685 128 128 255 0.039075 0.975316 -0.217327
0.484084 0.190389 1.439962 128 128 255 -0.040117 0.990277 -0.133196
0.519774 0.226566 1.668566 128 128 255 -0.079215 0.989011 -0.124829
0.575263 0.246921 1.899538 128 128 255 -0.272511 0.957472 -0.094795
0.627007 0.286923 2.045851 128 128 255 -0.292823 0.880666 -0.372402
0.617178 0.314204 2.052336 128 128 255 0.338617 -0.834355 -0.434960
0.549244 0.323451 1.923143 128 128 255 0.387774 -0.910160 -0.145741
0.482985 0.316420 1.708554 128 128 255 0.486706 -0.870829 -0.069094
0.434739 0.299055 1.467805 128 128 255 0.504392 -0.861624 -0.056501
0.370790 0.277557 1.242786 128 128 255 0.408797 -0.911069 -0.053277
0.297478 0.257801 1.061274 128 128 255 0.460848 -0.885090 -0.065078
0.265459 0.247873 0.955476 128 128 255 0.447425 -0.875242 -0.183745
0.258854 0.258854 0.965858 128 128 255 -0.787424 0.603516 -0.125427
0.278867 0.299881 1.117478 128 128 255 -0.715881 0.689133 -0.112296
0.316471 0.392152 1.388351 128 128 255 -0.747821 0.660406 -0.068027
0.376546 0.476451 1.703245 128 128 255 -0.735967 0.671727 -0.084470
0.397900 0.530505 1.966390 128 128 255 -0.837387 0.538332 -0.094768
0.395048 0.580683 2.111222 128 128 255 -0.917259 0.271908 -0.291037
0.371240 0.621643 2.128937 128 128 255 0.194716 -0.669842 -0.716517
0.313581 0.615777 2.056524 128 128 255 0.813480 -0.507785 -0.283557
0.275093 0.573968 1.940835 128 128 255 0.909315 -0.368788 -0.192723
0.238287 0.548688 1.813410 128 128 255 0.949664 -0.271118 -0.156948
0.227533 0.523380 1.694620 128 128 255 0.981903 -0.147175 -0.119187
0.199837 0.506312 1.612837 128 128 255 0.858669 -0.205212 -0.469654
0.177726 0.509481 1.608527 128 128 255 -0.906526 0.146860 -0.395782
0.158701 0.541678 1.710453 128 128 255 -0.983432 0.085825 -0.159675
0.137840 0.621136 1.903552 128 128 255 -0.991854 0.027404 -0.124396
0.111111 0.684538 2.121966 128 128 255 -0.980590 -0.081440 -0.178353
0.056480 0.729519 2.280760 128 128 255 -0.897759 -0.278927 -0.340924
0.022799 0.717688 2.324514 128 128 255 0.280653 -0.701054 -0.655558
-0.006970 0.716343 2.254697 128 128 255 0.967332 -0.183667 -0.174746
-0.030419 0.672410 2.116604 128 128 255 0.995991 -0.035910 -0.081932
-0.026176 0.623473 1.962561 128 128 255 0.996519 0.033199 -0.076467
-0.040958 0.556910 1.826172 128 128 255 0.982639 0.119286 -0.142096
-0.055233 0.522230 1.726257 128 128 255 0.905990 0.279050 -0.318296
-0.073259 0.502992 1.688949 128 128 255 -0.361644 -0.040333 -0.931443
-0.101695 0.506544 1.744821 128 128 255 -0.880907 -0.355112 -0.312886
-0.169020 0.535599 1.911612 128 128 255 -0.870956 -0.456984 -0.180556
-0.230849 0.581242 2.163014 128 128 255 -0.857770 -0.505592 -0.092779
-0.277278 0.645683 2.421981 128 128 255 -0.859707 -0.482624 -0.167264
-0.335548 0.662689 2.593622 128 128 255 -0.792962 -0.517392 -0.321740
-0.367639 0.642817 2.614886 128 128 255 0.590320 0.551633 -0.589257
-0.367624 0.567624 2.482784 128 128 255 0.706615 0.672704 -0.219463
-0.340433 0.495461 2.241890 128 128 255 0.581050 0.808049 -0.097144
-0.295606 0.440464 1.947715 128 128 255 0.714024 0.697275 -0.063072
-0.263471 0.367115 1.640770 128 128 255 0.787396 0.614072 -0.054074
-0.206389 0.280645 1.349937 128 128 255 0.586263 0.807405 -0.066279
-0.134107 0.230466 1.110917 128 128 255 0.279514 0.958767 -0.051367
-0.104750 0.221098 0.969734 128 128 255 0.306956 0.943107 -0.127775
-0.107146 0.208285 0.958541 128 128 255 -0.247235 -0.927914 -0.279018
-0.162315 0.207539 1.063345 128 128 255 -0.240666 -0.966447 -0.089775
-0.209094 0.207932 1.217092 128 128 255 -0.200230 -0.975426 -0.091930
-0.245548 0.200723 1.331635 128 128 255 -0.016858 -0.981624 -0.190079
-0.254078 0.184011 1.346757 128 128 255 0.655486 0.704278 -0.272637
-0.232393 0.161997 1.258144 128 128 255 0.347677 0.934086 -0.081259
-0.190940 0.140522 1.105031 128 128 255 0.205218 0.977290 -0.052828
-0.120817 0.123266 0.934114 128 128 255 0.106334 0.993055 -0.050338
-0.075216 0.111111 0.774470 128 128 255 0.046067 0.991166 -0.124368
-0.036956 0.081129 0.642009 128 128 255 -0.100488 0.976734 -0.189454
-0.035024 0.075865 0.559126 128 128 255 -0.339665 0.935063 -0.101417
-0.034611 0.069328 0.559435 128 128 255 -0.107546 -0.976322 -0.187693
-0.041382 0.056475 0.664713 128 128 255 0.154837 -0.984380 -0.083797
-0.092645 0.034293 0.853522 128 128 255 0.236397 -0.970061 -0.055656
-0.167464 0.005595 1.054907 128 128 255 0.218064 -0.970628 -0.101638
-0.197008 -0.020857 1.180626 128 128 255 0.238009 -0.948914 -0.207155
-0.189614 -0.035109 1.174087 128 128 255 0.068927 0.995991 -0.057020
-0.126019 -0.031935 1.037849 128 128 255 -0.097367 0.995182 0.011517
-0.065475 -0.013063 0.820480 128 128 255 -0.462776 0.886340 -0.015497
-0.024096 0.015516 0.579440 128 128 255 -0.533600 0.845737 0.000542
0.032017 0.047569 0.354839 128 128 255 -0.545132 0.838310 -0.008214
0.074714 0.077410 0.172723 128 128 255 -0.586183 0.810179 -0.000491
0.120527 0.119590 0.063441 128 128 255 0.718323 -0.695418 0.020144
0.119065 0.119065 0.068285 128 128 255 -0.704313 0.709843 0.008142
0.069245 0.067072 0.210771 128 128 255 0.728256 -0.684041 -0.041619
0.024330 0.009165 0.465666 128 128 255 0.901417 -0.430697 0.044119
-0.020702 -0.039728 0.757078 128 128 255 0.816734 -0.575300 -0.044444
-0.026632 -0.100994 0.988661 128 128 255 0.860588 -0.495309 -0.118559
-0.030240 -0.133716 1.093546 128 128 255 0.972351 -0.199695 -0.121060
-0.035248 -0.132520 1.062893 128 128 255 -0.982878 0.156681 -0.096966
-0.007024 -0.104313 0.933947 128 128 255 -0.926984 0.363546 -0.092379
0.023154 -0.060134 0.754104 128 128 255 -0.938821 0.337297 -0.069616
0.050060 -0.030615 0.555738 128 128 255 -0.950160 0.306077 -0.059269
0.071089 0.022460 0.360325 128 128 255 -0.987260 0.148897 -0.056109
0.084435 0.067933 0.197568 128 128 255 -0.937458 -0.299499 -0.177404
0.111782 0.115348 0.109381 128 128 255 -0.841967 0.524046 0.128327
0.088850 0.088516 0.126438 128 128 255 0.728672 -0.650514 -0.214169
0.087234 0.057315 0.235326 128 128 255 0.901037 -0.419502 -0.110230
0.088889 0.017849 0.372267 128 128 255 0.968452 -0.149542 -0.199342
0.116066 -0.005655 0.454394 128 128 255 0.871240 0.104502 -0.479605
0.120210 0.002321 0.428318 128 128 255 -0.998281 0.058459 -0.004128
0.118800 0.040346 0.297426 128 128 255 -0.921847 -0.383131 -0.058381
0.087778 0.116336 0.108694 128 128 255 0.750946 0.648237 0.125975
0.073121 0.169958 -0.084707 128 128 255 0.918940 0.394046 0.016639
0.055662 0.213374 -0.246783 128 128 255 0.965140 0.247090 -0.086319
0.038969 0.218935 -0.357437 128 128 255 0.808114 0.583197 -0.082662
0.028210 0.225177 -0.392285 128 128 255 -0.951842 -0.255971 0.168747
0.030962 0.224800 -0.318061 128 128 255 -0.882178 -0.470793 -0.010808
0.054359 0.170919 -0.115688 128 128 255 -0.863358 -0.504557 -0.005891
0.121283 0.073226 0.188202 128 128 255 0.955971 -0.104692 -0.274151
0.177823 -0.002932 0.515082 128 128 255 0.929101 0.358165 -0.092135
0.229302 -0.034843 0.770716 128 128 255 0.856931 0.509055 -0.080820
0.238102 -0.054607 0.891186 128 128 255 0.529580 0.843479 -0.089933
0.242980 -0.042980 0.872293 128 128 255 -0.551630 -0.821228 -0.145907
0.226380 -0.034908 0.757107 128 128 255 -0.710234 -0.701574 -0.057981
0.219753 0.000912 0.599405 128 128 255 -0.793338 -0.608423 -0.020863
0.186720 0.033956 0.437780 128 128 255 -0.602523 -0.797540 -0.029930
0.156219 0.059595 0.299065 128 128 255 -0.538900 -0.841765 -0.031896
0.137499 0.073654 0.216806 128 128 255 -0.411447 -0.906990 -0.089892
0.143313 0.072481 0.234829 128 128 255 0.482879 0.874615 -0.043323
0.183718 0.056562 0.384123 128 128 255 0.394764 0.918782 0.000914
0.234425 0.033023 0.650219 128 128 255 0.417513 0.907376 -0.048488
0.322148 0.013098 0.961362 128 128 255 0.273995 0.960861 -0.040890
0.421508 0.005718 1.227463 128 128 255 0.251751 0.964312 -0.082000
0.469535 0.012704 1.386519 128 128 255 0.150854 0.977289 -0.148825
0.485535 0.029586 1.432630 128 128 255 -0.471724 0.639710 -0.606834
0.479358 0.050185 1.403708 128 128 255 -0.366103 -0.867737 -0.336156
0.463683 0.070411 1.345420 128 128 255 -0.106078 -0.954692 -0.278048
0.446678 0.088871 1.286170 128 128 255 0.049584 -0.964395 -0.259776
0.474091 0.100000 1.287526 128 128 255 0.375777 -0.367029 -0.850930
0.464941 0.130819 1.263244 128 128 255 0.573224 -0.155619 -0.804485
0.464197 0.150558 1.267962 128 128 255 0.353223 0.777343 -0.520549
0.482638 0.173475 1.335614 128 128 255 0.021696 0.971592 -0.235667
0.527092 0.204254 1.489797 128 128 255 -0.169141 0.982973 -0.071800
0.611795 0.223047 1.709313 128 128 255 -0.090767 0.985423 -0.143882
0.668927 0.270134 1.922415 128 128 255 -0.191683 0.965279 -0.177466
0.694364 0.312779 2.042684 128 128 255 -0.351846 0.750440 -0.559504
0.674778 0.362072 2.020571 128 128 255 0.287118 -0.878029 -0.382922
0.616778 0.368761 1.869071 128 128 255 0.463068 -0.871223 -0.162907
0.517284 0.336223 1.645184 128 128 255 0.545778 -0.833090 -0.089928
0.461235 0.316262 1.408384 128 128 255 0.467720 -0.882727 -0.045076
0.392301 0.293185 1.194804 128 128 255 0.467978 -0.880449 -0.076202
0.315682 0.272542 1.025221 128 128 255 0.488074 -0.866726 -0.102809
0.281933 0.262707 0.928226 128 128 255 0.406393 -0.884145 -0.230505
0.276175 0.276175 0.944635 128 128 255 -0.848795 0.518493 -0.103504
0.300092 0.323453 1.100618 128 128 255 -0.829536 0.558369 -0.009652
0.365486 0.425238 1.373035 128 128 255 -0.715816 0.693347 -0.082935
0.407838 0.497298 1.683879 128 128 255 -0.760098 0.642180 -0.099276
0.430515 0.580727 1.936710 128 128 255 -0.872891 0.467301 -0.140323
0.425736 0.656057 2.069155 128 128 255 -0.905975 0.240264 -0.348544
0.398379 0.674905 2.079800 128 128 255 0.238344 -0.717616 -0.654384
0.337270 0.668984 2.011036 128 128 255 0.670043 -0.656028 -0.347375
0.295975 0.650589 1.908886 128 128 255 0.881950 -0.406549 -0.238502
0.256507 0.626987 1.798422 128 128 255 0.927868 -0.286249 -0.239005
0.220514 0.580122 1.692722 128 128 255 0.979804 -0.116646 -0.162411
0.211806 0.562621 1.616689 128 128 255 0.889406 -0.066928 -0.452192
0.186684 0.566035 1.611706 128 128 255 -0.853577 0.113434 -0.508467
0.164928 0.623143 1.708567 128 128 255 -0.978517 0.078033 -0.190828
0.141186 0.684982 1.892235 128 128 255 -0.989483 0.015841 -0.143776
0.111111 0.729699 2.095392 128 128 255 -0.967627 -0.121647 -0.221133
0.052978 0.774102 2.233767 128 128 255 -0.828842 -0.401446 -0.389694
0.016306 0.779468 2.257344 128 128 255 0.687289 -0.530336 -0.496365
-0.015707 0.749280 2.175947 128 128 255 0.984288 -0.071695 -0.161359
-0.018952 0.723012 2.040881 128 128 255 0.991105 -0.099434 -0.088454
-0.039510 0.673237 1.903842 128 128 255 0.990842 0.018473 -0.133760
-0.057741 0.630784 1.791731 128 128 255 0.962307 0.113626 -0.247091
-0.076115 0.576630 1.715426 128 128 255 0.866595 0.159969 -0.472676
-0.098822 0.560405 1.696828 128 128 255 -0.605658 -0.256938 -0.753101
-0.133092 0.568164 1.766030 128 128 255 -0.864037 -0.431439 -0.259422
-0.208082 0.625479 1.941357 128 128 255 -0.901555 -0.377546 -0.211322
-0.278979 0.677579 2.195163 128 128 255 -0.870006 -0.471343 -0.144659
-0.333788 0.723462 2.447718 128 128 255 -0.769668 -0.615167 -0.170823
-0.419196 0.716321 2.603834 128 128 255 -0.642871 -0.592478 -0.485475
-0.451315 0.711068 2.605270 128 128 255 0.636404 0.639726 -0.430976
-0.447460 0.647460 2.457234 128 128 255 0.720197 0.654676 -0.229597
-0.414940 0.542538 2.210600 128 128 255 0.627048 0.768428 -0.127787
-0.342695 0.478596 1.920967 128 128 255 0.548352 0.832574 -0.078304
-0.283194 0.397591 1.623214 128 128 255 0.693111 0.713550 -0.102197
-0.242498 0.304094 1.339617 128 128 255 0.618475 0.779298 -0.100916
-0.186291 0.247764 1.102877 128 128 255 0.364774 0.927716 -0.079271
-0.130252 0.234092 0.960148 128 128 255 0.176337 0.981412 -0.075732
-0.131852 0.219285 0.945556 128 128 255 -0.183348 -0.940445 -0.286264
-0.189614 0.218018 1.044820 128 128 255 -0.272192 -0.953760 -0.127487
-0.239510 0.217814 1.188904 128 128 255 -0.229922 -0.967141 -0.108511
-0.276341 0.208974 1.289639 128 128 255 0.075219 -0.977757 -0.195787
-0.281592 0.189859 1.291431 128 128 255 0.748483 0.630916 -0.204249
-0.255115 0.165596 1.197523 128 128 255 0.353532 0.931667 -0.083731
-0.210571 0.142586 1.052432 128 128 255 0.245511 0.967458 -0.061240
-0.162777 0.124300 0.901653 128 128 255 0.105495 0.992176 -0.066769
-0.097124 0.111111 0.767201 128 128 255 -0.000387 0.987568 -0.157193
-0.061058 0.079866 0.656940 128 128 255 -0.178282 0.948533 -0.261725
-0.038548 0.073159 0.588955 128 128 255 -0.575561 0.747030 -0.332679
-0.040524 0.064872 0.596929 128 128 255 -0.193262 -0.955239 -0.223983
-0.073842 0.049576 0.703906 128 128 255 0.090493 -0.989697 -0.110957
-0.130263 0.024213 0.887868 128 128 255 0.154186 -0.982855 -0.101109
-0.207816 -0.007516 1.076021 128 128 255 0.203255 -0.974121 -0.098870
-0.234781 -0.035356 1.180661 128 128 255 0.150257 -0.938843 -0.309832
-0.219479 -0.026183 1.150737 128 128 255 -0.171005 0.985120 -0.017213
-0.167868 -0.019713 0.997556 128 128 255 0.014676 0.999580 0.024985
-0.076282 -0.019303 0.776302 128 128 255 -0.211348 0.977260 0.017162
-0.029417 0.012060 0.544570 128 128 255 -0.529669 0.848204 0.000110
0.029377 0.045651 0.336613 128 128 255 -0.538766 0.842425 -0.007161
0.073237 0.076214 0.171386 128 128 255 -0.588895 0.808209 -0.000834
0.118880 0.118106 0.075569 128 128 255 0.712320 -0.700898 0.036628
0.114962 0.114962 0.090859 128 128 255 0.703631 -0.710376 -0.016403
0.059933 0.056730 0.241616 128 128 255 0.725232 -0.687343 -0.039980
0.008415 -0.010488 0.501502 128 128 255 0.747160 -0.662727 -0.050442
-0.019649 -0.068865 0.791706 128 128 255 0.932391 -0.361188 0.013813
-0.049581 -0.136332 1.015184 128 128 255 0.903789 -0.417637 -0.093509
-0.051490 -0.192744 1.109227 128 128 255 0.621204 -0.503359 -0.600613
-0.030822 -0.189671 1.072375 128 128 255 -0.979953 0.180510 -0.084306
-0.021428 -0.136666 0.947269 128 128 255 -0.971392 0.222889 -0.081966
0.011439 -0.090652 0.780495 128 128 255 -0.950072 0.300153 -0.085271
0.040740 -0.037076 0.597992 128 128 255 -0.955222 0.285680 -0.077059
0.064290 -0.002916 0.413992 128 128 255 -0.983016 0.169021 -0.071493
0.080055 0.047329 0.254786 128 128 255 -0.996141 0.022874 -0.084731
0.086979 0.076829 0.163339 128 128 255 -0.960776 0.273158 -0.047894
0.087340 0.074153 0.172208 128 128 255 -0.229528 0.950509 0.209403
0.086480 0.042920 0.268303 128 128 255 0.983218 -0.169289 -0.067999
0.088889 0.004352 0.386417 128 128 255 0.967080 -0.109366 -0.229771
0.116523 -0.014383 0.444458 128 128 255 0.229714 0.471202 -0.851587
0.120199 0.002423 0.394539 128 128 255 -0.998749 0.049333 0.008128
0.117217 0.050339 0.248488 128 128 255 -0.900878 -0.424504 -0.090642
0.084138 0.133460 0.059069 128 128 255 0.035313 -0.940145 -0.338940
0.067834 0.189691 -0.120581 128 128 255 0.964576 0.262274 -0.028372
0.049591 0.232057 -0.261285 128 128 255 0.875480 0.482358 -0.029417
0.032889 0.234774 -0.350849 128 128 255 0.886465 0.424537 -0.184252
0.022958 0.236973 -0.369314 128 128 255 -0.952702 -0.263436 -0.151529
0.028100 0.230416 -0.283688 128 128 255 -0.905766 -0.423720 0.007060
0.056261 0.167625 -0.074196 128 128 255 -0.861014 -0.508501 -0.009101
0.129972 0.059846 0.230934 128 128 255 -0.926667 0.310435 0.211939
0.193319 -0.024261 0.550810 128 128 255 0.536992 0.837862 0.098115
0.226703 -0.059075 0.790837 128 128 255 0.933771 0.327163 -0.145038
0.257865 -0.076556 0.891874 128 128 255 0.874777 0.256103 -0.411312
0.259913 -0.059913 0.857863 128 128 255 -0.741403 -0.656330 -0.139830
0.239832 -0.024799 0.738103 128 128 255 -0.540842 -0.838927 -0.060753
0.230695 -0.007948 0.586381 128 128 255 -0.823075 -0.567921 -0.003588
0.196023 0.027197 0.435587 128 128 255 -0.598737 -0.800069 -0.037462
0.163936 0.054584 0.305862 128 128 255 -0.533710 -0.844697 -0.040489
0.143967 0.069920 0.227668 128 128 255 -0.406378 -0.906738 -0.112621
0.150738 0.068698 0.245869 128 128 255 0.476280 0.877950 -0.048600
0.196117 0.051042 0.393426 128 128 255 0.397018 0.917805 -0.003400
0.255378 0.024980 0.655647 128 128 255 0.347943 0.936787 -0.036954
0.374407 0.003339 0.958501 128 128 255 0.262054 0.964273 -0.038804
0.457720 -0.003985 1.211804 128 128 255 0.236224 0.968685 -0.076469
0.485759 0.004532 1.358099 128 128 255 0.096478 0.980406 -0.171742
0.502083 0.023445 1.398985 128 128 255 -0.633863 0.442599 -0.634289
0.497399 0.045953 1.377611 128 128 255 -0.508573 -0.729228 -0.457798
0.485753 0.068090 1.338414 128 128 255 -0.177545 -0.855640 -0.486167
0.474102 0.088869 1.302700 128 128 255 0.080447 -0.886324 -0.456025
0.524821 0.100000 1.299813 128 128 255 0.279419 0.006429 -0.960148
0.521231 0.133769 1.293966 128 128 255 0.402767 0.115351 -0.908005
0.524081 0.156852 1.309110 128 128 255 0.216918 0.812104 -0.541695
0.545674 0.183459 1.379840 128 128 255 0.003265 0.962589 -0.270946
0.616403 0.218514 1.531097 128 128 255 -0.146408 0.982767 -0.112848
0.682730 0.242054 1.740934 128 128 255 -0.237470 0.965127 -0.110175
0.718035 0.293311 1.935858 128 128 255 -0.331867 0.906272 -0.261793
0.737766 0.337969 2.030523 128 128 255 -0.497441 0.415126 -0.761723
0.729214 0.386308 1.981496 128 128 255 0.234790 -0.925979 -0.295695
0.658281 0.389908 1.810548 128 128 255 0.307951 -0.944193 -0.116899
0.548095 0.376234 1.580599 128 128 255 0.574611 -0.809483 -0.120660
0.485205 0.331828 1.350328 128 128 255 0.727516 -0.677122 -0.110571
0.412335 0.307741 1.149548 128 128 255 0.437384 -0.897102 -0.062472
0.333174 0.286707 0.992259 128 128 255 0.404059 -0.910670 -0.086120
0.298178 0.277334 0.904089 128 128 255 0.354395 -0.886751 -0.296779
0.293649 0.293649 0.926641 128 128 255 -0.681794 0.694292 -0.230469
0.321812 0.369798 1.087119 128 128 255 -0.704166 0.703545 -0.095781
0.392932 0.459130 1.360931 128 128 255 -0.752110 0.656420 -0.058673
0.439617 0.541038 1.667284 128 128 255 -0.851251 0.517913 -0.084488
0.463214 0.653302 1.909529 128 128 255 -0.935264 0.339674 -0.099510
0.456160 0.708753 2.030002 128 128 255 -0.929746 0.185557 -0.318026
0.425218 0.727581 2.034685 128 128 255 0.259959 -0.765900 -0.588063
0.383166 0.722157 1.970675 128 128 255 0.578678 -0.751018 -0.317968
0.317211 0.705909 1.882267 128 128 255 0.705945 -0.652324 -0.275890
0.275281 0.684766 1.787645 128 128 255 0.877424 -0.380663 -0.291929
0.236225 0.660976 1.692962 128 128 255 0.946446 -0.187167 -0.263074
0.224092 0.642644 1.620439 128 128 255 0.936169 -0.064738 -0.345539
0.195766 0.645603 1.612930 128 128 255 -0.780602 0.101341 -0.616758
0.171152 0.682360 1.703277 128 128 255 -0.973019 0.072241 -0.219126
0.144477 0.725549 1.876215 128 128 255 -0.986161 -0.003327 -0.165757
0.111111 0.794619 2.062975 128 128 255 -0.952217 -0.140069 -0.271410
0.049692 0.836807 2.180390 128 128 255 -0.748910 -0.419820 -0.512723
0.010381 0.835842 2.184318 128 128 255 0.778465 -0.439722 -0.447924
-0.023531 0.798681 2.092860 128 128 255 0.986033 -0.079101 -0.146565
-0.028651 0.746418 1.962549 128 128 255 0.993838 0.009005 -0.110477
-0.051922 0.719559 1.843446 128 128 255 0.977398 -0.025867 -0.209821
-0.073927 0.680600 1.755238 128 128 255 0.945599 0.053139 -0.320964
-0.096753 0.652614 1.701152 128 128 255 0.707137 0.021823 -0.706739
-0.124430 0.640145 1.699555 128 128 255 -0.620167 -0.348162 -0.702977
-0.187009 0.652590 1.780609 128 128 255 -0.863932 -0.406328 -0.297523
-0.247656 0.694023 1.963259 128 128 255 -0.878738 -0.443783 -0.175716
-0.305441 0.730323 2.218302 128 128 255 -0.864581 -0.454714 -0.213858
-0.412733 0.779313 2.463386 128 128 255 -0.791251 -0.563354 -0.237812
-0.480071 0.791496 2.603540 128 128 255 -0.560107 -0.525749 -0.640210
-0.511326 0.755496 2.585884 128 128 255 0.769183 0.516666 -0.376049
-0.503081 0.703081 2.423826 128 128 255 0.767829 0.617925 -0.169140
-0.465291 0.587875 2.173825 128 128 255 0.736276 0.665095 -0.124689
-0.388367 0.493359 1.890605 128 128 255 0.526089 0.845600 -0.090511
-0.324279 0.427441 1.602921 128 128 255 0.650304 0.755344 -0.080990
-0.278019 0.327161 1.326710 128 128 255 0.754191 0.653161 -0.067650
-0.215649 0.264714 1.092359 128 128 255 0.531421 0.842726 -0.086048
-0.177302 0.224520 0.948596 128 128 255 0.215941 0.968503 -0.123985
-0.178109 0.229986 0.931427 128 128 255 0.128511 -0.991686 0.006672
-0.216175 0.228214 1.025941 128 128 255 0.054150 -0.998490 -0.009272
-0.268823 0.227339 1.161057 128 128 255 -0.050615 -0.998132 -0.034220
-0.283188 0.216763 1.248968 128 128 255 0.240242 -0.918588 -0.313815
-0.284737 0.195251 1.239143 128 128 255 0.859505 0.496029 -0.123317
-0.276028 0.168908 1.142299 128 128 255 0.543629 0.837600 -0.053790
-0.229690 0.144595 1.007466 128 128 255 0.249347 0.965484 -0.075279
-0.183859 0.125405 0.877971 128 128 255 0.117189 0.988590 -0.094641
-0.122077 0.111111 0.768306 128 128 255 -0.055002 0.967074 -0.248479
-0.089244 0.078389 0.678632 128 128 255 -0.283449 0.890578 -0.355708
-0.068717 0.069988 0.623512 128 128 255 -0.585481 0.639971 -0.497644
-0.072971 0.059733 0.637271 128 128 255 -0.126842 -0.956933 -0.261131
-0.110190 0.041850 0.744271 128 128 255 0.066162 -0.988251 -0.137778
-0.193139 0.013320 0.921721 128 128 255 0.158777 -0.979877 -0.120961
-0.249780 -0.021151 1.095055 128 128 255 0.303320 -0.951205 -0.056628
-0.272356 -0.027558 1.177608 128 128 255 0.162569 -0.807737 -0.566685
-0.247508 -0.038662 1.124401 128 128 255 -0.282823 0.955768 -0.080743
-0.184791 -0.028336 0.955461 128 128 255 -0.269868 0.960087 -0.073510
-0.084507 -0.024051 0.731835 128 128 255 -0.330241 0.942724 -0.047031
-0.032938 0.009774 0.510261 128 128 255 -0.525888 0.850554 0.000254
0.027666 0.044408 0.318622 128 128 255 -0.531529 0.847024 -0.005198
0.072095 0.075290 0.169046 128 128 255 -0.591353 0.806412 -0.000855
0.117232 0.116623 0.085239 128 128 255 -0.706190 0.708009 0.004377
0.088373 0.088373 0.109747 128 128 255 0.702323 -0.711556 -0.020758
0.050095 0.045804 0.267753 128 128 255 0.426149 -0.893998 -0.138435
-0.008133 -0.030924 0.531547 128 128 255 0.444301 -0.876877 -0.183530
-0.041259 -0.098608 0.819427 128 128 255 0.763251 -0.636211 -0.112621
-0.072562 -0.193942 1.034119 128 128 255 0.856035 -0.502119 -0.122804
-0.072442 -0.229034 1.117612 128 128 255 0.681505 -0.400122 -0.612742
-0.048324 -0.224020 1.075826 128 128 255 -0.932594 0.301903 -0.197797
-0.035873 -0.191331 0.956104 128 128 255 -0.985629 0.141762 -0.091867
-0.000742 -0.122385 0.803306 128 128 255 -0.967763 0.221964 -0.119024
0.030704 -0.067963 0.636506 128 128 255 -0.966701 0.237785 -0.094587
0.056786 -0.030921 0.463036 128 128 255 -0.979687 0.180512 -0.087346
0.075147 0.024239 0.306535 128 128 255 -0.994710 0.030095 -0.098218
0.084071 0.058471 0.211464 128 128 255 -0.925838 -0.313505 -0.211042
0.085669 0.058251 0.212454 128 128 255 0.858098 -0.477552 -0.188710
0.085683 0.027720 0.296231 128 128 255 0.980360 -0.177324 -0.086315
0.088889 -0.008833 0.396198 128 128 255 0.961282 -0.049735 -0.271043
0.116893 -0.021440 0.431428 128 128 255 -0.723828 0.491781 -0.483968
0.119902 0.005245 0.359964 128 128 255 -0.998771 0.046032 0.018394
0.115185 0.063169 0.201948 128 128 255 -0.857265 -0.494350 -0.143924
0.080105 0.152437 0.015072 128 128 255 0.615424 -0.695443 -0.370961
0.062511 0.209555 -0.148512 128 128 255 0.980579 0.173569 -0.091320
0.044044 0.226908 -0.267044 128 128 255 0.844268 0.534977 -0.031816
0.027913 0.247737 -0.335981 128 128 255 0.555114 0.822251 -0.125506
0.019318 0.245147 -0.339071 128 128 255 -0.971613 -0.221861 -0.082135
0.027299 0.231988 -0.243089 128 128 255 -0.909166 -0.416272 0.011652
0.060598 0.160113 -0.027547 128 128 255 -0.854430 -0.519311 -0.016264
0.141259 0.042465 0.277423 128 128 255 0.952669 0.231189 -0.197419
0.211148 -0.026578 0.588804 128 128 255 0.597113 0.797849 0.083027
0.247924 -0.085281 0.812077 128 128 255 0.690689 0.722898 -0.019169
0.278319 -0.099272 0.893448 128 128 255 0.631223 0.414094 -0.655808
0.276907 -0.076907 0.845021 128 128 255 -0.735429 -0.663201 -0.138953
0.253267 -0.036896 0.721638 128 128 255 -0.682736 -0.730314 -0.022637
0.219735 -0.017068 0.576173 128 128 255 -0.895296 -0.443730 0.039345
0.205982 0.019961 0.435352 128 128 255 -0.778232 -0.627964 -0.004045
0.172311 0.049145 0.312944 128 128 255 -0.528928 -0.847205 -0.049790
0.150771 0.065991 0.237053 128 128 255 -0.411934 -0.901890 -0.130014
0.158094 0.064950 0.254068 128 128 255 0.466767 0.882805 -0.052753
0.208101 0.045706 0.398862 128 128 255 0.397081 0.917756 -0.007125
0.275494 0.017258 0.656199 128 128 255 0.340311 0.939519 -0.038645
0.402891 -0.005916 0.949788 128 128 255 0.286515 0.956662 -0.052035
0.469207 -0.013017 1.189772 128 128 255 0.245740 0.964834 -0.093309
0.520978 -0.002955 1.323717 128 128 255 0.022943 0.979792 -0.198700
0.537692 0.017805 1.360665 128 128 255 -0.552149 0.584393 -0.594656
0.535552 0.041943 1.348263 128 128 255 -0.567218 -0.473040 -0.674164
0.529583 0.065793 1.328766 128 128 255 -0.224452 -0.572132 -0.788851
0.524825 0.088866 1.315931 128 128 255 0.056126 -0.663197 -0.746338
0.576315 0.100000 1.308654 128 128 255 0.144587 0.376961 -0.914874
0.579034 0.136799 1.319529 128 128 255 0.240522 0.433541 -0.868442
0.585610 0.163319 1.343380 128 128 255 0.153768 0.811159 -0.564249
0.632383 0.193672 1.415970 128 128 255 0.051877 0.954215 -0.294590
0.684553 0.233000 1.563557 128 128 255 -0.029944 0.978667 -0.203261
0.731769 0.261148 1.763214 128 128 255 -0.245676 0.958638 -0.143721
0.788449 0.316190 1.939788 128 128 255 -0.282322 0.871214 -0.401597
0.800937 0.384441 2.009489 128 128 255 -0.250655 -0.193051 -0.948632
0.757748 0.408906 1.935443 128 128 255 0.286105 -0.930701 -0.227904
0.695746 0.408997 1.748021 128 128 255 0.306040 -0.947608 -0.091530
0.575466 0.392036 1.515209 128 128 255 0.306456 -0.949747 -0.063754
0.484666 0.368131 1.293880 128 128 255 0.694449 -0.712933 -0.097299
0.431204 0.321450 1.107077 128 128 255 0.652795 -0.751726 -0.093630
0.372488 0.300548 0.962344 128 128 255 0.396827 -0.912577 -0.098648
0.314501 0.292031 0.883011 128 128 255 0.191391 -0.927442 -0.321280
0.311602 0.311602 0.911850 128 128 255 -0.756579 0.640001 -0.134114
0.366593 0.394852 1.076965 128 128 255 -0.669715 0.734412 -0.110092
0.421362 0.472016 1.352010 128 128 255 -0.759364 0.643911 -0.093511
0.472181 0.585859 1.653453 128 128 255 -0.880705 0.465387 -0.088172
0.474054 0.704214 1.884919 128 128 255 -0.884869 0.418441 -0.204730
0.464388 0.739273 1.993936 128 128 255 -0.947594 0.144443 -0.284961
0.452079 0.758076 1.993790 128 128 255 0.371927 -0.719903 -0.586012
0.407149 0.753802 1.935539 128 128 255 0.664089 -0.640964 -0.384903
0.361296 0.740644 1.860878 128 128 255 0.681979 -0.602364 -0.414805
0.294791 0.722590 1.780803 128 128 255 0.788434 -0.463199 -0.404744
0.252530 0.721829 1.695000 128 128 255 0.872559 -0.301184 -0.384616
0.214495 0.702041 1.623811 128 128 255 0.916751 -0.095213 -0.387946
0.204964 0.703675 1.612053 128 128 255 -0.822688 0.104376 -0.558829
0.177353 0.719134 1.694554 128 128 255 -0.968698 0.049025 -0.243353
0.147696 0.786967 1.855564 128 128 255 -0.981712 -0.024469 -0.188791
0.111111 0.878876 2.024909 128 128 255 -0.942408 -0.180061 -0.281861
0.046645 0.917172 2.120986 128 128 255 -0.626465 -0.527490 -0.573843
0.005065 0.908644 2.105945 128 128 255 0.825078 -0.453245 -0.337364
-0.030406 0.864311 2.005996 128 128 255 0.972833 -0.201735 -0.113573
-0.037273 0.786980 1.882050 128 128 255 0.991965 -0.040010 -0.120015
-0.063397 0.740163 1.781568 128 128 255 0.956922 -0.157465 -0.243936
-0.089470 0.728436 1.716631 128 128 255 0.895304 -0.122986 -0.428142
-0.117027 0.705432 1.683211 128 128 255 0.416796 -0.274244 -0.866644
-0.172103 0.697309 1.696850 128 128 255 -0.617187 -0.571429 -0.540878
-0.218718 0.714824 1.788286 128 128 255 -0.832371 -0.514820 -0.205229
-0.265161 0.740612 1.977055 128 128 255 -0.865890 -0.465283 -0.183702
-0.354237 0.805463 2.232179 128 128 255 -0.824912 -0.533229 -0.187584
-0.469140 0.879173 2.468797 128 128 255 -0.808583 -0.527340 -0.260970
-0.517591 0.887494 2.592690 128 128 255 -0.507103 -0.415292 -0.755235
-0.547125 0.819934 2.556846 128 128 255 0.835592 0.406738 -0.369256
-0.534059 0.734059 2.382777 128 128 255 0.819131 0.558051 -0.132676
-0.513426 0.653438 2.131745 128 128 255 0.829350 0.548752 -0.105117
-0.454661 0.529047 1.856670 128 128 255 0.623156 0.776017 -0.097335
-0.364345 0.456550 1.579790 128 128 255 0.524473 0.847293 -0.083796
-0.290550 0.371953 1.311071 128 128 255 0.761112 0.645463 -0.063929
-0.244232 0.281216 1.079276 128 128 255 0.685898 0.723877 -0.074472
-0.201347 0.236771 0.935090 128 128 255 0.539959 0.823937 -0.171968
-0.201469 0.218165 0.916239 128 128 255 0.014972 -0.985181 -0.170862
-0.242100 0.215944 1.006836 128 128 255 0.039354 -0.999225 0.000788
-0.275006 0.214346 1.133730 128 128 255 0.070078 -0.995575 0.062613
-0.310858 0.224177 1.209894 128 128 255 0.453452 -0.853851 -0.255576
-0.308483 0.200299 1.190253 128 128 255 0.549185 0.811309 -0.200433
-0.273695 0.172058 1.092826 128 128 255 0.518733 0.849844 -0.093175
-0.249299 0.146656 0.970335 128 128 255 0.305302 0.947282 -0.097200
-0.207364 0.126637 0.863009 128 128 255 0.112195 0.983836 -0.139570
-0.173284 0.111111 0.777474 128 128 255 -0.123389 0.922259 -0.366351
-0.122298 0.076656 0.706639 128 128 255 -0.282823 0.834227 -0.473368
-0.103876 0.066293 0.662346 128 128 255 -0.587478 0.384845 -0.711873
-0.110115 0.053850 0.680081 128 128 255 -0.164776 -0.927097 -0.336661
-0.172879 0.033248 0.785512 128 128 255 0.051448 -0.984480 -0.167787
-0.236901 0.001594 0.954870 128 128 255 0.067060 -0.985094 -0.158408
-0.271058 -0.035285 1.111926 128 128 255 0.083162 -0.973825 -0.211538
-0.287352 -0.041845 1.171576 128 128 255 -0.052772 0.735904 -0.675027
-0.273560 -0.050262 1.095389 128 128 255 -0.426658 0.896573 -0.118827
-0.198975 -0.035563 0.911982 128 128 255 -0.262957 0.962880 -0.060959
-0.090222 -0.027351 0.687448 128 128 255 -0.313616 0.948785 -0.038099
-0.034751 0.008596 0.476706 128 128 255 -0.522428 0.852683 0.000938
0.026878 0.043835 0.300865 128 128 255 -0.523385 0.852094 -0.002133
0.071413 0.074737 0.165591 128 128 255 -0.593661 0.804715 -0.000444
0.115822 0.115353 0.092319 128 128 255 -0.707562 0.706651 -0.000165
0.084041 0.084041 0.124759 128 128 255 0.643422 -0.755897 -0.120944
0.040069 0.034669 0.289075 128 128 255 0.962072 -0.221963 0.158587
-0.024941 -0.029458 0.555676 128 128 255 0.903298 -0.427966 0.029952
-0.062906 -0.128403 0.840125 128 128 255 0.806941 -0.581639 -0.102674
-0.095178 -0.228769 1.045425 128 128 255 0.777748 -0.599169 -0.190013
-0.092761 -0.264229 1.118752 128 128 255 0.656189 -0.351110 -0.667936
-0.065291 -0.257320 1.073319 128 128 255 -0.804331 0.552709 -0.218092
-0.027978 -0.223511 0.960420 128 128 255 -0.973761 0.198487 -0.111325
-0.013267 -0.177236 0.822312 128 128 255 -0.980107 0.165686 -0.109259
0.020078 -0.100667 0.670878 128 128 255 -0.974991 0.191647 -0.112534
0.048715 -0.038822 0.506993 128 128 255 -0.978547 0.178539 -0.102810
0.069838 -0.000741 0.352416 128 128 255 -0.992270 0.054685 -0.111401
0.080933 0.038655 0.253561 128 128 255 -0.952603 -0.220811 -0.209260
0.083894 0.041364 0.247032 128 128 255 0.821279 -0.511991 -0.251726
0.084869 0.012194 0.319072 128 128 255 0.977730 -0.179956 -0.107978
0.088889 -0.021322 0.401698 128 128 255 0.942561 0.051788 -0.329995
0.117164 -0.026604 0.415562 128 128 255 -0.887429 0.400343 -0.228464
0.119325 0.010742 0.325009 128 128 255 -0.475363 0.810376 0.342522
0.112764 0.078451 0.158276 128 128 255 0.650515 0.719146 0.244251
0.075826 0.172568 -0.022929 128 128 255 0.372334 -0.797558 -0.474626
0.057388 0.228672 -0.168372 128 128 255 0.902140 0.431288 -0.011592
0.039311 0.241473 -0.264190 128 128 255 0.930597 0.341032 -0.132992
0.024353 0.257011 -0.313121 128 128 255 0.582012 0.797185 -0.160491
0.017606 0.248992 -0.301895 128 128 255 -0.981170 -0.189363 -0.038031
0.028874 0.228898 -0.196587 128 128 255 -0.910561 -0.413019 0.017142
0.067675 0.147854 0.023947 128 128 255 -0.838174 -0.544366 -0.033621
0.155421 0.020657 0.327369 128 128 255 0.946104 -0.163068 -0.279814
0.231527 -0.054627 0.628832 128 128 255 0.967183 0.171437 -0.187527
0.270914 -0.113671 0.834349 128 128 255 0.868146 0.482680 -0.115510
0.299641 -0.122953 0.895990 128 128 255 0.055999 -0.099368 -0.993474
0.294203 -0.094203 0.833949 128 128 255 -0.728965 -0.669878 -0.140971
0.266989 -0.049251 0.707858 128 128 255 -0.583431 -0.806020 -0.099702
0.231613 -0.026687 0.568782 128 128 255 -0.273429 -0.952561 -0.133655
0.216782 0.012115 0.436938 128 128 255 -0.587143 -0.801192 -0.115560
0.181356 0.043272 0.320130 128 128 255 -0.525091 -0.848981 -0.059245
0.157758 0.061957 0.244838 128 128 255 -0.427646 -0.893233 -0.138759
0.165113 0.061374 0.259404 128 128 255 0.454105 0.889225 -0.055374
0.219319 0.040712 0.400481 128 128 255 0.395140 0.918566 -0.010021
0.294337 0.010025 0.651963 128 128 255 0.331112 0.942778 -0.039178
0.429303 -0.014498 0.935359 128 128 255 0.273226 0.960439 -0.053888
0.499863 -0.021231 1.161595 128 128 255 0.177021 0.981088 -0.078297
0.552481 -0.009651 1.283687 128 128 255 -0.043519 0.978634 -0.200953
0.569790 0.012722 1.317981 128 128 255 -0.500782 0.635875 -0.587265
0.571374 0.038178 1.315820 128 128 255 -0.560379 0.120818 -0.819377
0.572750 0.063531 1.316373 128 128 255 -0.228394 0.272536 -0.934644
0.576312 0.088863 1.325515 128 128 255 0.017246 0.114666 -0.993254
0.650479 0.100000 1.313828 128 128 255 0.082492 0.569761 -0.817660
0.660058 0.139880 1.339602 128 128 255 0.150118 0.565395 -0.811044
0.670327 0.169887 1.370459 128 128 255 0.092277 0.820753 -0.563781
0.697560 0.203996 1.443772 128 128 255 -0.089530 0.970148 -0.225381
0.730754 0.225322 1.587024 128 128 255 -0.048511 0.972427 -0.228106
0.802554 0.280115 1.776084 128 128 255 -0.215045 0.948289 -0.233462
0.879383 0.338516 1.934258 128 128 255 -0.382002 0.846977 -0.369736
0.883192 0.407485 1.979818 128 128 255 -0.155345 -0.575037 -0.803244
0.804352 0.429656 1.882822 128 128 255 0.202153 -0.961892 -0.184114
0.728985 0.425934 1.681975 128 128 255 0.358693 -0.928414 -0.096883
0.621700 0.405900 1.449409 128 128 255 0.293337 -0.954212 -0.058584
0.504309 0.380888 1.239233 128 128 255 0.459627 -0.886534 -0.052921
0.449207 0.334530 1.067382 128 128 255 0.674877 -0.734085 -0.075236
0.389471 0.314301 0.935353 128 128 255 0.454562 -0.881335 -0.128928
0.331191 0.307058 0.864852 128 128 255 -0.045901 -0.687219 -0.724998
0.330343 0.330343 0.900136 128 128 255 -0.734661 0.660046 -0.156883
0.390316 0.421199 1.070023 128 128 255 -0.754470 0.653746 -0.058226
0.451089 0.508726 1.346119 128 128 255 -0.782897 0.608615 -0.129072
0.483590 0.654371 1.642246 128 128 255 -0.902457 0.424922 -0.070794
0.507745 0.733870 1.862817 128 128 255 -0.887957 0.412085 -0.204250
0.495149 0.792553 1.960983 128 128 255 -0.823790 0.237780 -0.514617
0.479275 0.811451 1.957152 128 128 255 0.516856 -0.485767 -0.704905
0.431754 0.809065 1.905551 128 128 255 0.688217 -0.470536 -0.552225
0.384046 0.799909 1.844458 128 128 255 0.718739 -0.345512 -0.603353
0.315202 0.785410 1.777483 128 128 255 0.797490 -0.263291 -0.542852
0.269504 0.762954 1.698403 128 128 255 0.865032 -0.246652 -0.436901
0.227472 0.740870 1.626475 128 128 255 0.856782 -0.226571 -0.463238
0.214262 0.740156 1.608897 128 128 255 -0.783836 0.031628 -0.620162
0.183508 0.777703 1.682362 128 128 255 -0.960091 0.021678 -0.278845
0.150826 0.868923 1.830368 128 128 255 -0.975763 -0.051886 -0.212589
0.111111 0.937623 1.981428 128 128 255 -0.918311 -0.284210 -0.275553
0.043859 0.970333 2.055969 128 128 255 -0.350230 -0.799617 -0.487804
0.000392 0.953104 2.022803 128 128 255 0.896049 -0.385287 -0.220569
-0.014083 0.901559 1.915971 128 128 255 0.962580 -0.255258 -0.091008
-0.044810 0.822439 1.799876 128 128 255 0.970852 -0.197777 -0.135393
-0.073931 0.779475 1.718464 128 128 255 0.918844 -0.256107 -0.300226
-0.104327 0.751940 1.675931 128 128 255 0.679740 -0.383659 -0.625107
-0.136823 0.734779 1.661487 128 128 255 -0.033660 -0.522399 -0.852036
-0.197195 0.731443 1.688572 128 128 255 -0.692190 -0.517066 -0.503503
-0.250163 0.754316 1.788942 128 128 255 -0.855284 -0.493550 -0.157787
-0.304692 0.809081 1.982642 128 128 255 -0.858091 -0.471751 -0.202809
-0.424933 0.902327 2.236708 128 128 255 -0.812717 -0.548001 -0.197955
-0.524710 0.955657 2.463932 128 128 255 -0.759393 -0.598007 -0.256339
-0.575638 0.959175 2.571402 128 128 255 -0.244638 -0.495485 -0.833455
-0.602636 0.903808 2.518424 128 128 255 0.782011 0.489250 -0.386126
-0.584444 0.784444 2.334420 128 128 255 0.788652 0.592964 -0.162550
-0.536868 0.694554 2.084620 128 128 255 0.836059 0.542946 -0.078842
-0.496959 0.563299 1.819255 128 128 255 0.812907 0.577699 -0.073797
-0.425446 0.484797 1.553762 128 128 255 0.464299 0.878533 -0.112276
-0.324346 0.393900 1.292590 128 128 255 0.589093 0.800631 -0.109359
-0.271856 0.297165 1.063570 128 128 255 0.678838 0.725181 -0.115289
-0.224501 0.248569 0.919649 128 128 255 0.554816 0.813204 -0.175721
-0.224156 0.228266 0.900055 128 128 255 -0.154763 -0.869863 -0.468387
-0.267489 0.225690 0.987578 128 128 255 -0.323107 -0.933203 -0.157270
-0.302697 0.223343 1.107031 128 128 255 -0.163147 -0.984869 -0.058445
-0.337454 0.231304 1.172595 128 128 255 0.180031 -0.973518 -0.140896
-0.331148 0.205116 1.145000 128 128 255 0.529718 0.824359 -0.199577
-0.293354 0.175172 1.049302 128 128 255 0.423036 0.898930 -0.113869
-0.270390 0.148873 0.941051 128 128 255 0.353663 0.925394 -0.136265
-0.234328 0.128050 0.856507 128 128 255 0.073521 0.972446 -0.221232
-0.207213 0.111111 0.794209 128 128 255 -0.288162 0.818357 -0.497247
-0.183141 0.074632 0.740356 128 128 255 -0.425620 0.693505 -0.581290
-0.166736 0.062022 0.704879 128 128 255 -0.580229 0.385743 -0.717312
-0.174500 0.047172 0.724876 128 128 255 -0.162552 -0.915979 -0.366823
-0.217646 0.023733 0.827244 128 128 255 0.043821 -0.978032 -0.203797
-0.283804 -0.010974 0.987033 128 128 255 0.238496 -0.967761 -0.080984
-0.315997 -0.027665 1.126505 128 128 255 0.061128 -0.960555 -0.271289
-0.324055 -0.055933 1.162648 128 128 255 -0.293197 0.819902 -0.491727
-0.275298 -0.060929 1.063996 128 128 255 -0.402778 0.909254 -0.105015
-0.210423 -0.041396 0.867522 128 128 255 -0.299832 0.952145 -0.059333
-0.093530 -0.029261 0.643492 128 128 255 -0.297074 0.954450 -0.027787
