ply
format ascii 1.0
element vertex 695
property float x
property float y
property float z
property uchar red
property uchar green
property uchar blue
property float nx
property float ny
property float nz
end_header
1.635563 2.213521 1.590483 128 128 255 0.607192 0.792989 0.049855
1.524225 2.293115 1.591506 128 128 255 0.554461 0.830704 0.050042
1.407917 2.365379 1.591834 128 128 255 0.499383 0.864931 0.050104
1.287180 2.429973 1.591466 128 128 255 0.442204 0.895518 0.050041
1.162582 2.486598 1.590405 128 128 255 0.383177 0.922329 0.049853
1.034710 2.535004 1.588652 128 128 255 0.322568 0.945249 0.049542
0.904173 2.574990 1.586212 128 128 255 0.260645 0.964185 0.049106
0.771589 2.606405 1.583092 128 128 255 0.197690 0.979062 0.048546
0.637587 2.629149 1.579301 128 128 255 0.133982 0.989827 0.047866
0.502799 2.643173 1.574849 128 128 255 0.069807 0.996450 0.047064
0.367856 2.648482 1.569749 128 128 255 0.005451 0.998920 0.046140
0.233385 2.645129 1.564013 128 128 255 -0.058804 0.997250 0.045098
0.100000 2.633218 1.557659 128 128 255 -0.122675 0.991474 0.043942
-0.031696 2.612903 1.550703 128 128 255 -0.185884 0.981645 0.042668
-0.161119 2.584384 1.543165 128 128 255 -0.248162 0.967839 0.041281
-0.287710 2.547907 1.535064 128 128 255 -0.309243 0.950151 0.039782
-0.410935 2.503758 1.526425 128 128 255 -0.368875 0.928695 0.038174
-0.530288 2.452265 1.517269 128 128 255 -0.426815 0.903604 0.036461
-0.645298 2.393792 1.507622 128 128 255 -0.482831 0.875028 0.034644
-0.755531 2.328736 1.497511 128 128 255 -0.536706 0.843134 0.032725
-0.860590 2.257521 1.486964 128 128 255 -0.588238 0.808104 0.030709
-0.960119 2.180601 1.476009 128 128 255 -0.637243 0.770132 0.028594
-1.053803 2.098446 1.464676 128 128 255 -0.683549 0.729428 0.026389
-1.141373 2.011547 1.452996 128 128 255 -0.727006 0.686208 0.024094
-1.222603 1.920407 1.441002 128 128 255 -0.767482 0.640703 0.021713
-1.297313 1.825537 1.428726 128 128 255 -0.804864 0.593147 0.019249
-1.365366 1.727453 1.416202 128 128 255 -0.839060 0.543783 0.016707
-1.426671 1.626671 1.403465 128 128 255 -0.869996 0.492857 0.014089
-1.481181 1.523702 1.390548 128 128 255 -0.897621 0.440621 0.011399
-1.528891 1.419050 1.377488 128 128 255 -0.921904 0.387323 0.008642
-1.569838 1.313208 1.364321 128 128 255 -0.942833 0.333215 0.005821
-1.604096 1.206653 1.351082 128 128 255 -0.960419 0.278544 0.002939
-1.631777 1.099842 1.337808 128 128 255 -0.974691 0.223554 0.000004
-1.653029 0.993213 1.324535 128 128 255 -0.985700 0.168486 -0.002979
-1.668028 0.887177 1.311300 128 128 255 -0.993512 0.113568 -0.006008
-1.676980 0.782119 1.298138 128 128 255 -0.998215 0.059025 -0.009077
-1.680116 0.678395 1.285086 128 128 255 -0.999913 0.005070 -0.012179
-1.677689 0.576330 1.272180 128 128 255 -0.998725 -0.048095 -0.015307
-1.669970 0.476219 1.259455 128 128 255 -0.994788 -0.100284 -0.018458
-1.657244 0.378320 1.246945 128 128 255 -0.988248 -0.151322 -0.021622
-1.639806 0.282861 1.234686 128 128 255 -0.979267 -0.201049 -0.024792
-1.617960 0.190034 1.222711 128 128 255 -0.968017 -0.249322 -0.027961
-1.592013 0.100000 1.211052 128 128 255 -0.954676 -0.296017 -0.031120
-1.562271 0.012884 1.199741 128 128 255 -0.939429 -0.341026 -0.034260
-1.529036 -0.071219 1.188810 128 128 255 -0.922468 -0.384260 -0.037371
-1.492607 -0.152244 1.178289 128 128 255 -0.903984 -0.425649 -0.040441
-1.453268 -0.230157 1.168206 128 128 255 -0.884169 -0.465142 -0.043459
-1.411295 -0.304950 1.158588 128 128 255 -0.863209 -0.502708 -0.046413
-1.366947 -0.376640 1.149463 128 128 255 -0.841288 -0.538336 -0.049289
-1.320464 -0.445265 1.140855 128 128 255 -0.818578 -0.572030 -0.052072
-1.272070 -0.510885 1.132789 128 128 255 -0.795240 -0.603818 -0.054747
-1.221965 -0.573575 1.125284 128 128 255 -0.771421 -0.633740 -0.057300
-1.170328 -0.633424 1.118364 128 128 255 -0.747250 -0.661854 -0.059711
-1.117315 -0.690533 1.112046 128 128 255 -0.722839 -0.688233 -0.061964
-1.063056 -0.745009 1.106347 128 128 255 -0.698272 -0.712962 -0.064042
-1.007659 -0.796965 1.101284 128 128 255 -0.673617 -0.736135 -0.065926
-0.951208 -0.846512 1.096871 128 128 255 -0.648910 -0.757857 -0.067600
-0.893763 -0.893763 1.093118 128 128 255 -0.624165 -0.778235 -0.069048
-0.835360 -0.938823 1.090037 128 128 255 -0.599371 -0.797382 -0.070254
-0.776017 -0.981791 1.087636 128 128 255 -0.574491 -0.815408 -0.071208
-0.715729 -1.022754 1.085922 128 128 255 -0.549465 -0.832417 -0.071896
-0.654474 -1.061788 1.084900 128 128 255 -0.524213 -0.848511 -0.072313
-0.592215 -1.098952 1.084571 128 128 255 -0.498639 -0.863777 -0.072452
-0.528901 -1.134288 1.084937 128 128 255 -0.472629 -0.878290 -0.072312
-0.464469 -1.167819 1.085998 128 128 255 -0.446066 -0.892108 -0.071895
-0.398850 -1.199548 1.087749 128 128 255 -0.418822 -0.905272 -0.071206
-0.331967 -1.229457 1.090188 128 128 255 -0.390773 -0.917802 -0.070251
-0.263742 -1.257505 1.093305 128 128 255 -0.361796 -0.929697 -0.069044
-0.194099 -1.283629 1.097094 128 128 255 -0.331777 -0.940933 -0.067595
-0.122965 -1.307743 1.101544 128 128 255 -0.300615 -0.951465 -0.065921
-0.050272 -1.329740 1.106642 128 128 255 -0.268222 -0.961226 -0.064036
0.024035 -1.349492 1.112374 128 128 255 -0.234528 -0.970133 -0.061957
0.100000 -1.366849 1.118726 128 128 255 -0.199481 -0.978081 -0.059704
0.177650 -1.381643 1.125679 128 128 255 -0.163053 -0.984952 -0.057293
0.256993 -1.393690 1.133215 128 128 255 -0.125237 -0.990616 -0.054740
0.338019 -1.402791 1.141312 128 128 255 -0.086043 -0.994930 -0.052065
0.420691 -1.408733 1.149950 128 128 255 -0.045513 -0.997747 -0.049282
0.504950 -1.411295 1.159103 128 128 255 -0.003704 -0.998916 -0.046407
0.590709 -1.410249 1.168747 128 128 255 0.039304 -0.998282 -0.043454
0.677854 -1.405360 1.178855 128 128 255 0.083409 -0.995695 -0.040436
0.766239 -1.396396 1.189400 128 128 255 0.128488 -0.991007 -0.037366
0.855691 -1.383127 1.200353 128 128 255 0.174406 -0.984078 -0.034257
0.946007 -1.365326 1.211684 128 128 255 0.221003 -0.974777 -0.031118
1.036952 -1.342780 1.223362 128 128 255 0.268108 -0.962983 -0.027960
1.128265 -1.315286 1.235354 128 128 255 0.315535 -0.948590 -0.024790
1.219654 -1.282658 1.247628 128 128 255 0.363085 -0.931505 -0.021618
1.310800 -1.244730 1.260151 128 128 255 0.410552 -0.911650 -0.018456
1.401359 -1.201359 1.272887 128 128 255 0.457714 -0.888968 -0.015307
1.490963 -1.152428 1.285803 128 128 255 0.504348 -0.863415 -0.012177
1.579222 -1.097850 1.298862 128 128 255 0.550223 -0.834968 -0.009077
1.665729 -1.037569 1.312028 128 128 255 0.595105 -0.803626 -0.006009
1.750059 -0.971561 1.325267 128 128 255 0.638756 -0.769403 -0.002980
1.831777 -0.899842 1.338540 128 128 255 0.680942 -0.732337 0.000004
1.910437 -0.822464 1.351813 128 128 255 0.721427 -0.692484 0.002939
1.985588 -0.739518 1.365048 128 128 255 0.759980 -0.649921 0.005819
2.056776 -0.651136 1.378209 128 128 255 0.796374 -0.604743 0.008641
2.123552 -0.557492 1.391261 128 128 255 0.830389 -0.557067 0.011400
2.185471 -0.458800 1.404167 128 128 255 0.861816 -0.507026 0.014089
2.242099 -0.355317 1.416892 128 128 255 0.890451 -0.454773 0.016706
2.293015 -0.247340 1.429400 128 128 255 0.916104 -0.400479 0.019251
2.337821 -0.135204 1.441659 128 128 255 0.938598 -0.344328 0.021713
2.376135 -0.019287 1.453634 128 128 255 0.957761 -0.286553 0.024093
2.407579 0.099879 1.465280 128 128 255 0.965917 -0.257586 0.025557
2.406500 0.100000 1.506115 128 128 255 0.980101 -0.196628 0.027176
2.430708 0.222147 1.517731 128 128 255 0.985668 -0.166255 0.028590
2.447469 0.346729 1.528957 128 128 255 0.994013 -0.104862 0.030706
2.456531 0.473238 1.539763 128 128 255 0.998549 -0.042752 0.032728
2.457682 0.601141 1.550119 128 128 255 0.999203 0.019817 0.034651
2.450752 0.729882 1.559996 128 128 255 0.995917 0.082581 0.036470
2.435617 0.858888 1.569368 128 128 255 0.988655 0.145267 0.038187
2.412197 0.987569 1.578208 128 128 255 0.977403 0.207603 0.039797
2.380462 1.115327 1.586493 128 128 255 0.962168 0.269309 0.041300
2.340430 1.241556 1.594200 128 128 255 0.942977 0.330109 0.042691
2.292169 1.365650 1.601308 128 128 255 0.919879 0.389731 0.043966
2.235798 1.487003 1.607797 128 128 255 0.892945 0.447899 0.045128
2.171484 1.605021 1.613649 128 128 255 0.862265 0.504348 0.046171
2.099445 1.719119 1.618849 128 128 255 0.827953 0.558817 0.047096
2.019947 1.828728 1.623382 128 128 255 0.790138 0.611054 0.047900
1.933301 1.933301 1.627236 128 128 255 0.748973 0.660817 0.048582
1.839866 2.032317 1.630400 128 128 255 0.704626 0.707875 0.049143
1.740041 2.125283 1.632866 128 128 255 0.657283 0.752011 0.049577
1.634267 2.211737 1.634626 128 128 255 0.607148 0.793021 0.049891
1.523019 2.291257 1.635677 128 128 255 0.554437 0.830717 0.050078
1.406808 2.363459 1.636014 128 128 255 0.499382 0.864930 0.050139
1.286175 2.427999 1.635638 128 128 255 0.442227 0.895504 0.050077
1.161685 2.484583 1.634549 128 128 255 0.383226 0.922306 0.049889
1.033925 2.532959 1.632750 128 128 255 0.322644 0.945221 0.049576
0.903503 2.572927 1.630247 128 128 255 0.260750 0.964155 0.049139
0.771035 2.604336 1.627046 128 128 255 0.197824 0.979033 0.048579
0.637149 2.627086 1.623155 128 128 255 0.134145 0.989804 0.047894
0.502475 2.641129 1.618586 128 128 255 0.070000 0.996435 0.047088
0.367645 2.646468 1.613351 128 128 255 0.005673 0.998918 0.046163
0.233281 2.643157 1.607465 128 128 255 -0.058553 0.997264 0.045118
0.100000 2.631299 1.600943 128 128 255 -0.122396 0.991507 0.043956
-0.031598 2.611048 1.593803 128 128 255 -0.185578 0.981702 0.042680
-0.160932 2.582602 1.586066 128 128 255 -0.247830 0.967923 0.041291
-0.287441 2.546206 1.577752 128 128 255 -0.308887 0.950266 0.039790
-0.410592 2.502148 1.568884 128 128 255 -0.368497 0.928845 0.038180
-0.529882 2.450752 1.559486 128 128 255 -0.426417 0.903791 0.036462
-0.644840 2.392383 1.549585 128 128 255 -0.482415 0.875257 0.034642
-0.755032 2.327435 1.539206 128 128 255 -0.536277 0.843407 0.032719
-0.860061 2.256332 1.528380 128 128 255 -0.587799 0.808425 0.030700
-0.959572 2.179526 1.517135 128 128 255 -0.636795 0.770503 0.028584
-1.053250 2.097487 1.505502 128 128 255 -0.683098 0.729850 0.026375
-1.140826 2.010705 1.493514 128 128 255 -0.726556 0.686685 0.024078
-1.222074 1.919679 1.481202 128 128 255 -0.767037 0.641236 0.021695
-1.296813 1.824921 1.468602 128 128 255 -0.804430 0.593737 0.019228
-1.364908 1.726945 1.455746 128 128 255 -0.838640 0.544431 0.016684
-1.426266 1.626266 1.442671 128 128 255 -0.869595 0.493564 0.014064
-1.480839 1.523394 1.429413 128 128 255 -0.897245 0.441386 0.011373
-1.528622 1.418832 1.416008 128 128 255 -0.921557 0.388146 0.008615
-1.569651 1.313072 1.402491 128 128 255 -0.942522 0.334095 0.005793
-1.603999 1.206590 1.388902 128 128 255 -0.960147 0.279479 0.002914
-1.631778 1.099842 1.375276 128 128 255 -0.974464 0.224543 -0.000020
-1.653133 0.993266 1.361651 128 128 255 -0.985522 0.169524 -0.003004
-1.668240 0.887271 1.348065 128 128 255 -0.993387 0.114653 -0.006030
-1.677304 0.782243 1.334555 128 128 255 -0.998148 0.060153 -0.009096
-1.680555 0.678537 1.321157 128 128 255 -0.999906 0.006236 -0.012196
-1.678245 0.576479 1.307909 128 128 255 -0.998782 -0.046898 -0.015322
-1.670642 0.476362 1.294847 128 128 255 -0.994910 -0.099060 -0.018467
-1.658031 0.378445 1.282006 128 128 255 -0.988438 -0.150076 -0.021628
-1.640705 0.282956 1.269422 128 128 255 -0.979525 -0.199790 -0.024794
-1.618969 0.190087 1.257129 128 128 255 -0.968342 -0.248056 -0.027958
-1.593125 0.100000 1.245161 128 128 255 -0.955067 -0.294752 -0.031110
-1.563481 0.012821 1.233551 128 128 255 -0.939885 -0.339770 -0.034242
-1.530338 -0.071355 1.222330 128 128 255 -0.922985 -0.383020 -0.037346
-1.493991 -0.152463 1.211530 128 128 255 -0.904557 -0.424434 -0.040410
-1.454726 -0.230467 1.201180 128 128 255 -0.884792 -0.463959 -0.043421
-1.412817 -0.305358 1.191307 128 128 255 -0.863876 -0.501566 -0.046366
-1.368522 -0.377152 1.181941 128 128 255 -0.841990 -0.537242 -0.049233
-1.322082 -0.445886 1.173105 128 128 255 -0.819306 -0.570993 -0.052008
-1.273718 -0.511619 1.164824 128 128 255 -0.795984 -0.602843 -0.054675
-1.223632 -0.574424 1.157121 128 128 255 -0.772170 -0.632835 -0.057217
-1.172001 -0.634390 1.150016 128 128 255 -0.747992 -0.661024 -0.059620
-1.118982 -0.691616 1.143531 128 128 255 -0.723560 -0.687483 -0.061864
-1.064705 -0.746208 1.137681 128 128 255 -0.698962 -0.712296 -0.063933
-1.009279 -0.798276 1.132484 128 128 255 -0.674260 -0.735556 -0.065811
-0.952786 -0.847933 1.127953 128 128 255 -0.649494 -0.757367 -0.067477
-0.895288 -0.895288 1.124101 128 128 255 -0.624678 -0.777835 -0.068918
-0.836822 -0.940446 1.120938 128 128 255 -0.599802 -0.797070 -0.070120
-0.777405 -0.983505 1.118473 128 128 255 -0.574828 -0.815182 -0.071069
-0.717034 -1.024551 1.116713 128 128 255 -0.549699 -0.832276 -0.071754
-0.655689 -1.063659 1.115663 128 128 255 -0.524336 -0.848448 -0.072169
-0.593332 -1.100886 1.115325 128 128 255 -0.498644 -0.863786 -0.072309
-0.529914 -1.136275 1.115701 128 128 255 -0.472514 -0.878363 -0.072171
-0.465373 -1.169848 1.116789 128 128 255 -0.445826 -0.892239 -0.071757
-0.399640 -1.201607 1.118587 128 128 255 -0.418459 -0.905451 -0.071071
-0.332642 -1.231534 1.121089 128 128 255 -0.390287 -0.918019 -0.070123
-0.264301 -1.259588 1.124288 128 128 255 -0.361192 -0.929941 -0.068923
-0.194541 -1.285706 1.128177 128 128 255 -0.331060 -0.941194 -0.067481
-0.123291 -1.309801 1.132744 128 128 255 -0.299792 -0.951732 -0.065814
-0.050485 -1.331768 1.137976 128 128 255 -0.267300 -0.961490 -0.063939
0.023931 -1.351478 1.143860 128 128 255 -0.233516 -0.970382 -0.061871
0.100000 -1.368781 1.150379 128 128 255 -0.198391 -0.978308 -0.059627
0.177748 -1.383511 1.157516 128 128 255 -0.161894 -0.985148 -0.057225
0.257182 -1.395484 1.165251 128 128 255 -0.124019 -0.990772 -0.054682
0.338290 -1.404502 1.173562 128 128 255 -0.084780 -0.995041 -0.052015
0.421035 -1.410353 1.182427 128 128 255 -0.044214 -0.997808 -0.049242
0.505358 -1.412817 1.191822 128 128 255 -0.002381 -0.998921 -0.046374
0.591170 -1.411666 1.201721 128 128 255 0.040640 -0.998230 -0.043428
0.678356 -1.406668 1.212096 128 128 255 0.084749 -0.995582 -0.040418
0.766771 -1.397591 1.222920 128 128 255 0.129822 -0.990833 -0.037355
0.856241 -1.384206 1.234162 128 128 255 0.175722 -0.983844 -0.034250
0.946563 -1.366289 1.245793 128 128 255 0.222295 -0.974483 -0.031118
1.037502 -1.343627 1.257779 128 128 255 0.269367 -0.962631 -0.027964
1.128797 -1.316017 1.270088 128 128 255 0.316756 -0.948183 -0.024801
1.220155 -1.283277 1.282687 128 128 255 0.364260 -0.931046 -0.021634
1.311260 -1.245240 1.295541 128 128 255 0.411674 -0.911144 -0.018472
1.401765 -1.201765 1.308614 128 128 255 0.458781 -0.888417 -0.015326
1.491306 -1.152737 1.321871 128 128 255 0.505355 -0.862826 -0.012200
1.579492 -1.098069 1.335276 128 128 255 0.551166 -0.834346 -0.009099
1.665917 -1.037705 1.348791 128 128 255 0.595982 -0.802975 -0.006032
1.750157 -0.971624 1.362379 128 128 255 0.639567 -0.768730 -0.003004
1.831778 -0.899842 1.376004 128 128 255 0.681685 -0.731646 -0.000021
1.910334 -0.822411 1.389628 128 128 255 0.722101 -0.691782 0.002915
1.985377 -0.739424 1.403214 128 128 255 0.760586 -0.649211 0.005794
2.056453 -0.651012 1.416724 128 128 255 0.796914 -0.604031 0.008616
2.123114 -0.557350 1.430121 128 128 255 0.830864 -0.556359 0.011376
2.184917 -0.458652 1.443369 128 128 255 0.862227 -0.506326 0.014068
2.241430 -0.355175 1.456431 128 128 255 0.890802 -0.454086 0.016688
2.292232 -0.247215 1.469272 128 128 255 0.916397 -0.399807 0.019233
2.336925 -0.135110 1.481855 128 128 255 0.938837 -0.343677 0.021701
2.375132 -0.019235 1.494148 128 128 255 0.957949 -0.285925 0.024084
2.406472 0.099879 1.506103 128 128 255 0.966081 -0.256972 0.025549
2.405394 0.100000 1.546909 128 128 255 0.980220 -0.196038 0.027169
2.429506 0.222084 1.558822 128 128 255 0.985765 -0.165681 0.028584
2.446176 0.346593 1.570335 128 128 255 0.994070 -0.104320 0.030703
2.455156 0.473020 1.581418 128 128 255 0.998571 -0.042242 0.032727
2.456234 0.600833 1.592038 128 128 255 0.999193 0.020292 0.034654
2.449241 0.729477 1.602169 128 128 255 0.995880 0.083021 0.036478
2.434053 0.858380 1.611780 128 128 255 0.988595 0.145671 0.038199
2.410591 0.986953 1.620847 128 128 255 0.977325 0.207969 0.039813
2.378826 1.114599 1.629345 128 128 255 0.962075 0.269640 0.041317
2.338775 1.240713 1.637249 128 128 255 0.942873 0.330404 0.042711
2.290508 1.364691 1.644539 128 128 255 0.919768 0.389990 0.043990
2.234143 1.485928 1.651195 128 128 255 0.892831 0.448124 0.045154
2.169847 1.603832 1.657198 128 128 255 0.862152 0.504539 0.046200
2.097837 1.717817 1.662531 128 128 255 0.827843 0.558976 0.047127
2.018380 1.827317 1.667181 128 128 255 0.790036 0.611183 0.047934
1.931787 1.931787 1.671134 128 128 255 0.748881 0.660918 0.048617
1.838415 2.030706 1.674380 128 128 255 0.704548 0.707950 0.049180
1.738664 2.123581 1.676910 128 128 255 0.657221 0.752063 0.049616
1.632971 2.209954 1.678716 128 128 255 0.607103 0.793053 0.049927
1.521813 2.289401 1.679795 128 128 255 0.554414 0.830731 0.050116
1.405700 2.361539 1.680142 128 128 255 0.499382 0.864928 0.050178
1.285170 2.426027 1.679757 128 128 255 0.442251 0.895490 0.050113
1.160788 2.482569 1.678641 128 128 255 0.383276 0.922284 0.049926
1.033141 2.530915 1.676798 128 128 255 0.322720 0.945193 0.049612
0.902833 2.570865 1.674231 128 128 255 0.260855 0.964125 0.049173
0.770481 2.602268 1.670949 128 128 255 0.197958 0.979005 0.048610
0.636711 2.625025 1.666960 128 128 255 0.134309 0.989780 0.047924
0.502152 2.639086 1.662275 128 128 255 0.070193 0.996420 0.047115
0.367433 2.644455 1.656907 128 128 255 0.005895 0.998915 0.046188
0.233178 2.641186 1.650871 128 128 255 -0.058301 0.997278 0.045143
0.100000 2.629381 1.644183 128 128 255 -0.122116 0.991541 0.043978
-0.031501 2.609193 1.636862 128 128 255 -0.185271 0.981759 0.042697
-0.160745 2.580821 1.628928 128 128 255 -0.247497 0.968008 0.041303
-0.287172 2.544507 1.620402 128 128 255 -0.308530 0.950382 0.039798
-0.410250 2.500539 1.611308 128 128 255 -0.368117 0.928995 0.038185
-0.529477 2.449241 1.601671 128 128 255 -0.426018 0.903980 0.036464
-0.644383 2.390975 1.591516 128 128 255 -0.481999 0.875487 0.034640
-0.754533 2.326135 1.580873 128 128 255 -0.535846 0.843682 0.032715
-0.859532 2.255145 1.569771 128 128 255 -0.587358 0.808745 0.030691
-0.959025 2.178453 1.558239 128 128 255 -0.636347 0.770874 0.028574
-1.052697 2.096530 1.546309 128 128 255 -0.682646 0.730273 0.026362
-1.140279 2.009863 1.534014 128 128 255 -0.726105 0.687163 0.024060
-1.221546 1.918952 1.521388 128 128 255 -0.766592 0.641769 0.021675
-1.296315 1.824306 1.508465 128 128 255 -0.803993 0.594328 0.019207
-1.364451 1.726438 1.495281 128 128 255 -0.838219 0.545080 0.016660
-1.425861 1.625861 1.481872 128 128 255 -0.869194 0.494272 0.014039
-1.480498 1.523087 1.468275 128 128 255 -0.896868 0.442152 0.011346
-1.528354 1.418615 1.454527 128 128 255 -0.921210 0.388970 0.008588
-1.569464 1.312937 1.440665 128 128 255 -0.942209 0.334976 0.005766
-1.603903 1.206527 1.426728 128 128 255 -0.959874 0.280415 0.002886
-1.631779 1.099843 1.412753 128 128 255 -0.974236 0.225531 -0.000047
-1.653237 0.993319 1.398780 128 128 255 -0.985342 0.170562 -0.003030
-1.668453 0.887366 1.384846 128 128 255 -0.993261 0.115738 -0.006055
-1.677629 0.782368 1.370990 128 128 255 -0.998079 0.061281 -0.009118
-1.680995 0.678680 1.357250 128 128 255 -0.999898 0.007401 -0.012215
-1.678801 0.576628 1.343662 128 128 255 -0.998837 -0.045700 -0.015338
-1.671314 0.476504 1.330266 128 128 255 -0.995031 -0.097835 -0.018481
-1.658818 0.378569 1.317096 128 128 255 -0.988626 -0.148832 -0.021635
-1.641605 0.283050 1.304190 128 128 255 -0.979781 -0.198531 -0.024797
-1.619977 0.190140 1.291582 128 128 255 -0.968665 -0.246792 -0.027955
-1.594238 0.100000 1.279308 128 128 255 -0.955456 -0.293489 -0.031103
-1.564691 0.012757 1.267400 128 128 255 -0.940338 -0.338515 -0.034230
-1.531639 -0.071492 1.255892 128 128 255 -0.923499 -0.381781 -0.037326
-1.495375 -0.152683 1.244815 128 128 255 -0.905127 -0.423220 -0.040381
-1.456184 -0.230777 1.234199 128 128 255 -0.885412 -0.462779 -0.043384
-1.414339 -0.305766 1.224074 128 128 255 -0.864539 -0.500427 -0.046323
-1.370097 -0.377664 1.214467 128 128 255 -0.842688 -0.536151 -0.049182
-1.323699 -0.446507 1.205404 128 128 255 -0.820030 -0.569958 -0.051948
-1.275366 -0.512353 1.196911 128 128 255 -0.796724 -0.601871 -0.054605
-1.225299 -0.575273 1.189010 128 128 255 -0.772915 -0.631932 -0.057139
-1.173675 -0.635356 1.181724 128 128 255 -0.748730 -0.660196 -0.059532
-1.120649 -0.692699 1.175072 128 128 255 -0.724278 -0.686735 -0.061768
-1.066355 -0.747406 1.169072 128 128 255 -0.699648 -0.711631 -0.063828
-1.010898 -0.799588 1.163741 128 128 255 -0.674900 -0.734979 -0.065697
-0.954364 -0.849353 1.159093 128 128 255 -0.650076 -0.756878 -0.067357
-0.896813 -0.896813 1.155142 128 128 255 -0.625189 -0.777436 -0.068792
-0.838283 -0.942069 1.151898 128 128 255 -0.600230 -0.796760 -0.069988
-0.778793 -0.985219 1.149369 128 128 255 -0.575163 -0.814958 -0.070933
-0.718340 -1.026348 1.147563 128 128 255 -0.549931 -0.832134 -0.071616
-0.656903 -1.065529 1.146485 128 128 255 -0.524458 -0.848384 -0.072028
-0.594449 -1.102820 1.146138 128 128 255 -0.498650 -0.863794 -0.072168
-0.530926 -1.138262 1.146523 128 128 255 -0.472399 -0.878437 -0.072032
-0.466276 -1.171877 1.147638 128 128 255 -0.445588 -0.892369 -0.071621
-0.400431 -1.203666 1.149481 128 128 255 -0.418097 -0.905628 -0.070940
-0.333317 -1.233612 1.152046 128 128 255 -0.389805 -0.918234 -0.069996
-0.264859 -1.261671 1.155326 128 128 255 -0.360591 -0.930183 -0.068802
-0.194982 -1.287783 1.159314 128 128 255 -0.330346 -0.941452 -0.067370
-0.123617 -1.311860 1.163996 128 128 255 -0.298972 -0.951997 -0.065712
-0.050698 -1.333796 1.169362 128 128 255 -0.266383 -0.961751 -0.063844
0.023827 -1.353463 1.175395 128 128 255 -0.232509 -0.970630 -0.061785
0.100000 -1.370713 1.182081 128 128 255 -0.197304 -0.978532 -0.059552
0.177845 -1.385379 1.189399 128 128 255 -0.160739 -0.985341 -0.057159
0.257370 -1.397279 1.197331 128 128 255 -0.122806 -0.990926 -0.054625
0.338561 -1.406213 1.205854 128 128 255 -0.083520 -0.995150 -0.051968
0.421380 -1.411973 1.214945 128 128 255 -0.042919 -0.997866 -0.049203
0.505766 -1.414339 1.224579 128 128 255 -0.001061 -0.998925 -0.046343
0.591631 -1.413084 1.234730 128 128 255 0.041974 -0.998175 -0.043405
0.678858 -1.407977 1.245371 128 128 255 0.086085 -0.995468 -0.040401
0.767303 -1.398787 1.256471 128 128 255 0.131153 -0.990658 -0.037346
0.856791 -1.385286 1.268000 128 128 255 0.177037 -0.983608 -0.034246
0.947119 -1.367253 1.279927 128 128 255 0.223585 -0.974188 -0.031119
1.038052 -1.344474 1.292220 128 128 255 0.270625 -0.962278 -0.027971
1.129329 -1.316749 1.304843 128 128 255 0.317973 -0.947775 -0.024811
1.220657 -1.283896 1.317764 128 128 255 0.365433 -0.930586 -0.021649
1.311719 -1.245751 1.330946 128 128 255 0.412795 -0.910636 -0.018492
1.402172 -1.202172 1.344353 128 128 255 0.459846 -0.887866 -0.015347
1.491649 -1.153047 1.357949 128 128 255 0.506360 -0.862236 -0.012223
1.579762 -1.098288 1.371696 128 128 255 0.552108 -0.833722 -0.009124
1.666105 -1.037842 1.385557 128 128 255 0.596859 -0.802323 -0.006059
1.750255 -0.971688 1.399493 128 128 255 0.640377 -0.768055 -0.003032
1.831779 -0.899843 1.413466 128 128 255 0.682427 -0.730954 -0.000048
1.910232 -0.822359 1.427439 128 128 255 0.722775 -0.691077 0.002887
1.985166 -0.739330 1.441372 128 128 255 0.761193 -0.648500 0.005769
2.056131 -0.650888 1.455228 128 128 255 0.797454 -0.603319 0.008591
2.122678 -0.557208 1.468968 128 128 255 0.831339 -0.555649 0.011352
2.184365 -0.458504 1.482555 128 128 255 0.862639 -0.505625 0.014046
2.240762 -0.355033 1.495952 128 128 255 0.891153 -0.453397 0.016668
2.291450 -0.247092 1.509121 128 128 255 0.916691 -0.399135 0.019215
2.336031 -0.135016 1.522027 128 128 255 0.939076 -0.343024 0.021684
2.374129 -0.019182 1.534635 128 128 255 0.958137 -0.285296 0.024070
2.405366 0.099879 1.546897 128 128 255 0.966245 -0.256355 0.025538
2.404290 0.100000 1.587674 128 128 255 0.980338 -0.195446 0.027160
2.428304 0.222021 1.599882 128 128 255 0.985862 -0.165106 0.028580
2.444885 0.346457 1.611680 128 128 255 0.994127 -0.103776 0.030702
2.453783 0.472803 1.623037 128 128 255 0.998593 -0.041732 0.032730
2.454787 0.600525 1.633920 128 128 255 0.999183 0.020769 0.034659
2.447731 0.729073 1.644301 128 128 255 0.995843 0.083462 0.036488
2.432490 0.857872 1.654151 128 128 255 0.988535 0.146076 0.038212
2.408986 0.986337 1.663443 128 128 255 0.977246 0.208338 0.039828
2.377191 1.113871 1.672151 128 128 255 0.961981 0.269971 0.041336
2.337122 1.239870 1.680252 128 128 255 0.942768 0.330700 0.042732
2.288848 1.363732 1.687723 128 128 255 0.919656 0.390250 0.044014
2.232488 1.484854 1.694544 128 128 255 0.892716 0.448349 0.045181
2.168210 1.602643 1.700697 128 128 255 0.862038 0.504731 0.046229
2.096231 1.716516 1.706163 128 128 255 0.827733 0.559137 0.047157
2.016815 1.825908 1.710929 128 128 255 0.789934 0.611313 0.047967
1.930274 1.930274 1.714981 128 128 255 0.748789 0.661020 0.048652
1.836965 2.029095 1.718308 128 128 255 0.704468 0.708027 0.049215
1.737286 2.121880 1.720902 128 128 255 0.657158 0.752115 0.049656
1.631676 2.208171 1.722754 128 128 255 0.607060 0.793084 0.049968
1.520608 2.287545 1.723860 128 128 255 0.554390 0.830745 0.050154
1.404592 2.359620 1.724217 128 128 255 0.499381 0.864926 0.050217
1.284165 2.424055 1.723824 128 128 255 0.442274 0.895476 0.050153
1.159892 2.480556 1.722682 128 128 255 0.383326 0.922261 0.049962
1.032357 2.528872 1.720794 128 128 255 0.322797 0.945165 0.049647
0.902163 2.568804 1.718165 128 128 255 0.260961 0.964094 0.049207
0.769927 2.600201 1.714803 128 128 255 0.198092 0.978976 0.048643
0.636273 2.622964 1.710717 128 128 255 0.134474 0.989756 0.047955
0.501828 2.637044 1.705917 128 128 255 0.070387 0.996405 0.047146
0.367222 2.642444 1.700418 128 128 255 0.006118 0.998913 0.046215
0.233075 2.639216 1.694234 128 128 255 -0.058049 0.997292 0.045165
0.100000 2.627464 1.687382 128 128 255 -0.121835 0.991575 0.043997
-0.031404 2.607339 1.679880 128 128 255 -0.184962 0.981817 0.042716
-0.160558 2.579040 1.671751 128 128 255 -0.247162 0.968093 0.041318
-0.286903 2.542809 1.663015 128 128 255 -0.308171 0.950498 0.039810
-0.409909 2.498931 1.653697 128 128 255 -0.367736 0.929145 0.038192
-0.529073 2.447731 1.643822 128 128 255 -0.425616 0.904168 0.036469
-0.643926 2.389568 1.633418 128 128 255 -0.481581 0.875717 0.034639
-0.754035 2.324837 1.622512 128 128 255 -0.535414 0.843956 0.032710
-0.859004 2.253958 1.611136 128 128 255 -0.586915 0.809067 0.030682
-0.958479 2.177381 1.599319 128 128 255 -0.635897 0.771245 0.028561
-1.052145 2.095574 1.587095 128 128 255 -0.682193 0.730698 0.026347
-1.139734 2.009022 1.574497 128 128 255 -0.725652 0.687641 0.024044
-1.221018 1.918225 1.561559 128 128 255 -0.766145 0.642303 0.021654
-1.295817 1.823691 1.548317 128 128 255 -0.803556 0.594920 0.019184
-1.363995 1.725931 1.534808 128 128 255 -0.837796 0.545730 0.016636
-1.425458 1.625458 1.521067 128 128 255 -0.868791 0.494981 0.014012
-1.480157 1.522780 1.507134 128 128 255 -0.896490 0.442919 0.011320
-1.528087 1.418398 1.493046 128 128 255 -0.920862 0.389795 0.008559
-1.569279 1.312802 1.478841 128 128 255 -0.941895 0.335858 0.005737
-1.603807 1.206465 1.464559 128 128 255 -0.959600 0.281352 0.002858
-1.631781 1.099844 1.450239 128 128 255 -0.974006 0.226521 -0.000075
-1.653342 0.993373 1.435920 128 128 255 -0.985162 0.171602 -0.003057
-1.668666 0.887461 1.421642 128 128 255 -0.993134 0.116823 -0.006082
-1.677955 0.782493 1.407443 128 128 255 -0.998009 0.062408 -0.009143
-1.681436 0.678824 1.393362 128 128 255 -0.999888 0.008566 -0.012236
-1.679357 0.576777 1.379439 128 128 255 -0.998891 -0.044503 -0.015356
-1.671987 0.476647 1.365710 128 128 255 -0.995150 -0.096611 -0.018496
-1.659606 0.378694 1.352214 128 128 255 -0.988812 -0.147588 -0.021648
-1.642506 0.283145 1.338989 128 128 255 -0.980035 -0.197274 -0.024803
-1.620986 0.190193 1.326069 128 128 255 -0.968986 -0.245528 -0.027956
-1.595351 0.100000 1.313490 128 128 255 -0.955844 -0.292226 -0.031097
-1.565902 0.012694 1.301287 128 128 255 -0.940789 -0.337261 -0.034219
-1.532941 -0.071629 1.289494 128 128 255 -0.924010 -0.380545 -0.037309
-1.496760 -0.152902 1.278142 128 128 255 -0.905693 -0.422008 -0.040358
-1.457642 -0.231087 1.267263 128 128 255 -0.886029 -0.461600 -0.043351
-1.415861 -0.306174 1.256887 128 128 255 -0.865199 -0.499288 -0.046281
-1.371673 -0.378175 1.247041 128 128 255 -0.843383 -0.535061 -0.049132
-1.325317 -0.447128 1.237754 128 128 255 -0.820751 -0.568924 -0.051889
-1.277015 -0.513086 1.229050 128 128 255 -0.797461 -0.600900 -0.054539
-1.226966 -0.576123 1.220953 128 128 255 -0.773657 -0.631030 -0.057063
-1.175348 -0.636322 1.213485 128 128 255 -0.749465 -0.659370 -0.059447
-1.122317 -0.693782 1.206668 128 128 255 -0.724993 -0.685989 -0.061675
-1.068004 -0.748605 1.200518 128 128 255 -0.700330 -0.710969 -0.063727
-1.012518 -0.800899 1.195055 128 128 255 -0.675537 -0.734403 -0.065586
-0.955942 -0.850774 1.190291 128 128 255 -0.650655 -0.756391 -0.067239
-0.898338 -0.898338 1.186241 128 128 255 -0.625698 -0.777037 -0.068669
-0.839745 -0.943692 1.182915 128 128 255 -0.600656 -0.796450 -0.069860
-0.780181 -0.986933 1.180323 128 128 255 -0.575497 -0.814734 -0.070800
-0.719645 -1.028145 1.178472 128 128 255 -0.550162 -0.831993 -0.071481
-0.658118 -1.067399 1.177366 128 128 255 -0.524579 -0.848321 -0.071893
-0.595565 -1.104754 1.177010 128 128 255 -0.498655 -0.863802 -0.072031
-0.531939 -1.140249 1.177402 128 128 255 -0.472284 -0.878509 -0.071895
-0.467179 -1.173906 1.178544 128 128 255 -0.445351 -0.892498 -0.071487
-0.401221 -1.205726 1.180431 128 128 255 -0.417738 -0.905804 -0.070811
-0.333992 -1.235689 1.183059 128 128 255 -0.389323 -0.918447 -0.069875
-0.265417 -1.263754 1.186419 128 128 255 -0.359993 -0.930423 -0.068685
-0.195424 -1.289859 1.190504 128 128 255 -0.329636 -0.941709 -0.067259
-0.123943 -1.313918 1.195302 128 128 255 -0.298155 -0.952260 -0.065610
-0.050911 -1.335824 1.200799 128 128 255 -0.265468 -0.962010 -0.063752
0.023723 -1.355448 1.206981 128 128 255 -0.231506 -0.970875 -0.061702
0.100000 -1.372645 1.213830 128 128 255 -0.196222 -0.978754 -0.059476
0.177943 -1.387247 1.221328 128 128 255 -0.159587 -0.985531 -0.057094
0.257559 -1.399073 1.229455 128 128 255 -0.121596 -0.991078 -0.054570
0.338832 -1.407925 1.238188 128 128 255 -0.082264 -0.995257 -0.051920
0.421724 -1.413594 1.247503 128 128 255 -0.041627 -0.997923 -0.049164
0.506174 -1.415861 1.257375 128 128 255 0.000256 -0.998927 -0.046314
0.592091 -1.414501 1.267776 128 128 255 0.043304 -0.998120 -0.043383
0.679360 -1.409285 1.278679 128 128 255 0.087419 -0.995353 -0.040387
0.767835 -1.399983 1.290052 128 128 255 0.132480 -0.990482 -0.037337
0.857342 -1.386367 1.301866 128 128 255 0.178349 -0.983371 -0.034246
0.947675 -1.368217 1.314088 128 128 255 0.224872 -0.973891 -0.031123
1.038603 -1.345321 1.326683 128 128 255 0.271881 -0.961924 -0.027980
1.129861 -1.317482 1.339619 128 128 255 0.319190 -0.947366 -0.024824
1.221159 -1.284516 1.352858 128 128 255 0.366604 -0.930125 -0.021666
1.312180 -1.246262 1.366366 128 128 255 0.413916 -0.910127 -0.018512
1.402580 -1.202580 1.380105 128 128 255 0.460910 -0.887314 -0.015370
1.491994 -1.153357 1.394036 128 128 255 0.507365 -0.861644 -0.012248
1.580034 -1.098508 1.408123 128 128 255 0.553050 -0.833098 -0.009151
1.666294 -1.037979 1.422326 128 128 255 0.597735 -0.801670 -0.006087
1.750355 -0.971753 1.436607 128 128 255 0.641186 -0.767379 -0.003061
1.831781 -0.899844 1.450926 128 128 255 0.683169 -0.730261 -0.000077
1.910131 -0.822308 1.465244 128 128 255 0.723449 -0.690371 0.002859
1.984957 -0.739237 1.479522 128 128 255 0.761799 -0.647788 0.005742
2.055810 -0.650765 1.493721 128 128 255 0.797994 -0.602605 0.008566
2.122242 -0.557066 1.507801 128 128 255 0.831814 -0.554938 0.011327
2.183814 -0.458356 1.521725 128 128 255 0.863051 -0.504922 0.014022
2.240095 -0.354891 1.535453 128 128 255 0.891504 -0.452706 0.016648
2.290669 -0.246968 1.548949 128 128 255 0.916984 -0.398461 0.019198
2.335139 -0.134923 1.562175 128 128 255 0.939315 -0.342370 0.021668
2.373128 -0.019130 1.575095 128 128 255 0.958325 -0.284665 0.024057
2.404263 0.099879 1.587662 128 128 255 0.966409 -0.255739 0.025528
2.403187 0.100000 1.628410 128 128 255 0.980457 -0.194850 0.027149
2.427104 0.221958 1.640910 128 128 255 0.985958 -0.164529 0.028573
2.443594 0.346322 1.652991 128 128 255 0.994184 -0.103230 0.030700
2.452410 0.472585 1.664620 128 128 255 0.998614 -0.041219 0.032731
2.453341 0.600218 1.675765 128 128 255 0.999173 0.021247 0.034665
2.446222 0.728668 1.686395 128 128 255 0.995805 0.083904 0.036496
2.430928 0.857364 1.696481 128 128 255 0.988475 0.146482 0.038224
2.407382 0.985721 1.705996 128 128 255 0.977166 0.208706 0.039845
2.375556 1.113143 1.714914 128 128 255 0.961887 0.270304 0.041354
2.335469 1.239028 1.723209 128 128 255 0.942663 0.330996 0.042754
2.287189 1.362774 1.730860 128 128 255 0.919545 0.390510 0.044041
2.230835 1.483780 1.737846 128 128 255 0.892601 0.448575 0.045209
2.166574 1.601454 1.744146 128 128 255 0.861924 0.504923 0.046260
2.094625 1.715215 1.749745 128 128 255 0.827623 0.559297 0.047191
2.015250 1.824499 1.754626 128 128 255 0.789831 0.611444 0.048002
1.928762 1.928762 1.758776 128 128 255 0.748697 0.661122 0.048691
1.835516 2.027486 1.762184 128 128 255 0.704390 0.708103 0.049254
1.735910 2.120180 1.764841 128 128 255 0.657095 0.752169 0.049691
1.630381 2.206389 1.766739 128 128 255 0.607015 0.793115 0.050007
1.519404 2.285690 1.767873 128 128 255 0.554366 0.830758 0.050197
1.403485 2.357702 1.768240 128 128 255 0.499380 0.864924 0.050258
1.283161 2.422084 1.767839 128 128 255 0.442299 0.895462 0.050194
1.158996 2.478543 1.766671 128 128 255 0.383376 0.922238 0.050002
1.031573 2.526830 1.764739 128 128 255 0.322875 0.945137 0.049685
0.901494 2.566744 1.762049 128 128 255 0.261067 0.964064 0.049243
0.769373 2.598135 1.758608 128 128 255 0.198228 0.978947 0.048675
0.635835 2.620905 1.754425 128 128 255 0.134638 0.989732 0.047987
0.501505 2.635003 1.749512 128 128 255 0.070582 0.996390 0.047176
0.367010 2.640433 1.743882 128 128 255 0.006343 0.998910 0.046243
0.232971 2.637247 1.737552 128 128 255 -0.057795 0.997305 0.045190
0.100000 2.625548 1.730537 128 128 255 -0.121552 0.991609 0.044018
-0.031307 2.605487 1.722857 128 128 255 -0.184653 0.981874 0.042731
-0.160371 2.577261 1.714535 128 128 255 -0.246826 0.968178 0.041332
-0.286634 2.541112 1.705591 128 128 255 -0.307811 0.950614 0.039819
-0.409567 2.497325 1.696051 128 128 255 -0.367354 0.929296 0.038198
-0.528668 2.446222 1.685941 128 128 255 -0.425214 0.904358 0.036471
-0.643469 2.388163 1.675289 128 128 255 -0.481161 0.875947 0.034640
-0.753537 2.323539 1.664123 128 128 255 -0.534980 0.844231 0.032708
-0.858476 2.252773 1.652475 128 128 255 -0.586470 0.809390 0.030675
-0.957933 2.176310 1.640377 128 128 255 -0.635445 0.771618 0.028549
-1.051594 2.094619 1.627861 128 128 255 -0.681738 0.731123 0.026332
-1.139188 2.008183 1.614962 128 128 255 -0.725198 0.688121 0.024027
-1.220491 1.917500 1.601715 128 128 255 -0.765696 0.642839 0.021635
-1.295321 1.823078 1.588157 128 128 255 -0.803118 0.595512 0.019161
-1.363540 1.725426 1.574324 128 128 255 -0.837372 0.546381 0.016611
-1.425056 1.625056 1.560255 128 128 255 -0.868387 0.495690 0.013985
-1.479818 1.522475 1.545989 128 128 255 -0.896110 0.443687 0.011290
-1.527820 1.418183 1.531564 128 128 255 -0.920512 0.390621 0.008529
-1.569095 1.312668 1.517019 128 128 255 -0.941580 0.336740 0.005706
-1.603713 1.206404 1.502396 128 128 255 -0.959325 0.282289 0.002826
-1.631784 1.099846 1.487733 128 128 255 -0.973776 0.227511 -0.000107
-1.653449 0.993427 1.473071 128 128 255 -0.984980 0.172641 -0.003086
-1.668881 0.887557 1.458451 128 128 255 -0.993006 0.117909 -0.006109
-1.678282 0.782618 1.443912 128 128 255 -0.997937 0.063535 -0.009169
-1.681877 0.678967 1.429494 128 128 255 -0.999878 0.009731 -0.012260
-1.679915 0.576927 1.415237 128 128 255 -0.998944 -0.043306 -0.015376
-1.672660 0.476791 1.401180 128 128 255 -0.995268 -0.095388 -0.018512
-1.660394 0.378819 1.387360 128 128 255 -0.988997 -0.146344 -0.021660
-1.643407 0.283239 1.373817 128 128 255 -0.980287 -0.196017 -0.024812
-1.621996 0.190246 1.360588 128 128 255 -0.969305 -0.244265 -0.027961
-1.596465 0.100000 1.347707 128 128 255 -0.956228 -0.290965 -0.031096
-1.567114 0.012630 1.335212 128 128 255 -0.941238 -0.336008 -0.034210
-1.534243 -0.071766 1.323136 128 128 255 -0.924518 -0.379309 -0.037293
-1.498145 -0.153121 1.311512 128 128 255 -0.906257 -0.420798 -0.040334
-1.459101 -0.231397 1.300371 128 128 255 -0.886642 -0.460422 -0.043323
-1.417384 -0.306582 1.289746 128 128 255 -0.865856 -0.498152 -0.046244
-1.373249 -0.378687 1.279663 128 128 255 -0.844075 -0.533974 -0.049086
-1.326935 -0.447749 1.270153 128 128 255 -0.821469 -0.567892 -0.051835
-1.278663 -0.513820 1.261239 128 128 255 -0.798194 -0.599932 -0.054475
-1.228633 -0.576972 1.252947 128 128 255 -0.774395 -0.630131 -0.056991
-1.177021 -0.637289 1.245300 128 128 255 -0.750196 -0.658545 -0.059367
-1.123984 -0.694865 1.238318 128 128 255 -0.725705 -0.685244 -0.061584
-1.069654 -0.749803 1.232020 128 128 255 -0.701009 -0.710309 -0.063629
-1.014137 -0.802210 1.226425 128 128 255 -0.676171 -0.733829 -0.065481
-0.957519 -0.852195 1.221546 128 128 255 -0.651231 -0.755905 -0.067125
-0.899863 -0.899863 1.217398 128 128 255 -0.626204 -0.776640 -0.068548
-0.841206 -0.945315 1.213991 128 128 255 -0.601080 -0.796140 -0.069735
-0.781569 -0.988647 1.211336 128 128 255 -0.575828 -0.814511 -0.070671
-0.720950 -1.029941 1.209439 128 128 255 -0.550393 -0.831851 -0.071347
-0.659333 -1.069270 1.208305 128 128 255 -0.524701 -0.848257 -0.071759
-0.596682 -1.106688 1.207939 128 128 255 -0.498661 -0.863810 -0.071898
-0.532951 -1.142236 1.208340 128 128 255 -0.472170 -0.878581 -0.071763
-0.468083 -1.175935 1.209507 128 128 255 -0.445116 -0.892625 -0.071357
-0.402011 -1.207785 1.211438 128 128 255 -0.417380 -0.905979 -0.070685
-0.334667 -1.237766 1.214127 128 128 255 -0.388845 -0.918659 -0.069753
-0.265975 -1.265838 1.217567 128 128 255 -0.359397 -0.930662 -0.068572
-0.195865 -1.291936 1.221748 128 128 255 -0.328928 -0.941964 -0.067154
-0.124269 -1.315976 1.226659 128 128 255 -0.297342 -0.952521 -0.065511
-0.051124 -1.337851 1.232287 128 128 255 -0.264557 -0.962267 -0.063662
0.023619 -1.357434 1.238615 128 128 255 -0.230506 -0.971118 -0.061621
0.100000 -1.374577 1.245627 128 128 255 -0.195143 -0.978974 -0.059404
0.178041 -1.389116 1.253304 128 128 255 -0.158440 -0.985720 -0.057030
0.257748 -1.400867 1.261624 128 128 255 -0.120391 -0.991229 -0.054515
0.339103 -1.409636 1.270565 128 128 255 -0.081012 -0.995362 -0.051876
0.422069 -1.415214 1.280102 128 128 255 -0.040340 -0.997978 -0.049127
0.506582 -1.417384 1.290209 128 128 255 0.001568 -0.998927 -0.046285
0.592552 -1.415920 1.300858 128 128 255 0.044631 -0.998062 -0.043363
0.679863 -1.410594 1.312021 128 128 255 0.088749 -0.995235 -0.040374
0.768368 -1.401179 1.323665 128 128 255 0.133804 -0.990304 -0.037332
0.857893 -1.387448 1.335761 128 128 255 0.179659 -0.983133 -0.034247
0.948232 -1.369182 1.348274 128 128 255 0.226158 -0.973593 -0.031129
1.039153 -1.346169 1.361171 128 128 255 0.273135 -0.961568 -0.027991
1.130393 -1.318215 1.374415 128 128 255 0.320405 -0.946955 -0.024839
1.221661 -1.285136 1.387971 128 128 255 0.367773 -0.929663 -0.021684
1.312640 -1.246774 1.401802 128 128 255 0.415035 -0.909617 -0.018534
1.402988 -1.202988 1.415868 128 128 255 0.461973 -0.886760 -0.015394
1.492339 -1.153667 1.430133 128 128 255 0.508368 -0.861052 -0.012274
1.580306 -1.098728 1.444557 128 128 255 0.553991 -0.832472 -0.009180
1.666485 -1.038118 1.459100 128 128 255 0.598611 -0.801016 -0.006116
1.750455 -0.971818 1.473722 128 128 255 0.641996 -0.766702 -0.003090
1.831784 -0.899846 1.488384 128 128 255 0.683911 -0.729566 -0.000106
1.910031 -0.822257 1.503045 128 128 255 0.724123 -0.689665 0.002830
1.984749 -0.739144 1.517665 128 128 255 0.762406 -0.647074 0.005713
2.055490 -0.650642 1.532204 128 128 255 0.798534 -0.601889 0.008538
2.121808 -0.556925 1.546621 128 128 255 0.832289 -0.554226 0.011301
2.183265 -0.458209 1.560879 128 128 255 0.863463 -0.504218 0.013998
2.239430 -0.354750 1.574936 128 128 255 0.891856 -0.452014 0.016625
2.289889 -0.246844 1.588756 128 128 255 0.917278 -0.397785 0.019179
2.334247 -0.134829 1.602299 128 128 255 0.939554 -0.341716 0.021655
2.372129 -0.019077 1.615529 128 128 255 0.958513 -0.284032 0.024045
2.403160 0.099879 1.628397 128 128 255 0.966573 -0.255119 0.025519
2.402086 0.100000 1.669118 128 128 255 0.980575 -0.194255 0.027144
2.425905 0.221896 1.681908 128 128 255 0.986055 -0.163950 0.028566
2.442305 0.346186 1.694270 128 128 255 0.994240 -0.102683 0.030697
2.451039 0.472368 1.706168 128 128 255 0.998635 -0.040705 0.032732
2.451897 0.599911 1.717572 128 128 255 0.999163 0.021727 0.034668
2.444714 0.728264 1.728449 128 128 255 0.995767 0.084348 0.036505
2.429367 0.856857 1.738770 128 128 255 0.988414 0.146890 0.038235
2.405780 0.985106 1.748507 128 128 255 0.977086 0.209077 0.039860
2.373923 1.112416 1.757632 128 128 255 0.961792 0.270637 0.041377
2.333817 1.238187 1.766121 128 128 255 0.942557 0.331294 0.042778
2.285531 1.361817 1.773951 128 128 255 0.919432 0.390772 0.044067
2.229182 1.482707 1.781099 128 128 255 0.892486 0.448801 0.045240
2.164939 1.600266 1.787547 128 128 255 0.861809 0.505117 0.046293
2.093019 1.713915 1.793276 128 128 255 0.827512 0.559458 0.047227
2.013686 1.823091 1.798272 128 128 255 0.789727 0.611575 0.048039
1.927250 1.927250 1.802520 128 128 255 0.748604 0.661225 0.048728
1.834067 2.025877 1.806009 128 128 255 0.704310 0.708179 0.049294
1.734534 2.118481 1.808728 128 128 255 0.657032 0.752221 0.049734
1.629087 2.204607 1.810672 128 128 255 0.606970 0.793147 0.050049
1.518199 2.283835 1.811834 128 128 255 0.554343 0.830771 0.050238
1.402377 2.355784 1.812211 128 128 255 0.499379 0.864922 0.050300
1.282157 2.420114 1.811802 128 128 255 0.442323 0.895448 0.050235
1.158100 2.476532 1.810609 128 128 255 0.383427 0.922214 0.050044
1.030789 2.524788 1.808634 128 128 255 0.322953 0.945108 0.049725
0.900825 2.564684 1.805883 128 128 255 0.261174 0.964033 0.049283
0.768820 2.596070 1.802364 128 128 255 0.198364 0.978917 0.048714
0.635397 2.618846 1.798085 128 128 255 0.134804 0.989708 0.048022
0.501182 2.632963 1.793060 128 128 255 0.070777 0.996374 0.047208
0.366799 2.638423 1.787301 128 128 255 0.006569 0.998907 0.046271
0.232868 2.635279 1.780825 128 128 255 -0.057540 0.997319 0.045215
0.100000 2.623633 1.773649 128 128 255 -0.121268 0.991642 0.044043
-0.031210 2.603636 1.765793 128 128 255 -0.184342 0.981932 0.042751
-0.160184 2.575483 1.757279 128 128 255 -0.246489 0.968263 0.041348
-0.286366 2.539417 1.748129 128 128 255 -0.307449 0.950731 0.039832
-0.409226 2.495720 1.738370 128 128 255 -0.366970 0.929448 0.038207
-0.528264 2.444714 1.728027 128 128 255 -0.424810 0.904547 0.036475
-0.643013 2.386758 1.717129 128 128 255 -0.480741 0.876178 0.034639
-0.753039 2.322243 1.705705 128 128 255 -0.534545 0.844507 0.032703
-0.857949 2.251589 1.693788 128 128 255 -0.586024 0.809713 0.030669
-0.957388 2.175241 1.681410 128 128 255 -0.634992 0.771991 0.028538
-1.051043 2.093665 1.668605 128 128 255 -0.681282 0.731548 0.026316
-1.138644 2.007344 1.655408 128 128 255 -0.724743 0.688601 0.024008
-1.219965 1.916776 1.641855 128 128 255 -0.765245 0.643376 0.021614
-1.294825 1.822465 1.627983 128 128 255 -0.802678 0.596106 0.019138
-1.363086 1.724921 1.613831 128 128 255 -0.836947 0.547033 0.016585
-1.424654 1.624654 1.599436 128 128 255 -0.867981 0.496401 0.013959
-1.479480 1.522170 1.584839 128 128 255 -0.895730 0.444456 0.011261
-1.527555 1.417968 1.570080 128 128 255 -0.920161 0.391448 0.008500
-1.568912 1.312535 1.555199 128 128 255 -0.941264 0.337623 0.005676
-1.603620 1.206344 1.540237 128 128 255 -0.959049 0.283227 0.002796
-1.631788 1.099848 1.525234 128 128 255 -0.973544 0.228501 -0.000137
-1.653556 0.993482 1.510233 128 128 255 -0.984797 0.173681 -0.003117
-1.669097 0.887653 1.495273 128 128 255 -0.992876 0.118995 -0.006138
-1.678610 0.782744 1.480397 128 128 255 -0.997865 0.064663 -0.009198
-1.682320 0.679111 1.465645 128 128 255 -0.999865 0.010896 -0.012287
-1.680473 0.577076 1.451057 128 128 255 -0.998994 -0.042108 -0.015401
-1.673335 0.476934 1.436673 128 128 255 -0.995384 -0.094165 -0.018533
-1.661183 0.378944 1.422533 128 128 255 -0.989179 -0.145101 -0.021675
-1.644308 0.283334 1.408675 128 128 255 -0.980537 -0.194761 -0.024823
-1.623007 0.190299 1.395138 128 128 255 -0.969622 -0.243003 -0.027966
-1.597579 0.100000 1.381959 128 128 255 -0.956611 -0.289704 -0.031097
-1.568326 0.012567 1.369173 128 128 255 -0.941683 -0.334758 -0.034206
-1.535546 -0.071903 1.356816 128 128 255 -0.925024 -0.378075 -0.037281
-1.499530 -0.153341 1.344921 128 128 255 -0.906818 -0.419589 -0.040315
-1.460560 -0.231707 1.333522 128 128 255 -0.887253 -0.459247 -0.043295
-1.418906 -0.306990 1.322649 128 128 255 -0.866509 -0.497017 -0.046209
-1.374825 -0.379200 1.312332 128 128 255 -0.844764 -0.532888 -0.049043
-1.328553 -0.448370 1.302600 128 128 255 -0.822183 -0.566863 -0.051784
-1.280312 -0.514554 1.293478 128 128 255 -0.798924 -0.598965 -0.054415
-1.230300 -0.577821 1.284993 128 128 255 -0.775129 -0.629234 -0.056921
-1.178695 -0.638255 1.277167 128 128 255 -0.750923 -0.657723 -0.059288
-1.125652 -0.695948 1.270022 128 128 255 -0.726413 -0.684502 -0.061498
-1.071303 -0.751002 1.263577 128 128 255 -0.701685 -0.709649 -0.063533
-1.015757 -0.803522 1.257850 128 128 255 -0.676802 -0.733257 -0.065379
-0.959097 -0.853615 1.252857 128 128 255 -0.651804 -0.755421 -0.067016
-0.901387 -0.901387 1.248611 128 128 255 -0.626707 -0.776244 -0.068432
-0.842668 -0.946938 1.245124 128 128 255 -0.601503 -0.795832 -0.069612
-0.782957 -0.990361 1.242405 128 128 255 -0.576159 -0.814288 -0.070544
-0.722256 -1.031738 1.240463 128 128 255 -0.550623 -0.831711 -0.071218
-0.660547 -1.071140 1.239302 128 128 255 -0.524822 -0.848193 -0.071627
-0.597798 -1.108622 1.238925 128 128 255 -0.498667 -0.863818 -0.071767
-0.533963 -1.144223 1.239334 128 128 255 -0.472057 -0.878653 -0.071634
-0.468986 -1.177964 1.240527 128 128 255 -0.444881 -0.892752 -0.071231
-0.402802 -1.209844 1.242501 128 128 255 -0.417024 -0.906152 -0.070562
-0.335341 -1.239843 1.245251 128 128 255 -0.388369 -0.918869 -0.069636
-0.266533 -1.267921 1.248769 128 128 255 -0.358805 -0.930899 -0.068460
-0.196307 -1.294013 1.253045 128 128 255 -0.328224 -0.942217 -0.067049
-0.124595 -1.318035 1.258069 128 128 255 -0.296532 -0.952780 -0.065416
-0.051337 -1.339879 1.263825 128 128 255 -0.263649 -0.962521 -0.063575
0.023515 -1.359420 1.270299 128 128 255 -0.229510 -0.971359 -0.061542
0.100000 -1.376510 1.277472 128 128 255 -0.194067 -0.979192 -0.059335
0.178139 -1.390984 1.285326 128 128 255 -0.157296 -0.985907 -0.056971
0.257936 -1.402662 1.293837 128 128 255 -0.119189 -0.991377 -0.054465
0.339374 -1.411348 1.302984 128 128 255 -0.079763 -0.995465 -0.051833
0.422413 -1.416835 1.312741 128 128 255 -0.039055 -0.998030 -0.049093
0.506990 -1.418906 1.323081 128 128 255 0.002878 -0.998925 -0.046259
0.593013 -1.417338 1.333976 128 128 255 0.045955 -0.998003 -0.043344
0.680366 -1.411904 1.345396 128 128 255 0.090077 -0.995117 -0.040362
0.768901 -1.402376 1.357310 128 128 255 0.135126 -0.990125 -0.037325
0.858444 -1.388530 1.369685 128 128 255 0.180966 -0.982893 -0.034247
0.948789 -1.370147 1.382487 128 128 255 0.227441 -0.973294 -0.031136
1.039705 -1.347018 1.395682 128 128 255 0.274387 -0.961212 -0.028002
1.130926 -1.318948 1.409233 128 128 255 0.321619 -0.946543 -0.024856
1.222164 -1.285758 1.423102 128 128 255 0.368941 -0.929199 -0.021704
1.313102 -1.247286 1.437253 128 128 255 0.416152 -0.909106 -0.018557
1.403397 -1.203397 1.451645 128 128 255 0.463036 -0.886205 -0.015421
1.492684 -1.153979 1.466240 128 128 255 0.509371 -0.860459 -0.012302
1.580579 -1.098949 1.480998 128 128 255 0.554932 -0.831845 -0.009209
