ply
format ascii 1.0
element vertex 694
property float x
property float y
property float z
property uchar red
property uchar green
property uchar blue
property float nx
property float ny
property float nz
end_header
0.708107 0.003685 -0.746826 128 128 255 -0.327904 0.482589 0.812149
0.721074 0.034723 -0.758958 128 128 255 -0.357482 0.440935 0.823276
0.731865 0.066885 -0.770307 128 128 255 -0.386611 0.394155 0.833771
0.740352 0.099966 -0.780805 128 128 255 -0.409158 0.363385 0.836983
0.705556 0.100000 -0.797207 128 128 255 -0.388487 0.348015 0.853208
0.711488 0.132047 -0.807254 128 128 255 -0.408892 0.317286 0.855650
0.715210 0.164661 -0.816562 128 128 255 -0.429722 0.267964 0.862284
0.716652 0.197668 -0.825080 128 128 255 -0.445629 0.214571 0.869123
0.715693 0.230870 -0.832665 128 128 255 -0.456246 0.154795 0.876287
0.712193 0.264037 -0.839110 128 128 255 -0.461409 0.087639 0.882849
0.706043 0.296915 -0.844223 128 128 255 -0.461088 0.014428 0.887237
0.697214 0.329249 -0.847896 128 128 255 -0.455418 -0.061413 0.888157
0.685776 0.360804 -0.850142 128 128 255 -0.444589 -0.135834 0.885375
0.671867 0.391381 -0.851056 128 128 255 -0.428514 -0.206037 0.879730
0.655652 0.420806 -0.850753 128 128 255 -0.406520 -0.271496 0.872371
0.637266 0.448904 -0.849286 128 128 255 -0.377499 -0.333514 0.863865
0.616810 0.475484 -0.846621 128 128 255 -0.340599 -0.393704 0.853809
0.594371 0.500334 -0.842664 128 128 255 -0.296119 -0.452440 0.841196
0.570067 0.523251 -0.837336 128 128 255 -0.245964 -0.508294 0.825312
0.544077 0.544077 -0.830645 128 128 255 -0.193183 -0.558748 0.806524
0.516644 0.562731 -0.822715 128 128 255 -0.140695 -0.601554 0.786344
0.488050 0.579202 -0.813756 128 128 255 -0.089982 -0.635739 0.766641
0.458563 0.593519 -0.803988 128 128 255 -0.040627 -0.661719 0.748651
0.428412 0.605711 -0.793569 128 128 255 0.009020 -0.680769 0.732443
0.397781 0.615772 -0.782563 128 128 255 0.060438 -0.694315 0.717129
0.366827 0.623677 -0.770968 128 128 255 0.113613 -0.703426 0.701630
0.335711 0.629415 -0.758787 128 128 255 0.166627 -0.708698 0.685552
0.304613 0.633035 -0.746105 128 128 255 0.216439 -0.710452 0.669635
0.273726 0.634674 -0.733110 128 128 255 0.260354 -0.708925 0.655471
0.243227 0.634532 -0.720068 128 128 255 0.297238 -0.704292 0.644688
0.213257 0.632831 -0.707244 128 128 255 0.327873 -0.696622 0.638135
0.183905 0.629755 -0.694830 128 128 255 0.354355 -0.685979 0.635504
0.155224 0.625421 -0.682911 128 128 255 0.378827 -0.672702 0.635580
0.127247 0.619898 -0.671494 128 128 255 0.402137 -0.657678 0.636981
0.100000 0.613249 -0.660583 128 128 255 0.423147 -0.642361 0.638999
0.073504 0.605581 -0.650246 128 128 255 0.439150 -0.628422 0.642054
0.047757 0.597060 -0.640647 128 128 255 0.447178 -0.617145 0.647429
0.022726 0.587892 -0.632014 128 128 255 0.445430 -0.608840 0.656434
-0.001658 0.578263 -0.624565 128 128 255 0.434228 -0.602674 0.669500
-0.025478 0.568290 -0.618431 128 128 255 0.416059 -0.597173 0.685769
-0.048813 0.558000 -0.613629 128 128 255 0.394507 -0.591250 0.703412
-0.071723 0.547355 -0.610089 128 128 255 0.372368 -0.585091 0.720424
-0.094253 0.536300 -0.607728 128 128 255 0.350125 -0.580230 0.735354
-0.116451 0.524810 -0.606519 128 128 255 0.325962 -0.578676 0.747585
-0.138391 0.512906 -0.606528 128 128 255 0.297469 -0.581597 0.757138
-0.160171 0.500628 -0.607877 128 128 255 0.263918 -0.588349 0.764325
-0.181891 0.487990 -0.610674 128 128 255 0.227624 -0.596586 0.769592
-0.203622 0.474942 -0.614938 128 128 255 0.193328 -0.603517 0.773558
-0.225374 0.461364 -0.620573 128 128 255 0.165901 -0.607411 0.776871
-0.247096 0.447096 -0.627394 128 128 255 0.148052 -0.608272 0.779798
-0.268702 0.431981 -0.635203 128 128 255 0.139496 -0.607466 0.782001
-0.290115 0.415909 -0.643864 128 128 255 0.137790 -0.606724 0.782879
-0.311284 0.398815 -0.653333 128 128 255 0.140010 -0.607067 0.782220
-0.332187 0.380665 -0.663629 128 128 255 0.144309 -0.608079 0.780651
-0.352790 0.361418 -0.674762 128 128 255 0.150608 -0.607965 0.779549
-0.373006 0.341008 -0.686660 128 128 255 0.160183 -0.604375 0.780431
-0.392667 0.319349 -0.699142 128 128 255 0.174578 -0.595457 0.784190
-0.411540 0.296362 -0.711948 128 128 255 0.194555 -0.580573 0.790622
-0.429376 0.272005 -0.724817 128 128 255 0.219580 -0.560430 0.798563
-0.445957 0.246289 -0.737555 128 128 255 0.247963 -0.536635 0.806558
-0.461130 0.219272 -0.750074 128 128 255 0.277503 -0.510779 0.813693
-0.474793 0.191038 -0.762360 128 128 255 0.306288 -0.483406 0.820065
-0.486852 0.161681 -0.774400 128 128 255 0.333261 -0.453473 0.826619
-0.497172 0.131296 -0.786114 128 128 255 0.358258 -0.418723 0.834459
-0.505556 0.100000 -0.797321 128 128 255 0.381582 -0.376794 0.844051
-0.511775 0.067938 -0.807777 128 128 255 0.403428 -0.326483 0.854783
-0.515615 0.035296 -0.817244 128 128 255 0.423511 -0.268517 0.865180
-0.516936 0.002287 -0.825568 128 128 255 0.441024 -0.205431 0.873668
-0.515693 -0.030870 -0.832708 128 128 255 0.454850 -0.140417 0.879428
-0.511915 -0.063962 -0.838709 128 128 255 0.463772 -0.075695 0.882715
-0.505656 -0.096790 -0.843626 128 128 255 0.466578 -0.011445 0.884406
-0.496946 -0.129146 -0.847458 128 128 255 0.462156 0.053935 0.885157
-0.485776 -0.160804 -0.850112 128 128 255 0.449717 0.122360 0.884750
-0.472124 -0.191512 -0.851434 128 128 255 0.429147 0.194318 0.882085
-0.456004 -0.221009 -0.851289 128 128 255 0.401305 0.267942 0.875877
-0.437507 -0.249061 -0.849627 128 128 255 0.367928 0.339576 0.865631
-0.416810 -0.275484 -0.846518 128 128 255 0.330935 0.405447 0.852112
-0.394148 -0.300153 -0.842116 128 128 255 0.291438 0.463326 0.836895
-0.369765 -0.322978 -0.836594 128 128 255 0.249195 0.513111 0.821352
-0.343873 -0.343873 -0.830063 128 128 255 0.202984 0.556185 0.805888
-0.316644 -0.362731 -0.822543 128 128 255 0.151776 0.594154 0.789902
-0.288231 -0.379425 -0.813993 128 128 255 0.095945 0.627804 0.772436
-0.258802 -0.393849 -0.804386 128 128 255 0.037713 0.656827 0.753098
-0.228569 -0.405952 -0.793775 128 128 255 -0.019598 0.680342 0.732632
-0.197781 -0.415772 -0.782327 128 128 255 -0.073056 0.697640 0.712714
-0.166696 -0.423421 -0.770291 128 128 255 -0.121408 0.708585 0.695103
-0.135545 -0.429043 -0.757920 128 128 255 -0.165393 0.713582 0.680769
-0.104510 -0.432767 -0.745402 128 128 255 -0.207015 0.713374 0.669509
-0.073726 -0.434674 -0.732821 128 128 255 -0.248149 0.708890 0.660224
-0.043302 -0.434810 -0.720194 128 128 255 -0.289224 0.701179 0.651688
-0.013341 -0.433229 -0.707536 128 128 255 -0.328739 0.691364 0.643387
0.016050 -0.430039 -0.694936 128 128 255 -0.363912 0.680540 0.635951
0.044776 -0.425421 -0.682580 128 128 255 -0.392056 0.669542 0.630877
0.072768 -0.419611 -0.670729 128 128 255 -0.411820 0.658663 0.629736
0.100000 -0.412842 -0.659634 128 128 255 -0.423730 0.647585 0.633314
0.126481 -0.405293 -0.649468 128 128 255 -0.429862 0.635683 0.641191
0.152243 -0.397060 -0.640290 128 128 255 -0.432720 0.622673 0.651944
0.177319 -0.388176 -0.632080 128 128 255 -0.433757 0.609184 0.663890
0.201742 -0.378661 -0.624803 128 128 255 -0.432336 0.596836 0.675923
0.225552 -0.368568 -0.618491 128 128 255 -0.425898 0.587662 0.687942
0.248813 -0.358000 -0.613261 128 128 255 -0.411344 0.583104 0.700561
0.271620 -0.347086 -0.609294 128 128 255 -0.386957 0.583113 0.714313
0.294088 -0.335928 -0.606757 128 128 255 -0.353883 0.585967 0.728978
0.316321 -0.324553 -0.605727 128 128 255 -0.316268 0.589159 0.743549
0.338391 -0.312906 -0.606166 128 128 255 -0.279555 0.590895 0.756764
0.360327 -0.300869 -0.607945 128 128 255 -0.247825 0.591101 0.767582
0.382130 -0.288319 -0.610924 128 128 255 -0.222076 0.591247 0.775313
0.403803 -0.275166 -0.615017 128 128 255 -0.200601 0.593228 0.779641
0.425374 -0.261364 -0.620233 128 128 255 -0.180962 0.598044 0.780766
0.446892 -0.246892 -0.626635 128 128 255 -0.162092 0.605004 0.779549
0.468400 -0.231709 -0.634276 128 128 255 -0.145210 0.611954 0.777449
0.489891 -0.215727 -0.643124 128 128 255 -0.133102 0.616394 0.776107
0.511284 -0.198815 -0.653030 128 128 255 -0.128459 0.616670 0.776671
0.532428 -0.180822 -0.663765 128 128 255 -0.132465 0.612546 0.779257
0.553142 -0.161622 -0.675086 128 128 255 -0.144343 0.605035 0.783006
0.573262 -0.141139 -0.686821 128 128 255 -0.161849 0.595712 0.786723
0.592667 -0.119349 -0.698891 128 128 255 -0.182322 0.585778 0.789698
0.611272 -0.096259 -0.711286 128 128 255 -0.203778 0.575228 0.792204
0.628989 -0.071879 -0.723993 128 128 255 -0.225528 0.562622 0.795357
0.645679 -0.046214 -0.736924 128 128 255 -0.248042 0.545657 0.800458
0.661130 -0.019272 -0.749887 128 128 255 -0.272244 0.522202 0.808200
0.675077 0.008917 -0.762617 128 128 255 -0.298688 0.491246 0.818207
0.687257 0.038277 -0.774852 128 128 255 -0.327033 0.453352 0.829169
0.697459 0.068689 -0.786408 128 128 255 -0.356015 0.410422 0.839528
0.705549 0.099968 -0.797197 128 128 255 -0.379278 0.380688 0.843341
0.670488 0.100000 -0.812403 128 128 255 -0.358592 0.371291 0.856478
0.676175 0.130196 -0.822778 128 128 255 -0.379893 0.340090 0.860244
0.679776 0.160937 -0.832394 128 128 255 -0.401699 0.290710 0.868404
0.681204 0.192054 -0.841173 128 128 255 -0.418153 0.237043 0.876903
0.680363 0.223360 -0.848991 128 128 255 -0.429040 0.178092 0.885555
0.677154 0.254648 -0.855700 128 128 255 -0.434736 0.113389 0.893391
0.671510 0.285695 -0.861161 128 128 255 -0.435692 0.043611 0.899039
0.663410 0.316273 -0.865288 128 128 255 -0.431987 -0.029300 0.901404
0.652898 0.346166 -0.868064 128 128 255 -0.423140 -0.102667 0.900229
0.640063 0.375176 -0.869521 128 128 255 -0.408227 -0.174034 0.896138
0.625017 0.403119 -0.869707 128 128 255 -0.386229 -0.241982 0.890097
0.607873 0.429817 -0.868647 128 128 255 -0.356496 -0.306294 0.882663
0.588739 0.455089 -0.866327 128 128 255 -0.319167 -0.367412 0.873580
0.567723 0.478755 -0.862708 128 128 255 -0.275367 -0.425588 0.862002
0.544960 0.500644 -0.857765 128 128 255 -0.227034 -0.480269 0.847230
0.520622 0.520622 -0.851526 128 128 255 -0.176352 -0.530084 0.829404
0.494918 0.538601 -0.844086 128 128 255 -0.125049 -0.573377 0.809692
0.468079 0.554539 -0.835591 128 128 255 -0.073901 -0.608891 0.789804
0.440333 0.568428 -0.826198 128 128 255 -0.022764 -0.636229 0.771164
0.411890 0.580268 -0.816037 128 128 255 0.028899 -0.655913 0.754283
0.382936 0.590060 -0.805191 128 128 255 0.081276 -0.669131 0.738686
0.353644 0.597804 -0.793717 128 128 255 0.133690 -0.677316 0.723444
0.324181 0.603519 -0.781675 128 128 255 0.184603 -0.681700 0.707960
0.294720 0.607264 -0.769172 128 128 255 0.232156 -0.683013 0.692529
0.265432 0.609148 -0.756370 128 128 255 0.274892 -0.681396 0.678331
0.236472 0.609322 -0.743475 128 128 255 0.312265 -0.676569 0.666893
0.207968 0.607950 -0.730692 128 128 255 0.344669 -0.668189 0.659338
0.180013 0.605183 -0.718186 128 128 255 0.373042 -0.656281 0.655847
0.152672 0.601145 -0.706069 128 128 255 0.398225 -0.641555 0.655609
0.125991 0.595937 -0.694410 128 128 255 0.420401 -0.625439 0.657334
0.100000 0.589655 -0.683272 128 128 255 0.438861 -0.609717 0.660035
0.074718 0.582417 -0.672750 128 128 255 0.452189 -0.595908 0.663640
0.050142 0.574363 -0.662987 128 128 255 0.458811 -0.584710 0.669034
0.026248 0.565651 -0.654154 128 128 255 0.457626 -0.575827 0.677497
0.002985 0.556419 -0.646411 128 128 255 0.448499 -0.568293 0.689849
-0.019711 0.546767 -0.639870 128 128 255 0.432416 -0.561168 0.705767
-0.041906 0.536743 -0.634576 128 128 255 0.411171 -0.554272 0.723685
-0.063662 0.526353 -0.630522 128 128 255 0.386631 -0.548519 0.741379
-0.085031 0.515587 -0.627690 128 128 255 0.359906 -0.545525 0.756882
-0.106073 0.504440 -0.626084 128 128 255 0.330998 -0.546651 0.769164
-0.126852 0.492920 -0.625747 128 128 255 0.299289 -0.552060 0.778239
-0.147447 0.481035 -0.626749 128 128 255 0.264642 -0.560425 0.784786
-0.167929 0.468773 -0.629140 128 128 255 0.228385 -0.569501 0.789626
-0.188351 0.456084 -0.632923 128 128 255 0.193419 -0.577254 0.793326
-0.208728 0.442877 -0.638029 128 128 255 0.163268 -0.582807 0.796040
-0.229039 0.429039 -0.644337 128 128 255 0.140682 -0.586602 0.797563
-0.249238 0.414455 -0.651716 128 128 255 0.126657 -0.589782 0.797568
-0.269270 0.399029 -0.660056 128 128 255 0.120368 -0.593262 0.795959
-0.289087 0.382688 -0.669295 128 128 255 0.119896 -0.597071 0.793178
-0.308644 0.365376 -0.679393 128 128 255 0.123300 -0.600247 0.790253
-0.327881 0.347037 -0.690305 128 128 255 0.129506 -0.601250 0.788496
-0.346704 0.327607 -0.701937 128 128 255 0.138606 -0.598608 0.788959
-0.364972 0.307019 -0.714136 128 128 255 0.151493 -0.591440 0.791990
-0.382505 0.285216 -0.726704 128 128 255 0.169109 -0.579632 0.797138
-0.399110 0.262171 -0.739438 128 128 255 0.191692 -0.563663 0.803454
-0.414605 0.237888 -0.752174 128 128 255 0.218397 -0.544225 0.810013
-0.428837 0.212408 -0.764797 128 128 255 0.247421 -0.521794 0.816403
-0.441675 0.185793 -0.777233 128 128 255 0.276615 -0.496293 0.822908
-0.452996 0.158122 -0.789411 128 128 255 0.304255 -0.466998 0.830266
-0.462656 0.129488 -0.801223 128 128 255 0.329561 -0.432736 0.839124
-0.470488 0.100000 -0.812513 128 128 255 0.352680 -0.392338 0.849522
-0.476314 0.069797 -0.823093 128 128 255 0.374183 -0.345169 0.860724
-0.479971 0.039043 -0.832783 128 128 255 0.394378 -0.291501 0.871489
-0.481341 0.007925 -0.841452 128 128 255 0.412803 -0.232549 0.880633
-0.480363 -0.023360 -0.849029 128 128 255 0.428128 -0.170071 0.887571
-0.477020 -0.054612 -0.855496 128 128 255 0.438510 -0.105650 0.892495
-0.471322 -0.085634 -0.860846 128 128 255 0.442189 -0.040075 0.896026
-0.463280 -0.116223 -0.865047 128 128 255 0.438034 0.026796 0.898559
-0.452898 -0.146166 -0.868026 128 128 255 0.425804 0.095514 0.899760
-0.440187 -0.175239 -0.869687 128 128 255 0.406105 0.166178 0.898589
-0.425187 -0.203217 -0.869947 128 128 255 0.380079 0.237731 0.893881
-0.407990 -0.229893 -0.868777 128 128 255 0.348959 0.307930 0.885103
-0.388739 -0.255089 -0.866215 128 128 255 0.313630 0.374023 0.872779
-0.367615 -0.278667 -0.862355 128 128 255 0.274371 0.433734 0.858251
-0.344814 -0.300512 -0.857302 128 128 255 0.230946 0.485967 0.842912
-0.320524 -0.320524 -0.851138 128 128 255 0.183045 0.530872 0.827447
-0.294918 -0.338601 -0.843904 128 128 255 0.130891 0.569354 0.811606
-0.268166 -0.354647 -0.835616 128 128 255 0.075639 0.602377 0.794620
-0.240448 -0.368587 -0.826299 128 128 255 0.019286 0.630445 0.775994
-0.211966 -0.380385 -0.816029 128 128 255 -0.035929 0.653461 0.756107
-0.182936 -0.390060 -0.804946 128 128 255 -0.088311 0.670930 0.736243
-0.153581 -0.397680 -0.793234 128 128 255 -0.137217 0.682336 0.718046
-0.124101 -0.403339 -0.781087 128 128 255 -0.183018 0.687499 0.702744
-0.094671 -0.407134 -0.768663 128 128 255 -0.226570 0.686818 0.690613
-0.065432 -0.409148 -0.756072 128 128 255 -0.268481 0.681325 0.680966
-0.036508 -0.409457 -0.743388 128 128 255 -0.308566 0.672518 0.672686
-0.008009 -0.408142 -0.730686 128 128 255 -0.345755 0.661979 0.665009
0.019965 -0.405320 -0.718079 128 128 255 -0.378489 0.650899 0.658086
0.047327 -0.401145 -0.705731 128 128 255 -0.405354 0.639750 0.653000
0.074016 -0.395798 -0.693841 128 128 255 -0.425617 0.628294 0.651227
0.100000 -0.389458 -0.682603 128 128 255 -0.439424 0.615933 0.653861
0.125275 -0.382278 -0.672168 128 128 255 -0.447607 0.602276 0.660993
0.149858 -0.374363 -0.662623 128 128 255 -0.451203 0.587681 0.671600
0.173774 -0.365788 -0.654008 128 128 255 -0.450856 0.573440 0.684029
0.197056 -0.356612 -0.646355 128 128 255 -0.446360 0.561423 0.696827
0.219747 -0.346902 -0.639719 128 128 255 -0.436613 0.553287 0.709396
0.241906 -0.336743 -0.634202 128 128 255 -0.420113 0.549683 0.722048
0.263612 -0.326223 -0.629926 128 128 255 -0.395864 0.549913 0.735450
0.284951 -0.315407 -0.627003 128 128 255 -0.364294 0.552290 0.749844
0.306009 -0.304316 -0.625491 128 128 255 -0.327666 0.555056 0.764558
0.326852 -0.292920 -0.625381 128 128 255 -0.289558 0.557364 0.778140
0.347523 -0.281151 -0.626609 128 128 255 -0.253529 0.559688 0.788969
0.368045 -0.268932 -0.629098 128 128 255 -0.221776 0.563311 0.795925
0.388438 -0.256192 -0.632795 128 128 255 -0.194654 0.569278 0.798770
0.408728 -0.242877 -0.637686 128 128 255 -0.171318 0.577527 0.798193
0.428941 -0.228941 -0.643780 128 128 255 -0.150920 0.586742 0.795586
0.449091 -0.214323 -0.651075 128 128 255 -0.133578 0.594956 0.792581
0.469161 -0.198941 -0.659519 128 128 255 -0.120543 0.600479 0.790502
0.489087 -0.182688 -0.668991 128 128 255 -0.113574 0.602557 0.789953
0.508760 -0.165452 -0.679324 128 128 255 -0.114002 0.601440 0.790743
0.528052 -0.147136 -0.690341 128 128 255 -0.122026 0.597944 0.792195
0.546828 -0.127670 -0.701896 128 128 255 -0.136534 0.592826 0.793672
0.564972 -0.107019 -0.713886 128 128 255 -0.155498 0.586281 0.795044
0.582375 -0.085166 -0.726247 128 128 255 -0.176752 0.577747 0.796848
0.598923 -0.062110 -0.738905 128 128 255 -0.198810 0.566067 0.800027
0.614470 -0.037852 -0.751749 128 128 255 -0.221269 0.549898 0.805389
0.628837 -0.012408 -0.764612 128 128 255 -0.244649 0.528175 0.813129
0.641813 0.014185 -0.777290 128 128 255 -0.269752 0.500440 0.822674
0.653192 0.041857 -0.789578 128 128 255 -0.296910 0.466948 0.832949
0.662795 0.070505 -0.801317 128 128 255 -0.325474 0.428509 0.842880
0.670482 0.099970 -0.812392 128 128 255 -0.349136 0.400225 0.847304
0.635193 0.100000 -0.826410 128 128 255 -0.328367 0.396277 0.857403
0.640612 0.128332 -0.837090 128 128 255 -0.350295 0.364716 0.862714
0.644067 0.157184 -0.846988 128 128 255 -0.372964 0.315106 0.872700
0.645459 0.186392 -0.855995 128 128 255 -0.390208 0.260873 0.882996
0.644712 0.215782 -0.864012 128 128 255 -0.401848 0.202499 0.893035
0.641771 0.245167 -0.870952 128 128 255 -0.408567 0.140202 0.901896
0.636603 0.274353 -0.876738 128 128 255 -0.411059 0.074073 0.908594
0.629200 0.303141 -0.881308 128 128 255 -0.409237 0.004474 0.912417
0.619580 0.331332 -0.884611 128 128 255 -0.402019 -0.067527 0.913138
0.607785 0.358729 -0.886611 128 128 255 -0.387821 -0.140065 0.911030
0.593881 0.385143 -0.887286 128 128 255 -0.365467 -0.210905 0.906616
0.577959 0.410390 -0.886630 128 128 255 -0.334891 -0.278163 0.900263
0.560130 0.434304 -0.884648 128 128 255 -0.297245 -0.340826 0.891899
0.540525 0.456730 -0.881364 128 128 255 -0.254377 -0.398772 0.881064
0.519295 0.477535 -0.876813 128 128 255 -0.208064 -0.452230 0.867293
0.496604 0.496604 -0.871044 128 128 255 -0.159462 -0.501086 0.850579
0.472626 0.513843 -0.864122 128 128 255 -0.109037 -0.544514 0.831634
0.447547 0.529185 -0.856123 128 128 255 -0.056942 -0.581192 0.811772
0.421556 0.542584 -0.847133 128 128 255 -0.003502 -0.609979 0.792410
0.394843 0.554018 -0.837251 128 128 255 0.050498 -0.630587 0.774474
0.367597 0.563491 -0.826587 128 128 255 0.103869 -0.643831 0.758085
0.340001 0.571028 -0.815256 128 128 255 0.155331 -0.651327 0.742728
0.312231 0.576678 -0.803383 128 128 255 0.203892 -0.654803 0.727778
0.284449 0.580507 -0.791098 128 128 255 0.249027 -0.655369 0.713076
0.256806 0.582600 -0.778535 128 128 255 0.290615 -0.653183 0.699210
0.229435 0.583059 -0.765833 128 128 255 0.328673 -0.647705 0.687352
0.202451 0.581994 -0.753131 128 128 255 0.363086 -0.638357 0.678726
0.175950 0.579529 -0.740567 128 128 255 0.393495 -0.625207 0.674001
0.150007 0.575788 -0.728280 128 128 255 0.419381 -0.609293 0.672965
0.124679 0.570904 -0.716404 128 128 255 0.440276 -0.592403 0.674697
0.100000 0.565004 -0.705069 128 128 255 0.455932 -0.576426 0.678129
0.075986 0.558213 -0.694399 128 128 255 0.466289 -0.562588 0.682693
0.052635 0.550650 -0.684512 128 128 255 0.471268 -0.551030 0.688675
0.029927 0.542422 -0.675516 128 128 255 0.470555 -0.541028 0.697042
0.007830 0.533626 -0.667509 128 128 255 0.463582 -0.531716 0.708781
-0.013702 0.524342 -0.660579 128 128 255 0.449789 -0.522859 0.724092
-0.034724 0.514638 -0.654802 128 128 255 0.429079 -0.515236 0.741905
-0.055296 0.504560 -0.650241 128 128 255 0.402193 -0.510367 0.760109
-0.075483 0.494141 -0.646947 128 128 255 0.370690 -0.509694 0.776403
-0.095348 0.483393 -0.644955 128 128 255 0.336408 -0.513669 0.789287
-0.114954 0.472310 -0.644287 128 128 255 0.300796 -0.521375 0.798555
-0.134354 0.460873 -0.644950 128 128 255 0.264640 -0.530948 0.805022
-0.153595 0.449043 -0.646938 128 128 255 0.228451 -0.540535 0.809711
-0.172711 0.436771 -0.650228 128 128 255 0.193187 -0.549134 0.813099
-0.191725 0.423993 -0.654784 128 128 255 0.160704 -0.556827 0.814934
-0.210640 0.410640 -0.660557 128 128 255 0.133476 -0.564336 0.814683
-0.229446 0.396634 -0.667483 128 128 255 0.113674 -0.572235 0.812173
-0.248112 0.381896 -0.675485 128 128 255 0.102223 -0.580336 0.807936
-0.266592 0.366344 -0.684478 128 128 255 0.098469 -0.587633 0.803114
-0.284817 0.349903 -0.694361 128 128 255 0.100637 -0.592780 0.799052
-0.302705 0.332502 -0.705026 128 128 255 0.106807 -0.594717 0.796809
-0.320154 0.314079 -0.716357 128 128 255 0.115854 -0.593021 0.796809
-0.337049 0.294587 -0.728230 128 128 255 0.127812 -0.587840 0.798817
-0.353259 0.273990 -0.740514 128 128 255 0.143532 -0.579504 0.802230
-0.368645 0.252272 -0.753074 128 128 255 0.163827 -0.568099 0.806488
-0.383059 0.229435 -0.765774 128 128 255 0.188651 -0.553265 0.811362
-0.396347 0.205502 -0.778473 128 128 255 0.216748 -0.534322 0.817019
-0.408356 0.180516 -0.791032 128 128 255 0.245997 -0.510616 0.823867
-0.418930 0.154542 -0.803315 128 128 255 0.274252 -0.481798 0.832260
-0.427923 0.127667 -0.815185 128 128 255 0.300184 -0.447862 0.842205
-0.435193 0.100000 -0.826514 128 128 255 0.323646 -0.408929 0.853247
-0.440612 0.071668 -0.837177 128 128 255 0.345322 -0.365006 0.864594
-0.444067 0.042816 -0.847056 128 128 255 0.365872 -0.315904 0.875410
-0.445459 0.013608 -0.856045 128 128 255 0.385077 -0.261438 0.885080
-0.444712 -0.015782 -0.864043 128 128 255 0.401509 -0.201777 0.893351
-0.441771 -0.045167 -0.870964 128 128 255 0.412949 -0.137708 0.900283
-0.436603 -0.074353 -0.876731 128 128 255 0.417313 -0.070537 0.906021
-0.429200 -0.103141 -0.881282 128 128 255 0.413530 -0.001678 0.910489
-0.419580 -0.131332 -0.884565 128 128 255 0.401848 0.067822 0.913191
-0.407785 -0.158729 -0.886546 128 128 255 0.383414 0.137423 0.913295
-0.393881 -0.185143 -0.887203 128 128 255 0.359444 0.206791 0.909966
-0.377959 -0.210390 -0.886527 128 128 255 0.330531 0.275220 0.902775
-0.360130 -0.234304 -0.884528 128 128 255 0.296518 0.341248 0.891979
-0.340525 -0.256730 -0.881225 128 128 255 0.256968 0.402795 0.878478
-0.319295 -0.277535 -0.876656 128 128 255 0.211840 0.457821 0.863437
-0.296604 -0.296604 -0.870870 128 128 255 0.161928 0.505103 0.847732
-0.272626 -0.313843 -0.863931 128 128 255 0.108793 0.544613 0.831601
-0.247547 -0.329185 -0.855914 128 128 255 0.054300 0.577292 0.814730
-0.221556 -0.342584 -0.846909 128 128 255 0.000039 0.604356 0.796715
-0.194843 -0.354018 -0.837012 128 128 255 -0.053018 0.626537 0.777586
-0.167596 -0.363491 -0.826332 128 128 255 -0.104502 0.643733 0.758082
-0.140001 -0.371028 -0.814987 128 128 255 -0.154330 0.655245 0.739484
-0.112231 -0.376678 -0.803100 128 128 255 -0.202330 0.660440 0.723106
-0.084449 -0.380507 -0.790803 128 128 255 -0.248033 0.659395 0.709703
-0.056806 -0.382600 -0.778228 128 128 255 -0.290713 0.653164 0.699187
-0.029435 -0.383059 -0.765515 128 128 255 -0.329618 0.643523 0.690819
-0.002451 -0.381994 -0.752802 128 128 255 -0.364215 0.632315 0.683758
0.024050 -0.379529 -0.740229 128 128 255 -0.394278 0.620734 0.677668
0.049993 -0.375788 -0.727933 128 128 255 -0.419763 0.608969 0.673020
0.075321 -0.370904 -0.716049 128 128 255 -0.440576 0.596433 0.670940
0.100000 -0.365004 -0.704708 128 128 255 -0.456414 0.582457 0.672630
0.124014 -0.358213 -0.694033 128 128 255 -0.466778 0.567014 0.678685
0.147365 -0.350650 -0.684141 128 128 255 -0.471179 0.551092 0.688686
0.170073 -0.342422 -0.675141 128 128 255 -0.469394 0.536482 0.701325
0.192170 -0.333626 -0.667132 128 128 255 -0.461584 0.525057 0.715021
0.213702 -0.324342 -0.660200 128 128 255 -0.448121 0.517913 0.728666
0.234724 -0.314638 -0.654423 128 128 255 -0.429245 0.514885 0.742052
0.255296 -0.304560 -0.649863 128 128 255 -0.404887 0.514793 0.755681
0.275483 -0.294141 -0.646570 128 128 255 -0.374884 0.516241 0.770037
0.295348 -0.283393 -0.644581 128 128 255 -0.339577 0.518462 0.784783
0.314954 -0.272310 -0.643916 128 128 255 -0.300437 0.521686 0.798487
0.334354 -0.260873 -0.644585 128 128 255 -0.260157 0.526823 0.809182
0.353595 -0.249043 -0.646578 128 128 255 -0.221956 0.534640 0.815411
0.372711 -0.236771 -0.649875 128 128 255 -0.188404 0.544999 0.816995
0.391725 -0.223993 -0.654439 128 128 255 -0.160596 0.556677 0.815058
0.410640 -0.210640 -0.660221 128 128 255 -0.138237 0.567901 0.811406
0.429446 -0.196634 -0.667157 128 128 255 -0.120480 0.577174 0.807685
0.448112 -0.181896 -0.675170 128 128 255 -0.106930 0.583847 0.804791
0.466592 -0.166344 -0.684174 128 128 255 -0.098137 0.588131 0.802789
0.484817 -0.149903 -0.694070 128 128 255 -0.095303 0.590626 0.801298
0.502705 -0.132502 -0.704749 128 128 255 -0.099456 0.591694 0.800004
0.520154 -0.114079 -0.716094 128 128 255 -0.110643 0.591076 0.798991
0.537049 -0.094587 -0.727982 128 128 255 -0.127648 0.587934 0.798774
0.553259 -0.073990 -0.740282 128 128 255 -0.148382 0.581265 0.800071
0.568645 -0.052272 -0.752859 128 128 255 -0.170760 0.570337 0.803465
0.583059 -0.029435 -0.765575 128 128 255 -0.193544 0.554884 0.809101
0.596347 -0.005502 -0.778292 128 128 255 -0.216683 0.534974 0.816609
0.608356 0.019484 -0.790870 128 128 255 -0.240963 0.510696 0.825304
0.618930 0.045458 -0.803171 128 128 255 -0.267149 0.481909 0.834503
0.627923 0.072333 -0.815061 128 128 255 -0.295132 0.448236 0.843790
0.635187 0.099972 -0.826399 128 128 255 -0.318891 0.421667 0.848826
0.599705 0.100000 -0.839235 128 128 255 -0.297980 0.422669 0.855897
0.604826 0.126457 -0.850178 128 128 255 -0.320277 0.391000 0.862868
0.608109 0.153404 -0.860322 128 128 255 -0.343684 0.341416 0.874824
0.609449 0.180689 -0.869532 128 128 255 -0.361950 0.286773 0.886992
0.608788 0.208146 -0.877732 128 128 255 -0.374825 0.228927 0.898387
0.606102 0.235610 -0.884890 128 128 255 -0.383032 0.168833 0.908175
0.601388 0.262911 -0.890985 128 128 255 -0.387251 0.106133 0.915845
0.594647 0.289877 -0.895974 128 128 255 -0.387145 0.039764 0.921161
0.585875 0.316326 -0.899780 128 128 255 -0.381165 -0.030773 0.923995
0.575078 0.342064 -0.902301 128 128 255 -0.367328 -0.104345 0.924220
0.562284 0.366900 -0.903454 128 128 255 -0.344476 -0.178112 0.921744
0.547565 0.390652 -0.903201 128 128 255 -0.313147 -0.248619 0.916585
0.531035 0.413165 -0.901569 128 128 255 -0.275374 -0.313340 0.908838
0.512838 0.434309 -0.898635 128 128 255 -0.233532 -0.371579 0.898550
0.493133 0.453979 -0.894487 128 128 255 -0.189100 -0.424130 0.885638
0.472076 0.472076 -0.889197 128 128 255 -0.142203 -0.472034 0.870036
0.449814 0.488507 -0.882797 128 128 255 -0.092185 -0.515378 0.851990
0.426490 0.503182 -0.875300 128 128 255 -0.038750 -0.552988 0.832288
0.402261 0.516027 -0.866730 128 128 255 0.017182 -0.583155 0.812179
0.377300 0.527004 -0.857158 128 128 255 0.073509 -0.604838 0.792949
0.351793 0.536118 -0.846712 128 128 255 0.127791 -0.618406 0.775399
0.325931 0.543414 -0.835564 128 128 255 0.178313 -0.625487 0.759585
0.299890 0.548959 -0.823896 128 128 255 0.224677 -0.628097 0.744993
0.273824 0.552827 -0.811858 128 128 255 0.267632 -0.627644 0.731051
0.247865 0.555081 -0.799558 128 128 255 0.308264 -0.624415 0.717690
0.222126 0.555781 -0.787074 128 128 255 0.347047 -0.617833 0.705579
0.196713 0.554998 -0.774484 128 128 255 0.383323 -0.607287 0.695893
0.171721 0.552826 -0.761903 128 128 255 0.415522 -0.592959 0.689740
0.147233 0.549394 -0.749492 128 128 255 0.441937 -0.576112 0.687595
0.123314 0.544851 -0.737445 128 128 255 0.461575 -0.558684 0.689072
0.100000 0.539349 -0.725952 128 128 255 0.474603 -0.542452 0.693179
0.077307 0.533016 -0.715163 128 128 255 0.482145 -0.528268 0.698906
0.055231 0.525951 -0.705172 128 128 255 0.485461 -0.515841 0.705858
0.033760 0.518222 -0.696031 128 128 255 0.484984 -0.504262 0.714500
0.012875 0.509891 -0.687782 128 128 255 0.479797 -0.492962 0.725798
-0.007454 0.501025 -0.680492 128 128 255 0.467992 -0.482470 0.740409
-0.027272 0.491702 -0.674264 128 128 255 0.447780 -0.474416 0.757906
-0.046637 0.482003 -0.669224 128 128 255 0.418781 -0.470739 0.776548
-0.065620 0.471990 -0.665486 128 128 255 0.382728 -0.472525 0.793877
-0.084290 0.461689 -0.663115 128 128 255 0.342996 -0.479244 0.807885
-0.102701 0.451088 -0.662112 128 128 255 0.303022 -0.488986 0.817967
-0.120890 0.440141 -0.662430 128 128 255 0.264708 -0.499554 0.824849
-0.138884 0.428795 -0.664009 128 128 255 0.228050 -0.509667 0.829598
-0.156702 0.417000 -0.666807 128 128 255 0.192286 -0.519435 0.832594
-0.174368 0.404717 -0.670816 128 128 255 0.157596 -0.529847 0.833322
-0.191910 0.391910 -0.676052 128 128 255 0.125948 -0.541715 0.831073
-0.209344 0.378534 -0.682514 128 128 255 0.100439 -0.554797 0.825901
-0.226657 0.364522 -0.690157 128 128 255 0.083618 -0.567684 0.818989
-0.243805 0.349789 -0.698871 128 128 255 0.076138 -0.578445 0.812160
-0.260706 0.334245 -0.708504 128 128 255 0.076594 -0.585565 0.806999
-0.277257 0.317810 -0.718891 128 128 255 0.082482 -0.588589 0.804214
-0.293357 0.300425 -0.729896 128 128 255 0.091606 -0.588139 0.803555
-0.308909 0.282058 -0.741422 128 128 255 0.103092 -0.585289 0.804244
-0.323827 0.262692 -0.753399 128 128 255 0.117463 -0.580678 0.805615
-0.338013 0.242319 -0.765755 128 128 255 0.135838 -0.573904 0.807578
-0.351349 0.220939 -0.778379 128 128 255 0.158806 -0.563595 0.810643
-0.363685 0.198559 -0.791108 128 128 255 0.185694 -0.548078 0.815554
-0.374848 0.175209 -0.803744 128 128 255 0.214641 -0.526249 0.822794
-0.384667 0.150941 -0.816091 128 128 255 0.243353 -0.498129 0.832254
-0.392992 0.125837 -0.827990 128 128 255 0.270112 -0.464743 0.843240
-0.399705 0.100000 -0.839333 128 128 255 0.294409 -0.427387 0.854789
-0.404719 0.073549 -0.850056 128 128 255 0.316788 -0.386670 0.866101
-0.407958 0.046611 -0.860098 128 128 255 0.337977 -0.342005 0.876815
-0.409344 0.019328 -0.869373 128 128 255 0.357872 -0.291942 0.886960
-0.408788 -0.008146 -0.877756 128 128 255 0.375060 -0.235185 0.896671
-0.406205 -0.035637 -0.885096 128 128 255 0.387216 -0.171687 0.905863
-0.401532 -0.062958 -0.891255 128 128 255 0.392174 -0.103094 0.914096
-0.394747 -0.089915 -0.896141 128 128 255 0.388986 -0.032190 0.920681
-0.385875 -0.116326 -0.899726 128 128 255 0.378246 0.038402 0.924908
-0.374982 -0.142016 -0.902027 128 128 255 0.361394 0.107370 0.926211
-0.362153 -0.166824 -0.903077 128 128 255 0.339513 0.174885 0.924200
-0.347475 -0.190594 -0.902888 128 128 255 0.312518 0.241647 0.918662
-0.331035 -0.213165 -0.901440 128 128 255 0.279359 0.307524 0.909609
-0.312921 -0.234377 -0.898688 128 128 255 0.239088 0.370817 0.897403
-0.293246 -0.254080 -0.894606 128 128 255 0.192015 0.428724 0.882794
-0.272152 -0.272152 -0.889215 128 128 255 0.140053 0.478693 0.866740
-0.249814 -0.288507 -0.882596 128 128 255 0.085994 0.519681 0.850022
-0.226423 -0.303098 -0.874881 128 128 255 0.032238 0.552424 0.832940
-0.202172 -0.315904 -0.866212 128 128 255 -0.020121 0.578642 0.815333
-0.177241 -0.326914 -0.856707 128 128 255 -0.071350 0.599822 0.796946
-0.151793 -0.336118 -0.846448 128 128 255 -0.122280 0.616355 0.777917
-0.125979 -0.343509 -0.835488 128 128 255 -0.173249 0.627582 0.759029
-0.099951 -0.349098 -0.823889 128 128 255 -0.223465 0.632608 0.741533
-0.073862 -0.352927 -0.811755 128 128 255 -0.271177 0.631257 0.726621
-0.047865 -0.355081 -0.799242 128 128 255 -0.314477 0.624529 0.714890
-0.022098 -0.355678 -0.786546 128 128 255 -0.352192 0.614282 0.706130
0.003319 -0.354850 -0.773862 128 128 255 -0.384339 0.602408 0.699563
0.028296 -0.352720 -0.761355 128 128 255 -0.411911 0.590022 0.694408
0.052767 -0.349394 -0.749137 128 128 255 -0.436093 0.577138 0.690460
0.076681 -0.344958 -0.737285 128 128 255 -0.457352 0.563061 0.688325
0.100000 -0.339500 -0.725869 128 128 255 -0.474952 0.547256 0.689152
0.122699 -0.333123 -0.714991 128 128 255 -0.487197 0.530120 0.693983
0.144769 -0.325951 -0.704795 128 128 255 -0.492261 0.513156 0.703101
0.166223 -0.318116 -0.695449 128 128 255 -0.489152 0.498430 0.715750
0.187094 -0.309743 -0.687114 128 128 255 -0.478271 0.487611 0.730405
0.207427 -0.300922 -0.679906 128 128 255 -0.461209 0.481166 0.745496
0.227272 -0.291702 -0.673880 128 128 255 -0.439791 0.478247 0.760173
0.246676 -0.282103 -0.669043 128 128 255 -0.414910 0.477418 0.774546
0.265682 -0.272128 -0.665390 128 128 255 -0.386012 0.477766 0.789135
0.284339 -0.261785 -0.662939 128 128 255 -0.351772 0.479587 0.803898
0.302701 -0.251088 -0.661738 128 128 255 -0.311661 0.484141 0.817603
0.320832 -0.240051 -0.661861 128 128 255 -0.267337 0.492619 0.828165
0.338795 -0.228673 -0.663362 128 128 255 -0.222718 0.505054 0.833857
0.356634 -0.216917 -0.666251 128 128 255 -0.182407 0.519974 0.834478
0.374368 -0.204717 -0.670470 128 128 255 -0.149514 0.535052 0.831483
0.391986 -0.191986 -0.675917 128 128 255 -0.124530 0.548257 0.826986
0.409456 -0.178636 -0.682474 128 128 255 -0.105934 0.558733 0.822554
0.426741 -0.164589 -0.690044 128 128 255 -0.091849 0.566921 0.818636
0.443805 -0.149789 -0.698568 128 128 255 -0.081555 0.573917 0.814842
0.460616 -0.134187 -0.708012 128 128 255 -0.075889 0.580492 0.810722
0.477126 -0.117734 -0.718331 128 128 255 -0.076452 0.586384 0.806417
0.493261 -0.100377 -0.729434 128 128 255 -0.084300 0.590285 0.802781
0.508909 -0.082058 -0.741176 128 128 255 -0.099047 0.590476 0.800954
0.523927 -0.062730 -0.753372 128 128 255 -0.118886 0.585691 0.801768
0.538158 -0.042366 -0.765828 128 128 255 -0.141406 0.575685 0.805351
0.551453 -0.020966 -0.778386 128 128 255 -0.164696 0.561200 0.811129
0.563685 0.001441 -0.790931 128 128 255 -0.188084 0.543319 0.818186
0.574742 0.024808 -0.803384 128 128 255 -0.212098 0.522587 0.825783
0.584517 0.049075 -0.815667 128 128 255 -0.237663 0.498450 0.833705
0.592885 0.074169 -0.827669 128 128 255 -0.265046 0.469439 0.842246
0.599699 0.099974 -0.839223 128 128 255 -0.288680 0.444664 0.847902
0.564059 0.100000 -0.850886 128 128 255 -0.267612 0.450316 0.851821
0.568847 0.124571 -0.862031 128 128 255 -0.290084 0.418871 0.860464
0.571934 0.149602 -0.872379 128 128 255 -0.314132 0.369937 0.874338
0.573212 0.174949 -0.881775 128 128 255 -0.333619 0.315452 0.888363
0.572635 0.200462 -0.890157 128 128 255 -0.348142 0.258308 0.901151
0.570200 0.225990 -0.897534 128 128 255 -0.358217 0.200097 0.911944
0.565923 0.251387 -0.903926 128 128 255 -0.364269 0.140220 0.920677
0.559806 0.276503 -0.909304 128 128 255 -0.365664 0.076559 0.927593
0.551834 0.301169 -0.913569 128 128 255 -0.360576 0.007335 0.932701
0.541987 0.325204 -0.916573 128 128 255 -0.346886 -0.067048 0.935508
0.530271 0.348417 -0.918182 128 128 255 -0.323607 -0.143437 0.935256
0.516740 0.370634 -0.918338 128 128 255 -0.291793 -0.217156 0.931504
0.501505 0.391710 -0.917080 128 128 255 -0.254100 -0.284313 0.924446
0.484715 0.411536 -0.914523 128 128 255 -0.213176 -0.343522 0.914630
0.466529 0.430024 -0.910795 128 128 255 -0.170133 -0.395837 0.902423
0.447091 0.447091 -0.905979 128 128 255 -0.124243 -0.443159 0.887791
0.426524 0.462642 -0.900087 128 128 255 -0.074036 -0.486410 0.870588
0.404945 0.476576 -0.893081 128 128 255 -0.019007 -0.524712 0.851068
0.382482 0.488803 -0.884940 128 128 255 0.039300 -0.556042 0.830224
0.359293 0.499276 -0.875709 128 128 255 0.097665 -0.578784 0.809612
0.335557 0.507998 -0.865532 128 128 255 0.152718 -0.592870 0.790684
0.311464 0.515022 -0.854622 128 128 255 0.202516 -0.599783 0.774111
0.287186 0.520427 -0.843198 128 128 255 0.247218 -0.601608 0.759573
0.262868 0.524285 -0.831426 128 128 255 0.288576 -0.599936 0.746191
0.238625 0.526644 -0.819395 128 128 255 0.328570 -0.595258 0.733287
0.214558 0.527537 -0.807136 128 128 255 0.367959 -0.587173 0.720995
0.190762 0.527003 -0.794683 128 128 255 0.405611 -0.575235 0.710341
0.167332 0.525118 -0.782130 128 128 255 0.439030 -0.559787 0.702774
0.144355 0.522007 -0.769656 128 128 255 0.465674 -0.542194 0.699409
0.121897 0.517827 -0.757500 128 128 255 0.484224 -0.524321 0.700439
0.100000 0.512738 -0.745894 128 128 255 0.495156 -0.507663 0.705052
0.078677 0.506868 -0.735007 128 128 255 0.500424 -0.492703 0.711913
0.057927 0.500300 -0.724917 128 128 255 0.502262 -0.478903 0.719990
0.037743 0.493077 -0.715635 128 128 255 0.501676 -0.465419 0.729182
0.018116 0.485236 -0.707161 128 128 255 0.497542 -0.452130 0.740291
-0.000973 0.476835 -0.699546 128 128 255 0.486999 -0.440254 0.754326
-0.019557 0.467959 -0.692916 128 128 255 0.467005 -0.432048 0.771519
-0.037694 0.458706 -0.687444 128 128 255 0.436221 -0.429635 0.790648
-0.055455 0.449157 -0.683290 128 128 255 0.396280 -0.433672 0.809254
-0.072907 0.439349 -0.680541 128 128 255 0.351535 -0.442775 0.824847
-0.090100 0.429263 -0.679186 128 128 255 0.307009 -0.454285 0.836284
-0.107060 0.418845 -0.679139 128 128 255 0.265720 -0.465885 0.844005
-0.123798 0.408031 -0.680301 128 128 255 0.227539 -0.476922 0.848983
-0.140324 0.396775 -0.682616 128 128 255 0.190497 -0.488489 0.851522
-0.156665 0.385056 -0.686101 128 128 255 0.153384 -0.502270 0.850998
-0.172861 0.372861 -0.690818 128 128 255 0.117576 -0.518959 0.846674
-0.188944 0.360166 -0.696816 128 128 255 0.086737 -0.537396 0.838858
-0.204916 0.346916 -0.704071 128 128 255 0.064692 -0.555031 0.829310
-0.220734 0.333027 -0.712462 128 128 255 0.053245 -0.569248 0.820440
-0.236312 0.318403 -0.721796 128 128 255 0.051463 -0.578570 0.814008
-0.251540 0.302962 -0.731871 128 128 255 0.056574 -0.583171 0.810377
-0.266317 0.286648 -0.742534 128 128 255 0.065623 -0.584544 0.808704
-0.280567 0.269439 -0.753709 128 128 255 0.076913 -0.584444 0.807781
-0.294230 0.251331 -0.765376 128 128 255 0.090488 -0.583644 0.806952
-0.307240 0.232320 -0.777507 128 128 255 0.107472 -0.581262 0.806588
-0.319502 0.212405 -0.790010 128 128 255 0.128836 -0.575127 0.807855
-0.330872 0.191585 -0.802707 128 128 255 0.154427 -0.562880 0.811984
-0.341173 0.169875 -0.815358 128 128 255 0.182789 -0.543165 0.819488
-0.350228 0.147321 -0.827723 128 128 255 0.211755 -0.516289 0.829823
-0.357890 0.123997 -0.839627 128 128 255 0.239424 -0.484027 0.841662
-0.364059 0.100000 -0.850978 128 128 255 0.264929 -0.448525 0.853603
-0.368677 0.075438 -0.861755 128 128 255 0.288473 -0.410852 0.864860
-0.371694 0.050423 -0.871939 128 128 255 0.310593 -0.370146 0.875513
-0.373044 0.025077 -0.881460 128 128 255 0.331162 -0.324024 0.886194
-0.372635 -0.000462 -0.890172 128 128 255 0.348867 -0.270066 0.897416
-0.370365 -0.026034 -0.897879 128 128 255 0.361529 -0.207486 0.908981
-0.366152 -0.051462 -0.904397 128 128 255 0.367115 -0.138036 0.919877
-0.359965 -0.076564 -0.909611 128 128 255 0.364828 -0.065460 0.928771
-0.351834 -0.101169 -0.913506 128 128 255 0.355415 0.006327 0.934687
-0.341835 -0.125126 -0.916141 128 128 255 0.340331 0.075234 0.937291
-0.330062 -0.148296 -0.917586 128 128 255 0.320355 0.141649 0.936647
-0.316597 -0.170541 -0.917867 128 128 255 0.294792 0.207309 0.932803
-0.301505 -0.191710 -0.916940 128 128 255 0.261961 0.273216 0.925597
-0.284848 -0.211644 -0.914715 128 128 255 0.220676 0.338142 0.914857
-0.266708 -0.230186 -0.911114 128 128 255 0.171679 0.398785 0.900831
-0.247212 -0.247212 -0.906136 128 128 255 0.117859 0.451510 0.884448
-0.226524 -0.262642 -0.899876 128 128 255 0.062954 0.494319 0.866998
-0.204837 -0.276443 -0.892505 128 128 255 0.009684 0.527601 0.849437
-0.182340 -0.288608 -0.884202 128 128 255 -0.041361 0.553329 0.831935
-0.159200 -0.299133 -0.875101 128 128 255 -0.091447 0.573542 0.814056
-0.135557 -0.307997 -0.865259 128 128 255 -0.142297 0.589144 0.795400
-0.111542 -0.315174 -0.854685 128 128 255 -0.194469 0.599710 0.776228
-0.087284 -0.320648 -0.843392 128 128 255 -0.246581 0.604307 0.757635
-0.062929 -0.324444 -0.831463 128 128 255 -0.295850 0.602625 0.741159
-0.038625 -0.326644 -0.819071 128 128 255 -0.339526 0.595548 0.728042
-0.014514 -0.327372 -0.806451 128 128 255 -0.376216 0.584827 0.718637
0.009288 -0.326767 -0.793843 128 128 255 -0.406410 0.572216 0.712320
0.032695 -0.324950 -0.781426 128 128 255 -0.432016 0.558693 0.707972
0.055645 -0.322007 -0.769295 128 128 255 -0.455119 0.544229 0.704756
0.078094 -0.317997 -0.757481 128 128 255 -0.476585 0.528247 0.702725
0.100000 -0.312979 -0.746014 128 128 255 -0.495338 0.510520 0.702858
0.121332 -0.307039 -0.734977 128 128 255 -0.508807 0.491856 0.706535
0.142073 -0.300300 -0.724534 128 128 255 -0.514224 0.474088 0.714713
0.162231 -0.292908 -0.714899 128 128 255 -0.510029 0.459308 0.727260
0.181834 -0.285000 -0.706279 128 128 255 -0.496707 0.448844 0.742846
0.200928 -0.276670 -0.698808 128 128 255 -0.476629 0.442605 0.759557
0.219557 -0.267958 -0.692528 128 128 255 -0.452772 0.439295 0.775898
0.237755 -0.258865 -0.687407 128 128 255 -0.426851 0.437487 0.791456
0.255553 -0.249378 -0.683401 128 128 255 -0.398160 0.436862 0.806611
0.272984 -0.239501 -0.680511 128 128 255 -0.364196 0.438672 0.821540
0.290100 -0.229263 -0.678811 128 128 255 -0.322844 0.444991 0.835317
0.306967 -0.218702 -0.678420 128 128 255 -0.274745 0.457108 0.845912
0.323656 -0.207836 -0.679443 128 128 255 -0.224130 0.474254 0.851381
0.340216 -0.196643 -0.681911 128 128 255 -0.177162 0.493695 0.851398
0.356665 -0.185056 -0.685755 128 128 255 -0.138756 0.512187 0.847591
0.372982 -0.172982 -0.690831 128 128 255 -0.110325 0.527626 0.842282
0.389123 -0.160327 -0.696985 128 128 255 -0.090049 0.539834 0.836941
0.405049 -0.147024 -0.704107 128 128 255 -0.074970 0.550202 0.831660
0.420734 -0.133027 -0.712161 128 128 255 -0.063253 0.560486 0.825745
0.436169 -0.118310 -0.721159 128 128 255 -0.055221 0.571436 0.818786
0.451331 -0.102841 -0.731103 128 128 255 -0.052718 0.582113 0.811397
0.466165 -0.086571 -0.741926 128 128 255 -0.057500 0.590317 0.805121
0.480567 -0.069439 -0.753468 128 128 255 -0.069897 0.593730 0.801623
0.494389 -0.051392 -0.765501 128 128 255 -0.088501 0.591026 0.801783
0.507470 -0.032395 -0.777794 128 128 255 -0.110861 0.582426 0.805288
0.519667 -0.012449 -0.790170 128 128 255 -0.134646 0.569454 0.810921
0.530872 0.008415 -0.802536 128 128 255 -0.158624 0.553929 0.817313
0.541004 0.030152 -0.814856 128 128 255 -0.182899 0.536686 0.823721
0.549988 0.052704 -0.827096 128 128 255 -0.208272 0.516825 0.830371
0.557719 0.076012 -0.839164 128 128 255 -0.235194 0.492050 0.838195
0.564054 0.099976 -0.850875 128 128 255 -0.258603 0.468950 0.844518
0.528288 0.100000 -0.861372 128 128 255 -0.237430 0.479305 0.844922
0.532712 0.122677 -0.872650 128 128 255 -0.259990 0.448413 0.855179
0.535579 0.145781 -0.883155 128 128 255 -0.284651 0.401016 0.870724
0.536788 0.169180 -0.892720 128 128 255 -0.305521 0.347577 0.886480
0.536298 0.192738 -0.901292 128 128 255 -0.321997 0.291507 0.900745
0.534113 0.216320 -0.908899 128 128 255 -0.334191 0.234813 0.912787
0.530255 0.239798 -0.915580 128 128 255 -0.342097 0.176876 0.922868
0.524727 0.263037 -0.921311 128 128 255 -0.344785 0.115046 0.931605
0.517507 0.285886 -0.925980 128 128 255 -0.340341 0.046755 0.939139
0.508565 0.308174 -0.929413 128 128 255 -0.326757 -0.028204 0.944687
0.497892 0.329723 -0.931452 128 128 255 -0.303307 -0.106672 0.946903
0.485534 0.350368 -0.932023 128 128 255 -0.271389 -0.183273 0.944859
0.471592 0.369977 -0.931171 128 128 255 -0.233933 -0.253115 0.938727
0.456208 0.388451 -0.929027 128 128 255 -0.193595 -0.314091 0.929445
0.439532 0.405716 -0.925736 128 128 255 -0.151134 -0.367152 0.917801
0.421694 0.421694 -0.921386 128 128 255 -0.105288 -0.414625 0.903881
0.402802 0.436296 -0.915972 128 128 255 -0.054206 -0.458023 0.887286
0.382952 0.449417 -0.909434 128 128 255 0.002549 -0.496831 0.867844
0.362257 0.460966 -0.901721 128 128 255 0.062879 -0.529006 0.846285
0.340857 0.470887 -0.892866 128 128 255 0.122819 -0.552631 0.824327
0.318922 0.479184 -0.883017 128 128 255 0.178504 -0.567290 0.803939
0.296631 0.485910 -0.872405 128 128 255 0.227987 -0.574203 0.786329
0.274146 0.491139 -0.861267 128 128 255 0.271852 -0.575334 0.771419
0.251603 0.494938 -0.849776 128 128 255 0.312442 -0.572327 0.758170
0.229105 0.497345 -0.838007 128 128 255 0.352191 -0.565904 0.745462
0.206745 0.498378 -0.825968 128 128 255 0.391937 -0.556010 0.732965
0.184610 0.498060 -0.813668 128 128 255 0.430231 -0.542519 0.721509
0.162792 0.496454 -0.801192 128 128 255 0.464089 -0.525966 0.712728
0.141377 0.493676 -0.788727 128 128 255 0.490594 -0.507683 0.708220
0.120433 0.489878 -0.776532 128 128 255 0.508321 -0.489278 0.708673
0.100000 0.485216 -0.764862 128 128 255 0.517919 -0.471872 0.713510
0.080095 0.479811 -0.753895 128 128 255 0.521718 -0.455648 0.721246
0.060719 0.473734 -0.743702 128 128 255 0.522415 -0.440031 0.730380
0.041870 0.467018 -0.734271 128 128 255 0.521330 -0.424467 0.740299
0.023546 0.459689 -0.725585 128 128 255 0.517290 -0.409349 0.751562
0.005736 0.451799 -0.717688 128 128 255 0.507003 -0.396423 0.765374
-0.011588 0.443431 -0.710716 128 128 255 0.486759 -0.388255 0.782511
-0.028476 0.434690 -0.704870 128 128 255 0.454553 -0.386924 0.802292
-0.044995 0.425663 -0.700333 128 128 255 0.411663 -0.392687 0.822393
-0.061208 0.416389 -0.697207 128 128 255 0.362743 -0.403608 0.839951
-0.077161 0.406852 -0.695475 128 128 255 0.313725 -0.416649 0.853218
-0.092871 0.396996 -0.695035 128 128 255 0.268557 -0.429586 0.862168
-0.108344 0.386760 -0.695768 128 128 255 0.227399 -0.442314 0.867553
-0.123585 0.376105 -0.697618 128 128 255 0.187784 -0.456597 0.869630
-0.138623 0.365018 -0.700612 128 128 255 0.147662 -0.474449 0.867810
-0.153499 0.353499 -0.704842 128 128 255 0.107880 -0.496239 0.861457
-0.168254 0.341537 -0.710383 128 128 255 0.072281 -0.519948 0.851134
-0.182896 0.329085 -0.717223 128 128 255 0.045440 -0.542162 0.839044
-0.197388 0.316065 -0.725238 128 128 255 0.029979 -0.559895 0.828021
-0.211644 0.302384 -0.734218 128 128 255 0.025464 -0.571882 0.819940
-0.225562 0.287963 -0.743942 128 128 255 0.029158 -0.578843 0.814918
-0.239047 0.272753 -0.754254 128 128 255 0.037743 -0.582830 0.811717
-0.252034 0.256736 -0.765091 128 128 255 0.048927 -0.585933 0.808881
-0.264482 0.239912 -0.776455 128 128 255 0.062199 -0.588875 0.805827
-0.276344 0.222281 -0.788345 128 128 255 0.078409 -0.590408 0.803287
-0.287536 0.203840 -0.800681 128 128 255 0.098617 -0.587910 0.802893
-0.297929 0.184582 -0.813276 128 128 255 0.123037 -0.578734 0.806182
-0.307353 0.164518 -0.825871 128 128 255 0.150677 -0.561478 0.813658
-0.315638 0.143685 -0.838206 128 128 255 0.179711 -0.536628 0.824460
-0.322645 0.122150 -0.850095 128 128 255 0.208275 -0.506308 0.836823
-0.328288 0.100000 -0.861458 128 128 255 0.235213 -0.473068 0.849048
-0.332523 0.077332 -0.872292 128 128 255 0.260269 -0.438209 0.860368
-0.335313 0.054247 -0.882601 128 128 255 0.283587 -0.400747 0.871195
-0.336601 0.030849 -0.892323 128 128 255 0.304901 -0.357834 0.882604
-0.336297 0.007262 -0.901300 128 128 255 0.323051 -0.306414 0.895404
-0.334296 -0.016369 -0.909311 128 128 255 0.336181 -0.245174 0.909325
-0.330509 -0.039881 -0.916147 128 128 255 0.342560 -0.175719 0.922917
-0.324903 -0.063105 -0.921683 128 128 255 0.341530 -0.102206 0.934297
-0.317507 -0.085886 -0.925908 128 128 255 0.333775 -0.029321 0.942197
-0.308396 -0.108088 -0.928897 128 128 255 0.320491 0.040184 0.946399
-0.297661 -0.129589 -0.930741 128 128 255 0.302042 0.106595 0.947316
-0.285375 -0.150266 -0.931469 128 128 255 0.277286 0.172144 0.945240
-0.271592 -0.169977 -0.931022 128 128 255 0.244247 0.238562 0.939910
-0.256355 -0.188570 -0.929283 128 128 255 0.201785 0.305056 0.930711
-0.239730 -0.205894 -0.926151 128 128 255 0.151091 0.368139 0.917412
-0.221828 -0.221828 -0.921607 128 128 255 0.095741 0.423487 0.900829
-0.202802 -0.236296 -0.915752 128 128 255 0.040023 0.468348 0.882637
-0.182834 -0.249270 -0.908773 128 128 255 -0.013258 0.502675 0.864374
-0.162100 -0.260750 -0.900868 128 128 255 -0.063915 0.528416 0.846576
-0.140754 -0.270729 -0.892174 128 128 255 -0.113824 0.547901 0.828763
-0.118922 -0.279184 -0.882735 128 128 255 -0.165152 0.562463 0.810161
-0.096717 -0.286078 -0.872533 128 128 255 -0.218450 0.572048 0.790595
-0.074255 -0.291383 -0.861558 128 128 255 -0.271879 0.575918 0.770973
-0.051670 -0.295114 -0.849879 128 128 255 -0.322051 0.573774 0.753038
-0.029105 -0.297345 -0.837674 128 128 255 -0.365820 0.566354 0.738525
