ply
format ascii 1.0
element vertex 703
property float x
property float y
property float z
property uchar red
property uchar green
property uchar blue
property float nx
property float ny
property float nz
end_header
1.004237 0.310989 -0.038748 128 128 255 -0.786139 0.580261 0.212798
1.034324 0.310976 0.070754 128 128 255 -0.780646 0.584718 0.220672
1.064372 0.310956 0.174250 128 128 255 -0.776872 0.584121 0.235099
1.094374 0.310928 0.269510 128 128 255 -0.774617 0.577341 0.258158
1.124326 0.310891 0.354517 128 128 255 -0.773465 0.561646 0.293777
1.154234 0.310847 0.427504 128 128 255 -0.772080 0.530853 0.349411
1.184107 0.310799 0.486997 128 128 255 -0.765399 0.469981 0.439638
1.213962 0.310750 0.531840 128 128 255 -0.731967 0.338665 0.591211
1.243813 0.310702 0.561216 128 128 255 -0.580278 0.035546 0.813642
1.273676 0.310660 0.574663 128 128 255 -0.157700 -0.445014 0.881529
1.303557 0.310623 0.572080 128 128 255 0.235114 -0.706685 0.667321
1.333462 0.310591 0.553722 128 128 255 0.417307 -0.771367 0.480466
1.363387 0.310564 0.520194 128 128 255 0.499817 -0.784128 0.367868
1.393323 0.310541 0.472427 128 128 255 0.542148 -0.785253 0.299088
1.423257 0.310518 0.411661 128 128 255 0.566093 -0.783968 0.254819
1.453171 0.310493 0.339407 128 128 255 0.580417 -0.782564 0.225188
1.483048 0.310464 0.257411 128 128 255 0.589114 -0.781615 0.204996
1.512868 0.310427 0.167616 128 128 255 0.594183 -0.781232 0.191373
1.542615 0.310381 0.072111 128 128 255 0.596686 -0.781403 0.182687
1.572279 0.310326 -0.026913 128 128 255 0.597186 -0.782096 0.178030
1.601826 0.310260 -0.127116 128 128 255 0.596623 -0.782831 0.176683
-1.401851 0.340296 -0.098945 128 128 255 0.881073 -0.461527 0.103456
-1.371551 0.340253 -0.352103 128 128 255 0.821200 -0.554803 0.133507
-1.341429 0.340238 -0.467567 128 128 255 0.247469 -0.933151 0.260747
-1.311919 0.340327 -0.405646 128 128 255 -0.859895 -0.481614 0.169196
-1.282799 0.340487 -0.167136 128 128 255 -0.977517 -0.188866 0.093756
-1.253257 0.340579 0.206615 128 128 255 -0.993175 -0.090431 0.073663
-1.222608 0.340474 0.643008 128 128 255 -0.996272 -0.046097 0.072925
-1.191005 0.340187 1.054722 128 128 255 -0.995887 -0.023825 0.087417
-1.159507 0.339906 1.359670 128 128 255 -0.990376 -0.014392 0.137653
-1.128926 0.339790 1.499720 128 128 255 -0.844749 -0.026303 0.534516
-1.099364 0.339873 1.453814 128 128 255 0.975395 -0.001379 0.220461
-1.070748 0.340154 1.242411 128 128 255 0.994246 0.014988 0.106069
-1.042552 0.340537 0.922194 128 128 255 0.995566 0.041499 0.084418
-1.013833 0.340829 0.572280 128 128 255 0.991409 0.095771 0.089088
-0.984317 0.340959 0.275151 128 128 255 0.966720 0.225595 0.120658
-0.954394 0.341004 0.096807 128 128 255 0.751969 0.621151 0.220713
-0.924395 0.341034 0.070813 128 128 255 -0.375215 0.896138 0.236962
-0.894376 0.341061 0.190045 128 128 255 -0.769428 0.624110 0.135896
-0.864226 0.341057 0.408119 128 128 255 -0.828944 0.548807 0.107988
-0.833872 0.340999 0.650250 128 128 255 -0.800586 0.588298 0.113875
-0.803450 0.340920 0.831047 128 128 255 -0.606967 0.778418 0.160175
-0.773329 0.340918 0.875110 128 128 255 0.330526 0.918225 0.218210
-0.743638 0.341040 0.735631 128 128 255 0.916800 0.381794 0.117096
-0.713920 0.341161 0.406620 128 128 255 0.984673 0.158518 0.072742
-0.683841 0.341182 -0.074150 128 128 255 0.995786 0.070989 0.058055
-0.653263 0.341044 -0.632240 128 128 255 0.997883 0.032173 0.056522
-0.621432 0.340477 -1.172123 128 128 255 0.997600 0.022709 0.065413
-0.589660 0.339882 -1.597720 128 128 255 0.994255 0.052475 0.093293
-0.559000 0.339636 -1.833222 128 128 255 0.936278 0.263886 0.231834
-0.529067 0.339645 -1.839481 128 128 255 -0.855627 0.458141 0.240852
-0.499774 0.339909 -1.622287 128 128 255 -0.966272 0.240826 0.091217
-0.471248 0.340526 -1.230721 128 128 255 -0.979156 0.192958 0.063413
-0.442514 0.341117 -0.746060 128 128 255 -0.984329 0.166052 0.059361
-0.412574 0.341211 -0.263882 128 128 255 -0.988823 0.132691 0.067980
-0.382267 0.341133 0.126505 128 128 255 -0.993668 0.059154 0.095523
-0.352179 0.341162 0.360632 128 128 255 -0.953542 -0.224968 0.200367
-0.322045 0.341168 0.411338 128 128 255 0.338160 -0.892987 0.297022
-0.291803 0.341110 0.292513 128 128 255 0.777678 -0.614980 0.130444
-0.261586 0.341057 0.053640 128 128 255 0.824373 -0.558295 0.093358
-0.231590 0.341157 -0.233263 128 128 255 0.813412 -0.574957 0.088237
-0.201573 0.341259 -0.490919 128 128 255 0.753914 -0.648386 0.105875
-0.171424 0.341266 -0.654104 128 128 255 0.547230 -0.820168 0.166922
-0.141266 0.341266 -0.682957 128 128 255 -0.382273 -0.879383 0.283819
-0.111119 0.341279 -0.569415 128 128 255 -0.971926 -0.163465 0.169232
-0.080888 0.341183 -0.335732 128 128 255 -0.986666 0.120330 0.109594
-0.050586 0.340938 -0.026112 128 128 255 -0.964635 0.247603 0.090405
-0.020481 0.340962 0.305827 128 128 255 -0.940631 0.327801 0.088088
0.009547 0.341209 0.610064 128 128 255 -0.916487 0.387274 0.100354
0.039676 0.341296 0.850106 128 128 255 -0.892066 0.431410 0.134551
0.069842 0.341264 1.007544 128 128 255 -0.865571 0.446883 0.226016
0.100000 0.341223 1.080932 128 128 255 -0.739992 0.263958 0.618658
0.130153 0.341222 1.080689 128 128 255 0.537222 -0.646028 0.542255
0.160314 0.341255 1.022774 128 128 255 0.677328 -0.689182 0.257401
0.190483 0.341287 0.923540 128 128 255 0.681084 -0.709472 0.181034
0.220644 0.341287 0.796859 128 128 255 0.668827 -0.728308 0.149124
0.250773 0.341236 0.653270 128 128 255 0.653974 -0.744702 0.133184
0.280855 0.341140 0.500342 128 128 255 0.639490 -0.758614 0.124730
0.310902 0.341031 0.343454 128 128 255 0.625902 -0.770539 0.120484
0.340969 0.340969 0.186560 128 128 255 0.612923 -0.781121 0.119059
0.371118 0.340994 0.032756 128 128 255 0.600001 -0.790965 0.119893
0.401349 0.341079 -0.115364 128 128 255 0.586498 -0.800589 0.122786
0.431608 0.341169 -0.255500 128 128 255 0.571685 -0.810467 0.127751
0.461846 0.341231 -0.385562 128 128 255 0.554668 -0.821043 0.135025
0.492034 0.341252 -0.503634 128 128 255 0.534281 -0.832757 0.145119
0.522161 0.341235 -0.607991 128 128 255 0.508864 -0.846055 0.158898
0.552234 0.341192 -0.697124 128 128 255 0.475864 -0.861371 0.177743
0.582267 0.341133 -0.769776 128 128 255 0.431071 -0.878988 0.203857
0.612280 0.341073 -0.824976 128 128 255 0.367066 -0.898489 0.240790
0.642293 0.341019 -0.862068 128 128 255 0.270054 -0.916805 0.294177
0.672325 0.340979 -0.880738 128 128 255 0.114166 -0.921359 0.371569
0.702389 0.340955 -0.881023 128 128 255 -0.140101 -0.869322 0.473974
0.732492 0.340949 -0.863319 128 128 255 -0.491394 -0.667562 0.559369
0.762636 0.340959 -0.828377 128 128 255 -0.778875 -0.310920 0.544686
0.792819 0.340980 -0.777289 128 128 255 -0.888764 0.009643 0.458263
0.823029 0.341010 -0.711467 128 128 255 -0.901443 0.214503 0.376018
0.853255 0.341042 -0.632616 128 128 255 -0.886093 0.338163 0.316993
0.883481 0.341071 -0.542690 128 128 255 -0.866221 0.415784 0.277100
0.913694 0.341095 -0.443857 128 128 255 -0.847999 0.466988 0.250641
0.943885 0.341110 -0.338450 128 128 255 -0.832671 0.502019 0.233742
0.974050 0.341117 -0.228910 128 128 255 -0.820205 0.526348 0.224104
1.004185 0.341116 -0.117741 128 128 255 -0.810296 0.542956 0.220500
1.034288 0.341107 -0.007447 128 128 255 -0.802647 0.553410 0.222474
1.064354 0.341088 0.099516 128 128 255 -0.797027 0.558329 0.230253
1.094374 0.341060 0.200797 128 128 255 -0.793251 0.557501 0.244836
1.124343 0.341022 0.294198 128 128 255 -0.791112 0.549672 0.268333
1.154260 0.340974 0.377723 128 128 255 -0.790147 0.531804 0.304718
1.184132 0.340918 0.449619 128 128 255 -0.788839 0.497075 0.361454
1.213971 0.340859 0.508411 128 128 255 -0.781491 0.429264 0.452773
1.243794 0.340799 0.552930 128 128 255 -0.744573 0.286445 0.602960
1.273616 0.340742 0.582340 128 128 255 -0.584587 -0.025500 0.810930
1.303452 0.340690 0.596149 128 128 255 -0.169003 -0.480541 0.860534
1.333311 0.340646 0.594214 128 128 255 0.215191 -0.720416 0.659313
1.363196 0.340609 0.576746 128 128 255 0.401767 -0.779410 0.480733
1.393105 0.340578 0.544298 128 128 255 0.489170 -0.789639 0.370383
1.423027 0.340550 0.497745 128 128 255 0.534900 -0.789109 0.301977
1.452951 0.340525 0.438268 128 128 255 0.561117 -0.786649 0.257550
1.482858 0.340497 0.367317 128 128 255 0.576990 -0.784393 0.227619
1.512731 0.340465 0.286582 128 128 255 0.586768 -0.782824 0.207098
1.542550 0.340425 0.197947 128 128 255 0.592608 -0.781991 0.193148
1.572300 0.340376 0.103450 128 128 255 0.595665 -0.781842 0.184136
1.601940 0.340315 0.005330 128 128 255 0.597137 -0.781816 0.179419
-1.401936 0.370348 0.040789 128 128 255 0.896555 -0.431724 0.099014
-1.371842 0.370338 -0.225702 128 128 255 0.854215 -0.504285 0.126542
-1.341743 0.370327 -0.362363 128 128 255 0.452730 -0.852689 0.260686
-1.312117 0.370405 -0.326513 128 128 255 -0.848048 -0.489158 0.203811
-1.282833 0.370554 -0.115161 128 128 255 -0.983304 -0.149746 0.103387
-1.253185 0.370637 0.234111 128 128 255 -0.995916 -0.045223 0.078143
-1.222526 0.370517 0.651625 128 128 255 -0.997123 0.004618 0.075664
-1.190974 0.370204 1.051479 128 128 255 -0.995231 0.039087 0.089373
-1.159515 0.369896 1.351169 128 128 255 -0.986793 0.083355 0.138893
-1.128941 0.369767 1.490405 128 128 255 -0.801809 0.314418 0.508176
-1.099377 0.369860 1.444745 128 128 255 0.967637 0.128344 0.217268
-1.070770 0.370178 1.230857 128 128 255 0.992369 0.066536 0.103808
-1.042592 0.370614 0.902201 128 128 255 0.994113 0.071584 0.081336
-1.013869 0.370941 0.536116 128 128 255 0.989899 0.114307 0.083872
-0.984313 0.371078 0.215335 128 128 255 0.967693 0.227374 0.108959
-0.954338 0.371116 0.008268 128 128 255 0.811089 0.554804 0.185277
-0.924321 0.371144 -0.047328 128 128 255 -0.161582 0.956743 0.241938
-0.894349 0.371186 0.046562 128 128 255 -0.715291 0.683961 0.143371
-0.864302 0.371210 0.248527 128 128 255 -0.810125 0.575925 0.109585
-0.834088 0.371187 0.487431 128 128 255 -0.800013 0.589591 0.111181
-0.803772 0.371131 0.679259 128 128 255 -0.658041 0.737809 0.150398
-0.773614 0.371122 0.747243 128 128 255 0.132584 0.963152 0.234006
-0.743769 0.371211 0.640559 128 128 255 0.902632 0.408440 0.135765
-0.713926 0.371309 0.347267 128 128 255 0.986877 0.140411 0.079745
-0.683826 0.371324 -0.101548 128 128 255 0.997345 0.039221 0.061356
-0.653226 0.371161 -0.637443 128 128 255 0.998273 -0.008190 0.058165
-0.621416 0.370531 -1.168826 128 128 255 0.997424 -0.028981 0.065615
-0.589629 0.369855 -1.600501 128 128 255 0.995620 -0.024472 0.090236
-0.558937 0.369565 -1.854130 128 128 255 0.976293 0.067345 0.205711
-0.528955 0.369552 -1.884992 128 128 255 -0.867394 0.381817 0.319129
-0.499531 0.369789 -1.691335 128 128 255 -0.973327 0.207187 0.098535
-0.470917 0.370434 -1.314312 128 128 255 -0.982102 0.176956 0.064521
-0.442347 0.371174 -0.828646 128 128 255 -0.985639 0.158682 0.057762
-0.412598 0.371375 -0.326311 128 128 255 -0.989238 0.131813 0.063505
-0.382283 0.371284 0.103018 128 128 255 -0.993945 0.071655 0.083302
-0.352208 0.371325 0.390302 128 128 255 -0.981247 -0.123711 0.147815
-0.322108 0.371355 0.500281 128 128 255 -0.251954 -0.910101 0.328992
-0.291909 0.371321 0.436686 128 128 255 0.680378 -0.716065 0.156001
-0.261631 0.371223 0.238762 128 128 255 0.787896 -0.607434 0.101207
-0.231474 0.371206 -0.029661 128 128 255 0.796552 -0.598070 0.088418
-0.201484 0.371336 -0.295668 128 128 255 0.760976 -0.641513 0.096833
-0.171417 0.371417 -0.493498 128 128 255 0.645785 -0.751493 0.134980
-0.141272 0.371431 -0.577787 128 128 255 0.169664 -0.953345 0.249694
-0.111112 0.371429 -0.530983 128 128 255 -0.876646 -0.412220 0.248128
-0.080904 0.371356 -0.363749 128 128 255 -0.987026 0.076853 0.140970
-0.050636 0.371144 -0.108973 128 128 255 -0.961163 0.255317 0.104778
-0.020461 0.371036 0.188398 128 128 255 -0.930666 0.353590 0.093992
0.009580 0.371261 0.482629 128 128 255 -0.900587 0.423519 0.097847
0.039682 0.371431 0.736511 128 128 255 -0.869351 0.480096 0.117204
0.069840 0.371442 0.926638 128 128 255 -0.834183 0.526766 0.163269
0.100000 0.371388 1.044124 128 128 255 -0.780926 0.555044 0.286498
0.130150 0.371352 1.091737 128 128 255 -0.456964 0.366447 0.810494
0.160302 0.371360 1.079372 128 128 255 0.646146 -0.548621 0.530575
0.190466 0.371398 1.019701 128 128 255 0.706235 -0.652829 0.273946
0.220638 0.371435 0.925110 128 128 255 0.696375 -0.690397 0.195997
0.250801 0.371442 0.806162 128 128 255 0.679853 -0.715373 0.161373
0.280935 0.371402 0.671200 128 128 255 0.663303 -0.734515 0.143237
0.311026 0.371319 0.526595 128 128 255 0.647863 -0.750034 0.133124
0.341084 0.371220 0.377211 128 128 255 0.633464 -0.763171 0.127644
0.371152 0.371152 0.226869 128 128 255 0.619648 -0.774814 0.125295
0.401285 0.371156 0.078703 128 128 255 0.605833 -0.785644 0.125419
0.431493 0.371222 -0.064593 128 128 255 0.591389 -0.796201 0.127764
0.461740 0.371305 -0.200629 128 128 255 0.575602 -0.806955 0.132309
0.491977 0.371369 -0.327241 128 128 255 0.557596 -0.818349 0.139254
0.522173 0.371397 -0.442470 128 128 255 0.536214 -0.830816 0.149061
0.552313 0.371388 -0.544565 128 128 255 0.509813 -0.844793 0.162529
0.582400 0.371350 -0.632007 128 128 255 0.475886 -0.860694 0.180938
0.612446 0.371295 -0.703534 128 128 255 0.430363 -0.878763 0.206308
0.642470 0.371235 -0.758169 128 128 255 0.366230 -0.898549 0.241836
0.672490 0.371180 -0.795250 128 128 255 0.270824 -0.917134 0.292436
0.702525 0.371136 -0.814443 128 128 255 0.121272 -0.923302 0.364427
0.732587 0.371109 -0.815762 128 128 255 -0.116397 -0.880929 0.458711
0.762684 0.371098 -0.799566 128 128 255 -0.446280 -0.711283 0.543057
0.792819 0.371103 -0.766562 128 128 255 -0.742003 -0.389682 0.545509
0.822987 0.371120 -0.717789 128 128 255 -0.878516 -0.069187 0.472676
0.853181 0.371145 -0.654598 128 128 255 -0.907106 0.150445 0.393096
0.883388 0.371173 -0.578624 128 128 255 -0.898236 0.287054 0.332824
0.913595 0.371198 -0.491754 128 128 255 -0.880690 0.373668 0.291132
0.943791 0.371219 -0.396080 128 128 255 -0.863173 0.430909 0.263153
0.973967 0.371231 -0.293862 128 128 255 -0.847947 0.470002 0.245121
1.004116 0.371235 -0.187470 128 128 255 -0.835380 0.497049 0.234695
1.034235 0.371229 -0.079340 128 128 255 -0.825338 0.515407 0.230593
1.064317 0.371214 0.028086 128 128 255 -0.817595 0.526844 0.232325
1.094356 0.371188 0.132409 128 128 255 -0.811947 0.532061 0.240110
1.124344 0.371150 0.231323 128 128 255 -0.808219 0.530823 0.254969
1.154277 0.371100 0.322669 128 128 255 -0.806183 0.521723 0.279060
1.184156 0.371039 0.404480 128 128 255 -0.805297 0.501370 0.316426
1.213990 0.370971 0.475020 128 128 255 -0.803771 0.462227 0.374565
1.243794 0.370899 0.532818 128 128 255 -0.795002 0.386702 0.467368
1.273584 0.370827 0.576706 128 128 255 -0.752699 0.231317 0.616389
1.303378 0.370760 0.605831 128 128 255 -0.580830 -0.089424 0.809098
1.333189 0.370700 0.619678 128 128 255 -0.170392 -0.517730 0.838405
1.363027 0.370649 0.618074 128 128 255 0.201460 -0.734378 0.648154
1.392893 0.370606 0.601190 128 128 255 0.389021 -0.787136 0.478622
1.422786 0.370570 0.569532 128 128 255 0.479814 -0.794883 0.371401
1.452696 0.370539 0.523927 128 128 255 0.528279 -0.792819 0.303907
1.482610 0.370511 0.465502 128 128 255 0.556440 -0.789278 0.259644
1.512512 0.370481 0.395651 128 128 255 0.573685 -0.786234 0.229613
1.542382 0.370447 0.316008 128 128 255 0.584443 -0.784084 0.208898
1.572201 0.370404 0.228402 128 128 255 0.590988 -0.782827 0.194717
1.601925 0.370352 0.134916 128 128 255 0.594910 -0.781892 0.186353
-1.401880 0.400376 0.176296 128 128 255 0.913640 -0.395433 0.094308
-1.372011 0.400410 -0.106111 128 128 255 0.886604 -0.446982 0.118912
-1.341956 0.400407 -0.267147 128 128 255 0.648615 -0.720238 0.246081
-1.312235 0.400475 -0.260884 128 128 255 -0.820907 -0.507380 0.262063
-1.282822 0.400614 -0.080157 128 128 255 -0.987969 -0.102113 0.116144
-1.253120 0.400693 0.241683 128 128 255 -0.996501 0.005532 0.083400
-1.222512 0.400571 0.638315 128 128 255 -0.995186 0.058630 0.078538
-1.191055 0.400245 1.025575 128 128 255 -0.990495 0.103154 0.090989
-1.159642 0.399915 1.320673 128 128 255 -0.974449 0.177124 0.138120
-1.129060 0.399771 1.461064 128 128 255 -0.718301 0.543989 0.433728
-1.099481 0.399870 1.418608 128 128 255 0.944569 0.247082 0.216193
-1.070861 0.400221 1.205721 128 128 255 0.988485 0.111016 0.102824
-1.042666 0.400702 0.872110 128 128 255 0.992389 0.094259 0.079242
-1.013907 0.401056 0.492858 128 128 255 0.989035 0.124195 0.079911
-0.984291 0.401192 0.150620 128 128 255 0.970427 0.219614 0.100203
-0.954244 0.401212 -0.083887 128 128 255 0.855995 0.491255 0.161060
-0.924183 0.401230 -0.168574 128 128 255 0.058338 0.968467 0.242217
-0.894248 0.401287 -0.099922 128 128 255 -0.658724 0.736737 0.152645
-0.864298 0.401343 0.086132 128 128 255 -0.796012 0.594863 0.111815
-0.834199 0.401354 0.322621 128 128 255 -0.805453 0.582581 0.108831
-0.803977 0.401326 0.527335 128 128 255 -0.710430 0.689543 0.140783
-0.773809 0.401314 0.622340 128 128 255 -0.120118 0.963165 0.240594
-0.743851 0.401375 0.552718 128 128 255 0.875637 0.454150 0.164339
-0.713922 0.401453 0.300202 128 128 255 0.988474 0.122171 0.089400
-0.683810 0.401466 -0.111443 128 128 255 0.997829 0.005709 0.065614
-0.653232 0.401293 -0.620547 128 128 255 0.996958 -0.049544 0.060163
-0.621506 0.400627 -1.140237 128 128 255 0.994621 -0.079919 0.065898
-0.589694 0.399867 -1.576842 128 128 255 0.991599 -0.095717 0.087006
-0.558932 0.399515 -1.849853 128 128 255 0.980175 -0.088292 0.177373
-0.528896 0.399474 -1.908969 128 128 255 -0.843696 0.226469 0.486712
-0.499357 0.399678 -1.744502 128 128 255 -0.979636 0.168304 0.109486
-0.470613 0.400323 -1.388930 128 128 255 -0.984567 0.161723 0.066888
-0.442146 0.401192 -0.909449 128 128 255 -0.986376 0.154313 0.057008
-0.412605 0.401533 -0.393363 128 128 255 -0.988908 0.135810 0.060137
-0.382302 0.401439 0.070255 128 128 255 -0.993178 0.089786 0.074399
-0.352228 0.401485 0.408529 128 128 255 -0.992083 -0.046135 0.116802
-0.322148 0.401534 0.578457 128 128 255 -0.734447 -0.623712 0.267526
-0.291990 0.401531 0.573534 128 128 255 0.512788 -0.835855 0.195948
-0.261750 0.401458 0.422268 128 128 255 0.742181 -0.660596 0.113052
-0.231472 0.401338 0.179418 128 128 255 0.777867 -0.621773 0.091222
-0.201366 0.401366 -0.087598 128 128 255 0.762910 -0.639980 0.091621
-0.171345 0.401495 -0.313732 128 128 255 0.697928 -0.707046 0.113939
-0.141248 0.401560 -0.449320 128 128 255 0.485879 -0.854268 0.184789
-0.111097 0.401567 -0.468312 128 128 255 -0.427921 -0.840628 0.332006
-0.080910 0.401517 -0.370401 128 128 255 -0.977845 -0.053932 0.202264
-0.050678 0.401355 -0.177281 128 128 255 -0.962978 0.236157 0.130014
-0.020471 0.401179 0.075262 128 128 255 -0.925453 0.363789 0.105801
0.009614 0.401288 0.346904 128 128 255 -0.889909 0.444857 0.100812
0.039697 0.401513 0.601371 128 128 255 -0.854390 0.507920 0.109702
0.069840 0.401605 0.812144 128 128 255 -0.815727 0.562470 0.134973
0.100000 0.401577 0.964543 128 128 255 -0.766963 0.612589 0.191055
0.130152 0.401518 1.054666 128 128 255 -0.675929 0.655244 0.337304
0.160298 0.401489 1.086444 128 128 255 -0.175713 0.479286 0.859890
0.190450 0.401501 1.068218 128 128 255 0.709061 -0.441404 0.549904
0.220616 0.401540 1.009873 128 128 255 0.734440 -0.609334 0.298847
0.250790 0.401580 0.920970 128 128 255 0.714530 -0.665816 0.214793
0.280956 0.401593 0.809838 128 128 255 0.693714 -0.698432 0.175934
0.311095 0.401564 0.683331 128 128 255 0.674901 -0.721455 0.154952
0.341196 0.401495 0.546969 128 128 255 0.657972 -0.739366 0.142867
0.371267 0.401408 0.405209 128 128 255 0.642373 -0.754231 0.135989
0.401342 0.401342 0.261727 128 128 255 0.627466 -0.767264 0.132633
0.431465 0.401331 0.119646 128 128 255 0.612604 -0.779287 0.132016
0.461653 0.401378 -0.018301 128 128 255 0.597126 -0.790908 0.133810
0.491883 0.401448 -0.149668 128 128 255 0.580305 -0.802630 0.137954
0.522112 0.401509 -0.272249 128 128 255 0.561259 -0.814908 0.144616
0.552309 0.401539 -0.384054 128 128 255 0.538824 -0.828182 0.154219
0.582457 0.401536 -0.483317 128 128 255 0.511351 -0.842887 0.167517
0.612556 0.401503 -0.568511 128 128 255 0.476352 -0.859418 0.185716
0.642614 0.401452 -0.638369 128 128 255 0.429832 -0.877978 0.210712
0.672648 0.401393 -0.691912 128 128 255 0.365036 -0.898055 0.245448
0.702676 0.401338 -0.728468 128 128 255 0.270069 -0.916755 0.294319
0.732714 0.401292 -0.747691 128 128 255 0.124162 -0.923596 0.362704
0.762775 0.401261 -0.749570 128 128 255 -0.102441 -0.886624 0.451003
0.792867 0.401246 -0.734435 128 128 255 -0.414983 -0.737786 0.532411
0.822992 0.401247 -0.702952 128 128 255 -0.710254 -0.445802 0.544793
0.853146 0.401259 -0.656110 128 128 255 -0.865213 -0.133121 0.483410
0.883323 0.401278 -0.595203 128 128 255 -0.908270 0.094511 0.407570
0.913512 0.401301 -0.521805 128 128 255 -0.906435 0.240631 0.347091
0.943701 0.401322 -0.437734 128 128 255 -0.891928 0.334520 0.304239
0.973878 0.401337 -0.345013 128 128 255 -0.875682 0.396853 0.275117
1.004036 0.401345 -0.245828 128 128 255 -0.860968 0.439432 0.256191
1.034166 0.401344 -0.142482 128 128 255 -0.848600 0.468812 0.245140
1.064264 0.401332 -0.037340 128 128 255 -0.838641 0.488634 0.240663
1.094320 0.401309 0.067217 128 128 255 -0.830956 0.500822 0.242261
1.124327 0.401273 0.168848 128 128 255 -0.825381 0.506128 0.250162
1.154278 0.401222 0.265298 128 128 255 -0.821748 0.504264 0.265421
1.184171 0.401159 0.354450 128 128 255 -0.819800 0.493638 0.290259
1.214010 0.401084 0.434368 128 128 255 -0.818874 0.470459 0.328806
1.243806 0.401002 0.503340 128 128 255 -0.816803 0.426397 0.388611
1.273574 0.400917 0.559910 128 128 255 -0.805801 0.342392 0.483169
1.303333 0.400833 0.602909 128 128 255 -0.756189 0.173631 0.630897
1.333100 0.400756 0.631480 128 128 255 -0.569649 -0.154785 0.807182
1.362887 0.400687 0.645090 128 128 255 -0.163835 -0.554896 0.815628
1.392704 0.400629 0.643541 128 128 255 0.193197 -0.748077 0.634866
1.422554 0.400580 0.626972 128 128 255 0.379019 -0.794398 0.474633
1.452432 0.400541 0.595849 128 128 255 0.471821 -0.799774 0.371142
1.482331 0.400507 0.550955 128 128 255 0.522359 -0.796319 0.304987
1.512237 0.400476 0.493366 128 128 255 0.552125 -0.791805 0.261157
1.542133 0.400444 0.424427 128 128 255 0.570552 -0.788046 0.231201
1.572001 0.400408 0.345719 128 128 255 0.582172 -0.785367 0.210415
1.601792 0.400364 0.259110 128 128 255 0.589308 -0.783336 0.197741
-1.401699 0.430374 0.305464 128 128 255 0.930418 -0.355406 0.089492
-1.372069 0.430464 0.005144 128 128 255 0.915250 -0.387313 0.110933
-1.342082 0.430477 -0.182855 128 128 255 0.796879 -0.562834 0.219549
-1.312288 0.430536 -0.209162 128 128 255 -0.748808 -0.548344 0.372298
-1.282778 0.430664 -0.062086 128 128 255 -0.990113 -0.043269 0.133431
-1.253063 0.430749 0.229695 128 128 255 -0.994049 0.061967 0.089589
-1.222557 0.430639 0.603668 128 128 255 -0.990015 0.114992 0.081533
-1.191239 0.430317 0.977761 128 128 255 -0.981758 0.166285 0.092203
-1.159881 0.429969 1.269079 128 128 255 -0.955637 0.261525 0.135507
-1.129278 0.429806 1.412784 128 128 255 -0.655322 0.664281 0.359561
-1.099667 0.429908 1.376774 128 128 255 0.907586 0.358714 0.218203
-1.071009 0.430285 1.168763 128 128 255 0.983235 0.150264 0.103290
-1.042761 0.430799 0.834168 128 128 255 0.990742 0.111017 0.078135
-1.013937 0.431170 0.445283 128 128 255 0.988859 0.127365 0.077046
-0.984246 0.431297 0.084279 128 128 255 0.974263 0.205058 0.093613
-0.954106 0.431290 -0.176024 128 128 255 0.891703 0.429221 0.143652
-0.923973 0.431285 -0.289148 128 128 255 0.271571 0.932543 0.237935
-0.894057 0.431352 -0.245778 128 128 255 -0.597668 0.784667 0.164593
-0.864211 0.431447 -0.075894 128 128 255 -0.786019 0.607431 0.114899
-0.834224 0.431499 0.158263 128 128 255 -0.814972 0.569550 0.106924
-0.804087 0.431499 0.376794 128 128 255 -0.759124 0.637516 0.131545
-0.773931 0.431491 0.500938 128 128 255 -0.381420 0.895201 0.230507
-0.743898 0.431531 0.471754 128 128 255 0.818381 0.534787 0.210371
-0.713912 0.431594 0.264410 128 128 255 0.989136 0.104772 0.103114
-0.683796 0.431606 -0.105178 128 128 255 0.997032 -0.029364 0.071167
-0.653275 0.431441 -0.582852 128 128 255 0.993841 -0.091419 0.062629
-0.621691 0.430775 -1.087276 128 128 255 0.989395 -0.129222 0.066332
-0.589861 0.429934 -1.527056 128 128 255 0.983583 -0.159780 0.083871
-0.558985 0.429492 -1.820039 128 128 255 0.967569 -0.201551 0.152277
-0.528879 0.429413 -1.910536 128 128 255 -0.506814 -0.239486 0.828122
-0.499241 0.429582 -1.780710 128 128 255 -0.984943 0.118231 0.126131
-0.470348 0.430201 -1.453760 128 128 255 -0.986822 0.145463 0.070866
-0.441915 0.431170 -0.988421 128 128 255 -0.986807 0.151458 0.057202
-0.412590 0.431676 -0.466212 128 128 255 -0.988091 0.142606 0.057783
-0.382325 0.431599 0.025537 128 128 255 -0.991581 0.110260 0.067890
-0.352238 0.431641 0.411081 128 128 255 -0.995162 0.016454 0.096860
-0.322162 0.431699 0.640330 128 128 255 -0.922393 -0.334167 0.193710
-0.292018 0.431707 0.696753 128 128 255 0.184329 -0.949540 0.253766
-0.261846 0.431692 0.597831 128 128 255 0.677230 -0.723929 0.131480
-0.231584 0.431584 0.388488 128 128 255 0.754904 -0.648648 0.096826
-0.201332 0.431465 0.129491 128 128 255 0.759962 -0.643718 0.089918
-0.171245 0.431522 -0.116235 128 128 255 0.725459 -0.680818 0.100975
-0.141189 0.431634 -0.296185 128 128 255 0.623210 -0.769180 0.141320
-0.111070 0.431681 -0.377123 128 128 255 0.239290 -0.933822 0.265925
-0.080905 0.431660 -0.348713 128 128 255 -0.846765 -0.418862 0.327939
-0.050706 0.431552 -0.221838 128 128 255 -0.970010 0.164632 0.178820
-0.020502 0.431379 -0.022825 128 128 255 -0.926250 0.354711 0.127442
0.009632 0.431349 0.214415 128 128 255 -0.884342 0.453618 0.110317
0.039719 0.431545 0.456112 128 128 255 -0.845176 0.523126 0.109617
0.069844 0.431717 0.674464 128 128 255 -0.804901 0.580678 0.122259
0.100000 0.431757 0.850692 128 128 255 -0.758763 0.633392 0.151965
0.130156 0.431712 0.975395 128 128 255 -0.695349 0.685892 0.214576
0.160301 0.431657 1.046985 128 128 255 -0.566490 0.737070 0.368533
0.190445 0.431632 1.069239 128 128 255 -0.009889 0.585598 0.810542
0.220598 0.431645 1.048853 128 128 255 0.747761 -0.308445 0.587975
0.250765 0.431683 0.993548 128 128 255 0.763948 -0.553334 0.331972
0.280940 0.431723 0.910858 128 128 255 0.735924 -0.633867 0.237967
0.311107 0.431740 0.807534 128 128 255 0.710497 -0.676630 0.193303
0.341252 0.431721 0.689360 128 128 255 0.688851 -0.704993 0.168726
0.371363 0.431666 0.561211 128 128 255 0.669941 -0.726209 0.154271
0.401448 0.431592 0.427201 128 128 255 0.652779 -0.743391 0.145771
0.431532 0.431532 0.290854 128 128 255 0.636528 -0.758203 0.141279
0.461652 0.431514 0.155246 128 128 255 0.620444 -0.771680 0.139854
0.491825 0.431544 0.023114 128 128 255 0.603810 -0.784545 0.141075
0.522036 0.431600 -0.103076 128 128 255 0.585863 -0.797364 0.144828
0.552253 0.431652 -0.221097 128 128 255 0.565692 -0.810627 0.151248
0.582446 0.431682 -0.328944 128 128 255 0.542109 -0.824793 0.160730
0.612597 0.431680 -0.424843 128 128 255 0.513441 -0.840300 0.173994
0.642702 0.431651 -0.507263 128 128 255 0.477180 -0.857530 0.192202
0.672770 0.431603 -0.574937 128 128 255 0.429351 -0.876639 0.217167
0.702812 0.431547 -0.626883 128 128 255 0.363324 -0.897031 0.251658
0.732847 0.431491 -0.662424 128 128 255 0.267682 -0.915714 0.299690
0.762889 0.431444 -0.681201 128 128 255 0.123108 -0.922482 0.365884
0.792950 0.431411 -0.683185 128 128 255 -0.096860 -0.887820 0.449882
0.823037 0.431392 -0.668675 128 128 255 -0.396270 -0.751405 0.527598
0.853152 0.431387 -0.638302 128 128 255 -0.686298 -0.482140 0.544551
0.883294 0.431393 -0.593010 128 128 255 -0.851824 -0.181117 0.491521
0.913454 0.431407 -0.534041 128 128 255 -0.906413 0.048553 0.419593
0.943625 0.431424 -0.462909 128 128 255 -0.911304 0.200407 0.359669
0.973794 0.431439 -0.381367 128 128 255 -0.900177 0.299453 0.316243
1.003951 0.431449 -0.291372 128 128 255 -0.885606 0.365645 0.286368
1.034088 0.431451 -0.195042 128 128 255 -0.871748 0.410938 0.266806
1.064196 0.431442 -0.094609 128 128 255 -0.859846 0.442133 0.255311
1.094267 0.431422 0.007629 128 128 255 -0.850171 0.463045 0.250598
1.124292 0.431388 0.109355 128 128 255 -0.842688 0.475690 0.252182
1.154262 0.431340 0.208285 128 128 255 -0.837281 0.480830 0.260315
1.184173 0.431275 0.302219 128 128 255 -0.833786 0.478089 0.276101
1.214024 0.431196 0.389084 128 128 255 -0.831901 0.465657 0.301835
1.243821 0.431106 0.466981 128 128 255 -0.830799 0.439297 0.341748
1.273578 0.431009 0.534225 128 128 255 -0.827821 0.389807 0.403438
1.303311 0.430911 0.589379 128 128 255 -0.813710 0.296608 0.499899
1.333040 0.430816 0.631281 128 128 255 -0.754870 0.114016 0.645889
1.362780 0.430728 0.659074 128 128 255 -0.551775 -0.219975 0.804460
1.392546 0.430651 0.672214 128 128 255 -0.151124 -0.590640 0.792658
1.422344 0.430586 0.670485 128 128 255 0.189584 -0.761076 0.620340
1.452178 0.430533 0.653998 128 128 255 0.371613 -0.801058 0.469265
1.482044 0.430489 0.623186 128 128 255 0.465213 -0.804230 0.369852
1.511933 0.430452 0.578791 128 128 255 0.517197 -0.799545 0.305344
1.541832 0.430420 0.521847 128 128 255 0.548227 -0.794178 0.262161
1.571724 0.430387 0.453651 128 128 255 0.567631 -0.789791 0.232433
1.601561 0.430350 0.375816 128 128 255 0.579290 -0.786448 0.214294
-1.401417 0.460340 0.426620 128 128 255 0.945595 -0.314115 0.084740
-1.372035 0.460498 0.107021 128 128 255 0.938640 -0.329165 0.102987
-1.342136 0.460534 -0.109895 128 128 255 0.889562 -0.415766 0.189259
-1.312292 0.460585 -0.171191 128 128 255 -0.492986 -0.623254 0.607058
-1.282706 0.460706 -0.060344 128 128 255 -0.986989 0.031577 0.157654
-1.253010 0.460803 0.199063 128 128 255 -0.987494 0.124332 0.096938
-1.222646 0.460722 0.548779 128 128 255 -0.981328 0.172708 0.084658
-1.191503 0.460420 0.909217 128 128 255 -0.969543 0.226576 0.093000
-1.160221 0.460063 1.197617 128 128 255 -0.933638 0.333212 0.131492
-1.129591 0.459880 1.346874 128 128 255 -0.625865 0.719577 0.300836
-1.099927 0.459978 1.320713 128 128 255 0.854812 0.468152 0.223897
-1.071201 0.460369 1.121735 128 128 255 0.976820 0.186306 0.105414
-1.042865 0.460905 0.790518 128 128 255 0.989307 0.123220 0.078029
-1.013954 0.461282 0.395995 128 128 255 0.989264 0.125336 0.075154
-0.984177 0.461392 0.019364 128 128 255 0.978621 0.185575 0.088670
-0.953926 0.461346 -0.264748 128 128 255 0.920534 0.368167 0.130654
-0.923691 0.461303 -0.405523 128 128 255 0.465976 0.854550 0.229369
-0.893767 0.461370 -0.387624 128 128 255 -0.527821 0.829964 0.180457
-0.864028 0.461511 -0.234634 128 128 255 -0.779231 0.615308 0.119141
-0.834175 0.461616 -0.003483 128 128 255 -0.826845 0.552443 0.105519
-0.804126 0.461650 0.228829 128 128 255 -0.801377 0.585382 0.122971
-0.773996 0.461654 0.383179 128 128 255 -0.592784 0.778399 0.206645
-0.743922 0.461681 0.396831 128 128 255 0.677569 0.677036 0.287268
-0.713896 0.461732 0.238304 128 128 255 0.988282 0.089619 0.123557
-0.683782 0.461746 -0.084737 128 128 255 0.994717 -0.066076 0.078558
-0.653340 0.461603 -0.526322 128 128 255 0.988858 -0.133559 0.065742
-0.621953 0.460976 -1.011494 128 128 255 0.982041 -0.176371 0.067001
-0.590134 0.460070 -1.451976 128 128 255 0.972955 -0.216310 0.081044
-0.559107 0.459513 -1.764671 128 128 255 0.950316 -0.281891 0.132046
-0.528903 0.459373 -1.888896 128 128 255 0.392602 -0.669834 0.630226
-0.499177 0.459506 -1.798661 128 128 255 -0.987274 0.045277 0.152449
-0.470128 0.460081 -1.507446 128 128 255 -0.989075 0.125694 0.077023
-0.441663 0.461109 -1.064685 128 128 255 -0.987163 0.148612 0.058506
-0.412541 0.461794 -0.544982 128 128 255 -0.986992 0.150553 0.056398
-0.382353 0.461765 -0.032670 128 128 255 -0.989358 0.131062 0.063201
-0.352240 0.461792 0.394824 128 128 255 -0.994179 0.068257 0.083365
-0.322158 0.461850 0.681243 128 128 255 -0.979244 -0.141863 0.144762
-0.291991 0.461838 0.800527 128 128 255 -0.373284 -0.880976 0.290757
-0.261859 0.461859 0.759092 128 128 255 0.569798 -0.805640 0.162091
-0.231690 0.461844 0.591432 128 128 255 0.723809 -0.681783 0.106175
-0.201423 0.461707 0.350556 128 128 255 0.751974 -0.652857 0.091174
-0.171202 0.461603 0.095798 128 128 255 0.738803 -0.667344 0.093922
-0.141112 0.461668 -0.119138 128 128 255 0.686326 -0.717978 0.116034
-0.111025 0.461757 -0.255389 128 128 255 0.536086 -0.824257 0.182239
-0.080889 0.461779 -0.293808 128 128 255 -0.127070 -0.916392 0.379578
-0.050718 0.461724 -0.235129 128 128 255 -0.955517 -0.055458 0.289676
-0.020532 0.461596 -0.096165 128 128 255 -0.935016 0.311619 0.169229
0.009628 0.461490 0.096372 128 128 255 -0.884517 0.448146 0.129593
0.039738 0.461574 0.312611 128 128 255 -0.840750 0.528613 0.117080
0.069853 0.461767 0.525191 128 128 255 -0.798961 0.589420 0.119357
0.100000 0.461890 0.712926 128 128 255 -0.754646 0.642187 0.134553
0.130159 0.461902 0.862234 128 128 255 -0.701658 0.692672 0.166979
0.160309 0.461854 0.966740 128 128 255 -0.625154 0.745222 0.232008
0.190451 0.461803 1.025775 128 128 255 -0.469636 0.797113 0.379543
0.220594 0.461781 1.042496 128 128 255 0.056262 0.678824 0.732142
0.250747 0.461793 1.022169 128 128 255 0.761311 -0.139080 0.633294
0.280914 0.461828 0.970863 128 128 255 0.794463 -0.478720 0.373705
0.311088 0.461865 0.894626 128 128 255 0.760680 -0.591973 0.266334
0.341256 0.461884 0.799048 128 128 255 0.730366 -0.648627 0.214123
0.371405 0.461873 0.689103 128 128 255 0.705336 -0.684293 0.185049
0.401526 0.461831 0.569148 128 128 255 0.683967 -0.709971 0.167720
0.431624 0.461772 0.442998 128 128 255 0.664878 -0.730201 0.157301
0.461720 0.461720 0.314020 128 128 255 0.647017 -0.747274 0.151494
0.491842 0.461700 0.185220 128 128 255 0.629513 -0.762537 0.149164
0.522004 0.461718 0.059309 128 128 255 0.611573 -0.776883 0.149768
0.552198 0.461759 -0.061253 128 128 255 0.592376 -0.790975 0.153131
0.582401 0.461800 -0.174236 128 128 255 0.570964 -0.805362 0.159348
0.612584 0.461824 -0.277634 128 128 255 0.546104 -0.820536 0.168794
0.642733 0.461822 -0.369674 128 128 255 0.516075 -0.836948 0.182168
0.672841 0.461794 -0.448826 128 128 255 0.478317 -0.854967 0.200611
0.702914 0.461749 -0.513828 128 128 255 0.428805 -0.874700 0.225890
0.732964 0.461694 -0.563698 128 128 255 0.360914 -0.895430 0.260665
0.763004 0.461639 -0.597755 128 128 255 0.263451 -0.913957 0.308670
0.793049 0.461591 -0.615629 128 128 255 0.118052 -0.919939 0.373867
0.823108 0.461554 -0.617274 128 128 255 -0.099067 -0.885020 0.454890
0.853191 0.461531 -0.602967 128 128 255 -0.389196 -0.754451 0.528517
0.883297 0.461522 -0.573303 128 128 255 -0.671418 -0.501112 0.545972
0.913426 0.461523 -0.529184 128 128 255 -0.840647 -0.212979 0.497948
0.943570 0.461530 -0.471805 128 128 255 -0.903002 0.013898 0.429412
0.973722 0.461540 -0.402623 128 128 255 -0.913566 0.167709 0.370502
1.003871 0.461548 -0.323332 128 128 255 -0.905767 0.269547 0.327003
1.034007 0.461551 -0.235823 128 128 255 -0.893085 0.338138 0.296752
1.064120 0.461545 -0.142147 128 128 255 -0.880333 0.385208 0.276820
1.094201 0.461528 -0.044469 128 128 255 -0.869116 0.417580 0.265075
1.124240 0.461497 0.054979 128 128 255 -0.859899 0.439122 0.260278
1.154228 0.461450 0.153944 128 128 255 -0.852749 0.451871 0.261976
1.184158 0.461386 0.250202 128 128 255 -0.847593 0.456547 0.270464
1.214025 0.461305 0.341607 128 128 255 -0.844269 0.452654 0.286904
1.243832 0.461210 0.426135 128 128 255 -0.842410 0.438122 0.313679
1.273587 0.461104 0.501925 128 128 255 -0.840977 0.408219 0.355127
1.303305 0.460991 0.567325 128 128 255 -0.836698 0.352816 0.418876
1.333004 0.460879 0.620918 128 128 255 -0.818549 0.249823 0.517267
1.362704 0.460773 0.661559 128 128 255 -0.748657 0.053387 0.660805
1.392421 0.460676 0.688391 128 128 255 -0.528111 -0.283334 0.800513
1.422167 0.460591 0.700869 128 128 255 -0.133860 -0.623892 0.769961
1.451949 0.460520 0.698761 128 128 255 0.189804 -0.773021 0.605321
1.481770 0.460462 0.682157 128 128 255 0.366588 -0.807004 0.462988
1.511625 0.460415 0.651462 128 128 255 0.459973 -0.808182 0.367785
1.541505 0.460376 0.607383 128 128 255 0.512828 -0.802440 0.305119
1.571398 0.460342 0.550915 128 128 255 0.544783 -0.796350 0.262749
1.601257 0.460309 0.483384 128 128 255 0.563187 -0.791527 0.237288
-1.401061 0.490276 0.538510 128 128 255 0.958505 -0.273556 0.080217
-1.371930 0.490512 0.198939 128 128 255 0.956591 -0.275370 0.095423
-1.342137 0.490579 -0.048190 128 128 255 0.941075 -0.297163 0.161467
-1.312257 0.490624 -0.146308 128 128 255 0.358213 -0.487351 0.796349
-1.282611 0.490738 -0.073816 128 128 255 -0.972338 0.131351 0.193145
-1.252950 0.490852 0.151190 128 128 255 -0.975462 0.193093 0.105777
-1.222753 0.490813 0.475181 128 128 255 -0.969008 0.230838 0.087961
-1.191821 0.490551 0.821485 128 128 255 -0.954695 0.282541 0.093428
-1.160643 0.490199 1.107777 128 128 255 -0.911595 0.391110 0.126601
-1.129987 0.489996 1.264784 128 128 255 -0.622649 0.739324 0.256337
-1.100249 0.490081 1.251915 128 128 255 0.780551 0.579858 0.233463
-1.071422 0.490474 1.066289 128 128 255 0.969022 0.221378 0.109492
-1.042965 0.491014 0.743104 128 128 255 0.988082 0.132129 0.078974
-1.013954 0.491389 0.347325 128 128 255 0.990082 0.119324 0.074154
-0.984087 0.491476 -0.041382 128 128 255 0.983037 0.162507 0.085023
-0.953712 0.491379 -0.346983 128 128 255 0.943680 0.308069 0.120669
-0.923348 0.491280 -0.514471 128 128 255 0.631414 0.744421 0.217149
-0.893381 0.491332 -0.522353 128 128 255 -0.441560 0.874200 0.201989
-0.863737 0.491518 -0.387413 128 128 255 -0.774571 0.620005 0.125035
-0.834044 0.491696 -0.160686 128 128 255 -0.839707 0.532849 0.104710
-0.804108 0.491780 0.084388 128 128 255 -0.836339 0.535949 0.115304
-0.774020 0.491802 0.268917 128 128 255 -0.734593 0.654514 0.178840
-0.743928 0.491824 0.326755 128 128 255 0.298896 0.869834 0.392492
-0.713876 0.491866 0.219860 128 128 255 0.984507 0.079214 0.156431
-0.683769 0.491884 -0.052624 128 128 255 0.990518 -0.104923 0.088687
-0.653413 0.491775 -0.453502 128 128 255 0.981918 -0.175981 0.069774
-0.622263 0.491226 -0.915023 128 128 255 0.972852 -0.221207 0.068014
-0.590512 0.490290 -1.352955 128 128 255 0.960821 -0.265773 0.078663
-0.559319 0.489597 -1.684101 128 128 255 0.933417 -0.339380 0.116420
-0.528977 0.489367 -1.843390 128 128 255 0.677836 -0.646558 0.350002
-0.499161 0.489454 -1.796897 128 128 255 -0.977520 -0.076134 0.196616
-0.469958 0.489971 -1.548141 128 128 255 -0.991368 0.098685 0.086323
-0.441403 0.491013 -1.136548 128 128 255 -0.987664 0.144139 0.061182
-0.412452 0.491875 -0.628719 128 128 255 -0.985805 0.158280 0.055999
-0.382384 0.491937 -0.104666 128 128 255 -0.986726 0.150915 0.059975
-0.352235 0.491937 0.357860 128 128 255 -0.990990 0.111645 0.073993
-0.322148 0.491995 0.697604 128 128 255 -0.993334 -0.015549 0.114218
-0.291933 0.491933 0.879753 128 128 255 -0.816395 -0.523946 0.242856
-0.261786 0.491935 0.899896 128 128 255 0.357732 -0.908739 0.214992
-0.231699 0.492008 0.781714 128 128 255 0.677170 -0.725645 0.121988
-0.201530 0.491989 0.569484 128 128 255 0.737965 -0.668064 0.095387
-0.171271 0.491835 0.317495 128 128 255 0.742876 -0.663209 0.091043
-0.141076 0.491749 0.078925 128 128 255 0.717157 -0.689432 0.101831
-0.110973 0.491807 -0.103469 128 128 255 0.648033 -0.749218 0.136846
-0.080863 0.491869 -0.203193 128 128 255 0.436743 -0.866694 0.241036
-0.050718 0.491867 -0.211760 128 128 255 -0.536431 -0.694171 0.479966
-0.020552 0.491796 -0.136705 128 128 255 -0.948096 0.176881 0.264249
0.009610 0.491689 0.002975 128 128 255 -0.892285 0.419229 0.167553
0.039744 0.491665 0.182461 128 128 255 -0.841162 0.523719 0.134780
0.069862 0.491794 0.376392 128 128 255 -0.796731 0.591220 0.125217
0.100000 0.491959 0.562811 128 128 255 -0.753165 0.644987 0.129361
0.130158 0.492048 0.725353 128 128 255 -0.705641 0.693361 0.146018
0.160315 0.492047 0.853806 128 128 255 -0.647095 0.740986 0.179467
0.190462 0.492002 0.943480 128 128 255 -0.561034 0.791227 0.243312
0.220602 0.491956 0.993953 128 128 255 -0.393641 0.838770 0.376181
0.250744 0.491935 1.007674 128 128 255 0.066705 0.754269 0.653169
0.280897 0.491944 0.988736 128 128 255 0.739130 0.065642 0.670356
0.311063 0.491973 0.941947 128 128 255 0.823063 -0.377965 0.423922
0.341235 0.492006 0.872231 128 128 255 0.788467 -0.536471 0.300862
0.371402 0.492026 0.784293 128 128 255 0.753451 -0.612453 0.239193
0.401554 0.492021 0.682467 128 128 255 0.724588 -0.658134 0.204531
0.431684 0.491990 0.570678 128 128 255 0.700299 -0.689809 0.183695
0.461795 0.491945 0.452471 128 128 255 0.678914 -0.714034 0.170973
0.491903 0.491903 0.331052 128 128 255 0.659155 -0.733992 0.163617
0.522029 0.491884 0.209340 128 128 255 0.640009 -0.751472 0.160242
0.552184 0.491893 0.089999 128 128 255 0.620583 -0.767609 0.160165
0.582364 0.491921 -0.024538 128 128 255 0.599979 -0.783208 0.163126
0.612551 0.491951 -0.132055 128 128 255 0.577175 -0.798903 0.169183
0.642723 0.491967 -0.230558 128 128 255 0.550871 -0.815237 0.178688
0.672866 0.491961 -0.318282 128 128 255 0.519272 -0.832685 0.192334
0.702973 0.491932 -0.393708 128 128 255 0.479721 -0.851608 0.211263
0.733048 0.491887 -0.455579 128 128 255 0.428073 -0.872052 0.237232
0.763102 0.491833 -0.502917 128 128 255 0.357582 -0.893135 0.272847
0.793145 0.491778 -0.535040 128 128 255 0.257034 -0.911312 0.321628
0.823191 0.491729 -0.551572 128 128 255 0.108617 -0.915702 0.386902
0.853250 0.491690 -0.552453 128 128 255 -0.109100 -0.878056 0.465957
0.883327 0.491663 -0.537936 128 128 255 -0.393247 -0.747745 0.535008
0.913424 0.491649 -0.508587 128 128 255 -0.666065 -0.504272 0.549606
0.943540 0.491644 -0.465270 128 128 255 -0.833201 -0.228928 0.503356
0.973668 0.491644 -0.409134 128 128 255 -0.899283 -0.008613 0.437282
1.003801 0.491647 -0.341585 128 128 255 -0.913948 0.143599 0.379577
1.033928 0.491647 -0.264258 128 128 255 -0.909079 0.245777 0.336406
1.064040 0.491641 -0.178982 128 128 255 -0.898308 0.315165 0.306127
1.094126 0.491625 -0.087745 128 128 255 -0.886805 0.362945 0.286091
1.124175 0.491596 0.007356 128 128 255 -0.876434 0.395758 0.274298
1.154178 0.491552 0.104152 128 128 255 -0.867816 0.417401 0.269578
1.184126 0.491490 0.200455 128 128 255 -0.861105 0.429850 0.271527
1.214011 0.491409 0.294102 128 128 255 -0.856269 0.433735 0.280494
1.243831 0.491311 0.383001 128 128 255 -0.853136 0.428397 0.297716
1.273593 0.491198 0.465177 128 128 255 -0.851254 0.411468 0.325670
1.303306 0.491074 0.538813 128 128 255 -0.849319 0.377679 0.368803
1.332986 0.490947 0.602291 128 128 255 -0.843318 0.315934 0.434741
1.362654 0.490822 0.654220 128 128 255 -0.820187 0.202710 0.534979
1.392328 0.490704 0.693473 128 128 255 -0.737629 -0.007095 0.675169
1.422024 0.490598 0.719203 128 128 255 -0.499743 -0.343306 0.795234
1.451752 0.490506 0.730862 128 128 255 -0.113436 -0.653920 0.748011
1.481521 0.490430 0.728212 128 128 255 0.193094 -0.783654 0.590425
1.511331 0.490368 0.711325 128 128 255 0.363695 -0.812147 0.456228
1.541177 0.490319 0.680583 128 128 255 0.456056 -0.811572 0.365190
1.571050 0.490279 0.636662 128 128 255 0.509258 -0.804954 0.304474
1.600908 0.490244 0.580585 128 128 255 0.538267 -0.798764 0.268784
-1.400662 0.520185 0.640271 128 128 255 0.968973 -0.235171 0.076066
-1.371772 0.520506 0.280721 128 128 255 0.969732 -0.227569 0.088498
-1.342096 0.520611 0.002765 128 128 255 0.968164 -0.208546 0.138446
-1.312193 0.520653 -0.133415 128 128 255 0.863099 -0.118417 0.490957
-1.282489 0.520758 -0.100955 128 128 255 -0.929493 0.273162 0.247842
-1.252867 0.520892 0.087892 128 128 255 -0.956041 0.269058 0.116589
-1.222849 0.520907 0.384774 128 128 255 -0.953060 0.288612 0.091540
-1.192156 0.520702 0.716399 128 128 255 -0.938183 0.333247 0.093584
-1.161118 0.520373 1.001243 128 128 255 -0.891788 0.435887 0.121310
-1.130449 0.520153 1.168040 128 128 255 -0.636458 0.738609 0.222211
-1.100619 0.520217 1.171822 128 128 255 0.674765 0.695727 0.246283
-1.071658 0.520595 1.003908 128 128 255 0.959144 0.258056 0.115972
-1.043054 0.521125 0.693601 128 128 255 0.986980 0.138917 0.081071
-1.013935 0.521489 0.301265 128 128 255 0.991137 0.110321 0.074008
-0.983981 0.521548 -0.095593 128 128 255 0.987152 0.136879 0.082437
-0.953478 0.521391 -0.420027 128 128 255 0.961858 0.249191 0.112843
-0.922967 0.521222 -0.613101 128 128 255 0.761908 0.615254 0.202381
-0.892920 0.521239 -0.647136 128 128 255 -0.325879 0.916646 0.231438
-0.863337 0.521460 -0.531778 128 128 255 -0.770859 0.622887 0.133374
-0.833820 0.521725 -0.311588 128 128 255 -0.852605 0.511963 0.104685
-0.804033 0.521882 -0.055729 128 128 255 -0.864398 0.490914 0.108715
-0.774011 0.521936 0.157840 128 128 255 -0.821554 0.548959 0.153927
-0.743921 0.521960 0.260112 128 128 255 -0.347421 0.848449 0.399291
-0.713851 0.521997 0.206740 128 128 255 0.973116 0.079371 0.216210
-0.683753 0.522021 -0.011752 128 128 255 0.983724 -0.147133 0.103145
-0.653479 0.521948 -0.367431 128 128 255 0.972813 -0.219062 0.075142
-0.622585 0.521508 -0.800539 128 128 255 0.962039 -0.263905 0.069528
-0.590983 0.520598 -1.231866 128 128 255 0.947916 -0.309120 0.076805
-0.559641 0.519772 -1.579100 128 128 255 0.918360 -0.381676 0.104590
-0.529118 0.519412 -1.773582 128 128 255 0.759447 -0.608073 0.231273
-0.499194 0.519436 -1.773908 128 128 255 -0.912008 -0.305193 0.274041
-0.469843 0.519884 -1.573613 128 128 255 -0.993235 0.058152 0.100508
-0.441152 0.520896 -1.201587 128 128 255 -0.988525 0.136047 0.065655
-0.412318 0.521909 -0.715427 128 128 255 -0.984739 0.164548 0.056690
-0.382413 0.522111 -0.189486 128 128 255 -0.983913 0.168970 0.058003
-0.352228 0.522079 0.299636 128 128 255 -0.986667 0.148103 0.067475
-0.322140 0.522140 0.687064 128 128 255 -0.992909 0.072036 0.094560
-0.291871 0.522015 0.930281 128 128 255 -0.962418 -0.206060 0.176892
-0.261661 0.521937 1.014572 128 128 255 -0.103093 -0.951713 0.289160
-0.231596 0.522032 0.952685 128 128 255 0.597413 -0.787759 0.150114
-0.201543 0.522160 0.779378 128 128 255 0.715430 -0.690920 0.103872
-0.171370 0.522131 0.542547 128 128 255 0.739810 -0.666578 0.091408
-0.141127 0.521972 0.293117 128 128 255 0.731633 -0.675142 0.094323
-0.110950 0.521901 0.075903 128 128 255 0.697106 -0.708035 0.112828
-0.080833 0.521944 -0.076903 128 128 255 0.613484 -0.772628 0.163354
-0.050708 0.521983 -0.148782 128 128 255 0.328059 -0.888135 0.321859
-0.020562 0.521966 -0.138522 128 128 255 -0.789404 -0.338454 0.512143
0.009593 0.521898 -0.057200 128 128 255 -0.909346 0.330074 0.253263
0.039738 0.521832 0.076281 128 128 255 -0.847732 0.502133 0.170916
0.069867 0.521862 0.239892 128 128 255 -0.798019 0.585645 0.142077
0.100000 0.521994 0.412420 128 128 255 -0.753694 0.643380 0.134193
0.130152 0.522130 0.576143 128 128 255 -0.709077 0.691238 0.139285
0.160314 0.522197 0.718109 128 128 255 -0.659265 0.735457 0.156437
0.190470 0.522193 0.830273 128 128 255 -0.596839 0.779669 0.189473
0.220615 0.522153 0.908873 128 128 255 -0.505385 0.825996 0.249634
0.250755 0.522113 0.953440 128 128 255 -0.338137 0.867393 0.365094
0.280897 0.522093 0.965763 128 128 255 0.051457 0.811149 0.582572
0.311049 0.522097 0.948992 128 128 255 0.673260 0.284917 0.682307
0.341211 0.522120 0.906959 128 128 255 0.842744 -0.243028 0.480333
0.371380 0.522147 0.843720 128 128 255 0.817953 -0.462279 0.342419
0.401546 0.522165 0.763276 128 128 255 0.779663 -0.565265 0.269446
0.431701 0.522164 0.669439 128 128 255 0.746812 -0.624758 0.227926
0.461837 0.522144 0.565763 128 128 255 0.719216 -0.664531 0.202800
0.491960 0.522111 0.455545 128 128 255 0.695165 -0.694023 0.187289
0.522079 0.522079 0.341829 128 128 255 0.673204 -0.717693 0.178082
0.552210 0.522063 0.227432 128 128 255 0.652168 -0.737957 0.173482
0.582361 0.522066 0.114953 128 128 255 0.631045 -0.756294 0.172631
0.612530 0.522084 0.006784 128 128 255 0.608846 -0.773706 0.175172
0.642702 0.522102 -0.094889 128 128 255 0.584462 -0.790950 0.181112
0.672861 0.522108 -0.188094 128 128 255 0.556504 -0.808642 0.190789
0.702994 0.522096 -0.271085 128 128 255 0.523068 -0.827294 0.204902
0.733097 0.522065 -0.342358 128 128 255 0.481353 -0.847260 0.224613
0.763171 0.522018 -0.400668 128 128 255 0.427012 -0.868506 0.251710
0.793226 0.521963 -0.445045 128 128 255 0.353022 -0.889930 0.288792
0.823270 0.521908 -0.474809 128 128 255 0.247906 -0.907460 0.339204
0.853317 0.521857 -0.489580 128 128 255 0.094079 -0.909212 0.405565
