ply
format ascii 1.0
element vertex 694
property float x
property float y
property float z
property uchar red
property uchar green
property uchar blue
property float nx
property float ny
property float nz
end_header
-0.825325 0.039351 -0.021857 128 128 255 0.835695 0.239087 0.494420
-0.807358 -0.019456 -0.020258 128 128 255 0.819359 0.290994 0.493936
-0.786048 -0.076246 -0.018704 128 128 255 0.800730 0.341439 0.492190
-0.761604 -0.130866 -0.017197 128 128 255 0.779973 0.390521 0.489015
-0.734230 -0.183183 -0.015741 128 128 255 0.757165 0.438363 0.484292
-0.704121 -0.233078 -0.014338 128 128 255 0.732291 0.485083 0.477959
-0.671464 -0.280444 -0.012988 128 128 255 0.705243 0.530764 0.470023
-0.636436 -0.325181 -0.011689 128 128 255 0.675843 0.575428 0.460563
-0.599208 -0.367196 -0.010438 128 128 255 0.643863 0.619011 0.449739
-0.559947 -0.406395 -0.009233 128 128 255 0.609056 0.661357 0.437787
-0.518818 -0.442689 -0.008068 128 128 255 0.571192 0.702209 0.425020
-0.475989 -0.475989 -0.006939 128 128 255 0.530095 0.741223 0.411812
-0.431632 -0.506210 -0.005839 128 128 255 0.485677 0.777978 0.398582
-0.385927 -0.533272 -0.004764 128 128 255 0.437962 0.812016 0.385771
-0.339065 -0.557107 -0.003708 128 128 255 0.387098 0.842863 0.373814
-0.291245 -0.577656 -0.002668 128 128 255 0.333369 0.870067 0.363109
-0.242676 -0.594879 -0.001641 128 128 255 0.277177 0.893231 0.353992
-0.193577 -0.608756 -0.000624 128 128 255 0.219032 0.912041 0.346707
-0.144167 -0.619293 0.000383 128 128 255 0.159524 0.926286 0.341390
-0.094669 -0.626516 0.001379 128 128 255 0.099288 0.935875 0.338054
-0.045302 -0.630483 0.002360 128 128 255 0.038976 0.940845 0.336587
0.003726 -0.631272 0.003323 128 128 255 -0.020786 0.941364 0.336751
0.052220 -0.628990 0.004262 128 128 255 -0.079431 0.937718 0.338194
0.100000 -0.623758 0.005170 128 128 255 -0.136482 0.930299 0.340466
0.146910 -0.615715 0.006040 128 128 255 -0.191584 0.919576 0.343039
0.192817 -0.605011 0.006863 128 128 255 -0.244521 0.906065 0.345333
0.237607 -0.591798 0.007633 128 128 255 -0.295223 0.890288 0.346744
0.281194 -0.576224 0.008339 128 128 255 -0.343767 0.872723 0.346668
0.323507 -0.558432 0.008977 128 128 255 -0.390355 0.853768 0.344534
0.364496 -0.538550 0.009538 128 128 255 -0.435284 0.833695 0.339825
0.404119 -0.516693 0.010018 128 128 255 -0.478903 0.812623 0.332109
0.442342 -0.492954 0.010413 128 128 255 -0.521568 0.790500 0.321055
0.479131 -0.467410 0.010722 128 128 255 -0.563586 0.767105 0.306465
0.514447 -0.440117 0.010944 128 128 255 -0.605169 0.742064 0.288290
0.548240 -0.411120 0.011082 128 128 255 -0.646395 0.714892 0.266650
0.580450 -0.380450 0.011139 128 128 255 -0.687187 0.685045 0.241842
0.610996 -0.348132 0.011121 128 128 255 -0.727306 0.651986 0.214338
0.639783 -0.314190 0.011033 128 128 255 -0.766371 0.615252 0.184771
0.666699 -0.278656 0.010884 128 128 255 -0.803897 0.574513 0.153898
0.691616 -0.241569 0.010682 128 128 255 -0.839339 0.529613 0.122553
0.714395 -0.202986 0.010436 128 128 255 -0.872150 0.480589 0.091590
0.734892 -0.162981 0.010156 128 128 255 -0.901823 0.427660 0.061826
0.752961 -0.121651 0.009849 128 128 255 -0.927928 0.371207 0.033987
0.768463 -0.079114 0.009524 128 128 255 -0.950132 0.311728 0.008673
0.781266 -0.035512 0.009187 128 128 255 -0.968201 0.249801 -0.013661
0.791258 0.008994 0.008844 128 128 255 -0.981998 0.186037 -0.032723
0.798346 0.054228 0.008498 128 128 255 -0.991463 0.121088 -0.048366
0.802456 0.099954 0.008153 128 128 255 -0.994323 0.086107 -0.062502
1.595739 0.100000 -0.163114 128 128 255 -0.916735 -0.104540 0.385574
1.585385 0.197357 -0.161853 128 128 255 -0.914838 -0.130850 0.382033
1.568972 0.293394 -0.160635 128 128 255 -0.902861 -0.188342 0.386484
1.546567 0.387740 -0.159451 128 128 255 -0.887884 -0.245693 0.388970
1.518239 0.480016 -0.158285 128 128 255 -0.869639 -0.302969 0.389793
1.484066 0.569827 -0.157121 128 128 255 -0.847800 -0.360112 0.389300
1.444146 0.656763 -0.155939 128 128 255 -0.822022 -0.416933 0.387876
1.398603 0.740400 -0.154718 128 128 255 -0.791986 -0.473101 0.385920
1.347602 0.820303 -0.153436 128 128 255 -0.757440 -0.528164 0.383832
1.291355 0.896038 -0.152073 128 128 255 -0.718234 -0.581567 0.381994
1.230124 0.967175 -0.150612 128 128 255 -0.674344 -0.632681 0.380756
1.164231 1.033306 -0.149037 128 128 255 -0.625894 -0.680838 0.380416
1.094051 1.094051 -0.147336 128 128 255 -0.573152 -0.725379 0.381212
1.020012 1.149072 -0.145503 128 128 255 -0.516531 -0.765681 0.383312
0.942590 1.198084 -0.143533 128 128 255 -0.456571 -0.801202 0.386805
0.862299 1.240861 -0.141429 128 128 255 -0.393913 -0.831505 0.391705
0.779682 1.277244 -0.139195 128 128 255 -0.329266 -0.856283 0.397948
0.695297 1.307142 -0.136841 128 128 255 -0.263374 -0.875374 0.405405
0.609704 1.330535 -0.134381 128 128 255 -0.196977 -0.888761 0.413888
0.523459 1.347469 -0.131830 128 128 255 -0.130776 -0.896566 0.423163
0.437094 1.358051 -0.129207 128 128 255 -0.065395 -0.899036 0.432964
0.351115 1.362442 -0.126530 128 128 255 -0.001365 -0.896515 0.443011
0.265994 1.360846 -0.123819 128 128 255 0.060904 -0.889415 0.453025
0.182159 1.353503 -0.121093 128 128 255 0.121123 -0.878181 0.462738
0.100000 1.340675 -0.118370 128 128 255 0.179127 -0.863258 0.471909
0.019864 1.322638 -0.115665 128 128 255 0.234859 -0.845056 0.480335
-0.057940 1.299674 -0.112991 128 128 255 0.288352 -0.823924 0.487855
-0.133138 1.272065 -0.110359 128 128 255 0.339704 -0.800132 0.494358
-0.205485 1.240085 -0.107775 128 128 255 0.389039 -0.773861 0.499789
-0.274758 1.204003 -0.105243 128 128 255 0.436486 -0.745198 0.504142
-0.340754 1.164075 -0.102763 128 128 255 0.482148 -0.714152 0.507465
-0.403282 1.120554 -0.100333 128 128 255 0.526068 -0.680665 0.509851
-0.462159 1.073688 -0.097948 128 128 255 0.568220 -0.644639 0.511435
-0.517213 1.023725 -0.095602 128 128 255 0.608497 -0.605967 0.512382
-0.568277 0.970916 -0.093286 128 128 255 0.646707 -0.564558 0.512879
-0.615195 0.915524 -0.090991 128 128 255 0.682586 -0.520368 0.513122
-0.657822 0.857822 -0.088710 128 128 255 0.715811 -0.473428 0.513303
-0.696028 0.798098 -0.086434 128 128 255 0.746030 -0.423858 0.513598
-0.729708 0.736657 -0.084158 128 128 255 0.772886 -0.371876 0.514155
-0.758779 0.673818 -0.081875 128 128 255 0.796050 -0.317799 0.515081
-0.783192 0.609911 -0.079584 128 128 255 0.815250 -0.262033 0.516437
-0.802929 0.545275 -0.077283 128 128 255 0.830296 -0.205051 0.518231
-0.818013 0.480253 -0.074976 128 128 255 0.841100 -0.147368 0.520417
-0.828501 0.415184 -0.072667 128 128 255 0.847682 -0.089512 0.522898
-0.834489 0.350396 -0.070362 128 128 255 0.850175 -0.031987 0.525528
-0.836107 0.286203 -0.068069 128 128 255 0.848809 0.024759 0.528119
-0.833514 0.222899 -0.065798 128 128 255 0.843895 0.080354 0.530457
-0.826892 0.160752 -0.063560 128 128 255 0.835796 0.134531 0.532303
-0.816444 0.100000 -0.061365 128 128 255 0.824895 0.187129 0.533415
-0.802379 0.040855 -0.059224 128 128 255 0.811561 0.238103 0.533550
-0.784913 -0.016501 -0.057145 128 128 255 0.796115 0.287507 0.532485
-0.764257 -0.071911 -0.055138 128 128 255 0.778801 0.335478 0.530022
-0.740616 -0.125242 -0.053207 128 128 255 0.759760 0.382210 0.526003
-0.714183 -0.176378 -0.051358 128 128 255 0.739020 0.427917 0.520324
-0.685138 -0.225215 -0.049590 128 128 255 0.716488 0.472801 0.512937
-0.653647 -0.271657 -0.047903 128 128 255 0.691961 0.517013 0.503872
-0.619863 -0.315613 -0.046294 128 128 255 0.665150 0.560620 0.493235
-0.583933 -0.356989 -0.044757 128 128 255 0.635704 0.603581 0.481216
-0.545994 -0.395689 -0.043284 128 128 255 0.603259 0.645734 0.468088
-0.506189 -0.431613 -0.041866 128 128 255 0.567475 0.686788 0.454197
-0.464659 -0.464659 -0.040493 128 128 255 0.528088 0.726336 0.439953
-0.421558 -0.494723 -0.039155 128 128 255 0.484948 0.763882 0.425805
-0.377051 -0.521705 -0.037842 128 128 255 0.438049 0.798868 0.412217
-0.331319 -0.545515 -0.036544 128 128 255 0.387547 0.830723 0.399634
-0.284557 -0.566073 -0.035255 128 128 255 0.333762 0.858897 0.388457
-0.236977 -0.583321 -0.033969 128 128 255 0.277172 0.882908 0.379010
-0.188800 -0.597224 -0.032682 128 128 255 0.218383 0.902375 0.371521
-0.140257 -0.607776 -0.031395 128 128 255 0.158100 0.917046 0.366102
-0.091584 -0.615000 -0.030108 128 128 255 0.097086 0.926821 0.362737
-0.043009 -0.618953 -0.028828 128 128 255 0.036116 0.931755 0.361286
0.005247 -0.619722 -0.027562 128 128 255 -0.024069 0.932067 0.361485
0.052978 -0.617424 -0.026319 128 128 255 -0.082804 0.928119 0.362959
0.100000 -0.612197 -0.025113 128 128 255 -0.139544 0.920396 0.365238
0.146156 -0.604198 -0.023956 128 128 255 -0.193893 0.909475 0.367777
0.191313 -0.593594 -0.022862 128 128 255 -0.245632 0.895977 0.369987
0.235371 -0.580557 -0.021846 128 128 255 -0.294725 0.880517 0.371251
0.278254 -0.565252 -0.020922 128 128 255 -0.341310 0.863652 0.370962
0.319909 -0.547831 -0.020102 128 128 255 -0.385682 0.845827 0.368546
0.360305 -0.528431 -0.019397 128 128 255 -0.428254 0.827329 0.363491
0.399420 -0.507163 -0.018817 128 128 255 -0.469503 0.808255 0.355374
0.437240 -0.484118 -0.018366 128 128 255 -0.509916 0.788495 0.343892
0.473750 -0.459356 -0.018047 128 128 255 -0.549929 0.767733 0.328881
0.508922 -0.432918 -0.017861 128 128 255 -0.589871 0.745480 0.310340
0.542718 -0.404823 -0.017803 128 128 255 -0.629912 0.721117 0.288447
0.575076 -0.375076 -0.017867 128 128 255 -0.670041 0.693961 0.263558
0.605913 -0.343674 -0.018043 128 128 255 -0.710057 0.663346 0.236201
0.635122 -0.310614 -0.018319 128 128 255 -0.749583 0.628695 0.207045
0.662573 -0.275899 -0.018683 128 128 255 -0.788105 0.589585 0.176860
0.688115 -0.239548 -0.019118 128 128 255 -0.825018 0.545795 0.146468
0.711583 -0.201599 -0.019609 128 128 255 -0.859686 0.497319 0.116679
0.732803 -0.162115 -0.020140 128 128 255 -0.891487 0.444368 0.088247
0.751598 -0.121188 -0.020698 128 128 255 -0.919863 0.387336 0.061826
0.767800 -0.078936 -0.021267 128 128 255 -0.944344 0.326766 0.037937
0.781251 -0.035509 -0.021838 128 128 255 -0.964564 0.263305 0.016959
0.791817 0.008921 -0.022400 128 128 255 -0.980270 0.197660 -0.000876
0.799387 0.054160 -0.022948 128 128 255 -0.991315 0.130597 -0.015471
0.803880 0.099954 -0.023477 128 128 255 -0.995081 0.094623 -0.029317
1.568653 0.100000 -0.224968 128 128 255 -0.895188 -0.109218 0.432100
1.558021 0.195564 -0.223307 128 128 255 -0.893420 -0.133971 0.428781
1.541600 0.289790 -0.221735 128 128 255 -0.881384 -0.188544 0.433143
1.519441 0.382344 -0.220234 128 128 255 -0.866606 -0.243185 0.435724
1.491585 0.472874 -0.218782 128 128 255 -0.848752 -0.298020 0.436810
1.458081 0.561006 -0.217351 128 128 255 -0.827427 -0.353030 0.436732
1.418990 0.646344 -0.215911 128 128 255 -0.802214 -0.408036 0.435844
1.374406 0.728467 -0.214429 128 128 255 -0.772730 -0.462695 0.434513
1.324460 0.806942 -0.212872 128 128 255 -0.738669 -0.516521 0.433099
1.269337 0.881326 -0.211210 128 128 255 -0.699840 -0.568905 0.431938
1.209278 0.951179 -0.209417 128 128 255 -0.656200 -0.619155 0.431333
1.144588 1.016079 -0.207467 128 128 255 -0.607872 -0.666536 0.431535
1.075635 1.075635 -0.205345 128 128 255 -0.555148 -0.710316 0.432738
1.002845 1.129497 -0.203039 128 128 255 -0.498482 -0.749819 0.435071
0.926697 1.177372 -0.200544 128 128 255 -0.438471 -0.784460 0.438595
0.847714 1.219033 -0.197863 128 128 255 -0.375824 -0.813781 0.443301
0.766448 1.254322 -0.195003 128 128 255 -0.311319 -0.837478 0.449122
0.683469 1.283157 -0.191980 128 128 255 -0.245765 -0.855409 0.455932
0.599348 1.305534 -0.188813 128 128 255 -0.179954 -0.867601 0.463558
0.514648 1.321514 -0.185526 128 128 255 -0.114622 -0.874228 0.471792
0.429907 1.331229 -0.182144 128 128 255 -0.050411 -0.875597 0.480404
0.345629 1.334861 -0.178697 128 128 255 0.012153 -0.872114 0.489152
0.262280 1.332640 -0.175212 128 128 255 0.072683 -0.864242 0.497799
0.180279 1.324824 -0.171717 128 128 255 0.130931 -0.852468 0.506118
0.100000 1.311697 -0.168237 128 128 255 0.186782 -0.837263 0.513910
0.021771 1.293547 -0.164794 128 128 255 0.240240 -0.819048 0.521005
-0.054121 1.270665 -0.161405 128 128 255 0.291401 -0.798165 0.527275
-0.127424 1.243335 -0.158085 128 128 255 0.340424 -0.774861 0.532636
-0.197914 1.211829 -0.154841 128 128 255 0.387493 -0.749281 0.537054
-0.265390 1.176404 -0.151678 128 128 255 0.432781 -0.721467 0.540542
-0.329666 1.137304 -0.148594 128 128 255 0.476425 -0.691373 0.543159
-0.390564 1.094765 -0.145585 128 128 255 0.518491 -0.658888 0.545008
-0.447913 1.049014 -0.142642 128 128 255 0.558957 -0.623862 0.546227
-0.501546 1.000277 -0.139753 128 128 255 0.597705 -0.586143 0.546978
-0.551298 0.948788 -0.136907 128 128 255 0.634522 -0.545609 0.547442
-0.597011 0.894789 -0.134089 128 128 255 0.669110 -0.502203 0.547799
-0.638537 0.838537 -0.131286 128 128 255 0.701112 -0.455954 0.548222
-0.675742 0.780308 -0.128487 128 128 255 0.730136 -0.407003 0.548862
-0.708515 0.720396 -0.125682 128 128 255 0.755795 -0.355604 0.549836
-0.736772 0.659113 -0.122864 128 128 255 0.777739 -0.302126 0.551218
-0.760459 0.596786 -0.120030 128 128 255 0.795692 -0.247033 0.553036
-0.779562 0.533752 -0.117179 128 128 255 0.809475 -0.190862 0.555268
-0.794106 0.470351 -0.114317 128 128 255 0.819031 -0.134186 0.557837
-0.804157 0.406920 -0.111449 128 128 255 0.824430 -0.077582 0.560621
-0.809821 0.343786 -0.108587 128 128 255 0.825865 -0.021588 0.563455
-0.811236 0.281256 -0.105744 128 128 255 0.823635 0.033333 0.566140
-0.808576 0.219616 -0.102934 128 128 255 0.818125 0.086817 0.568450
-0.802034 0.159122 -0.100173 128 128 255 0.809765 0.138626 0.570144
-0.791820 0.100000 -0.097477 128 128 255 0.798996 0.188655 0.570976
-0.778152 0.042443 -0.094862 128 128 255 0.786229 0.236929 0.570708
-0.761248 -0.013385 -0.092340 128 128 255 0.771805 0.283589 0.569118
-0.741316 -0.067348 -0.089923 128 128 255 0.755960 0.328868 0.566013
-0.718554 -0.119331 -0.087618 128 128 255 0.738803 0.373062 0.561244
-0.693141 -0.169235 -0.085431 128 128 255 0.720303 0.416482 0.554713
-0.665238 -0.216972 -0.083361 128 128 255 0.700280 0.459415 0.546394
-0.634990 -0.262457 -0.081405 128 128 255 0.678427 0.502082 0.536331
-0.602525 -0.305603 -0.079557 128 128 255 0.654330 0.544598 0.524657
-0.567960 -0.346317 -0.077806 128 128 255 0.627515 0.586940 0.511592
-0.531409 -0.384497 -0.076139 128 128 255 0.597492 0.628932 0.497441
-0.492984 -0.420033 -0.074540 128 128 255 0.563812 0.670244 0.482585
-0.452807 -0.452807 -0.072994 128 128 255 0.526124 0.710402 0.467464
-0.411011 -0.482697 -0.071484 128 128 255 0.484221 0.748819 0.452548
-0.367748 -0.509581 -0.069994 128 128 255 0.438076 0.784838 0.438314
-0.323189 -0.533347 -0.068509 128 128 255 0.387858 0.817777 0.425215
-0.277527 -0.553896 -0.067019 128 128 255 0.333939 0.846987 0.413640
-0.230975 -0.571151 -0.065514 128 128 255 0.276878 0.871895 0.403902
-0.183762 -0.585062 -0.063989 128 128 255 0.217386 0.892057 0.396203
-0.136129 -0.595614 -0.062445 128 128 255 0.156292 0.907183 0.390631
-0.088322 -0.602828 -0.060884 128 128 255 0.094486 0.917165 0.387145
-0.040584 -0.606762 -0.059316 128 128 255 0.032871 0.922088 0.385582
0.006855 -0.607509 -0.057752 128 128 255 -0.027700 0.922226 0.385657
0.053779 -0.605200 -0.056209 128 128 255 -0.086467 0.918023 0.386984
0.100000 -0.599987 -0.054705 128 128 255 -0.142822 0.910065 0.389081
0.145359 -0.592047 -0.053260 128 128 255 -0.196337 0.899032 0.391399
0.189730 -0.581564 -0.051898 128 128 255 -0.246793 0.885648 0.393345
0.233018 -0.568727 -0.050641 128 128 255 -0.294189 0.870619 0.394304
0.275162 -0.553715 -0.049508 128 128 255 -0.338733 0.854568 0.393666
0.316128 -0.536692 -0.048521 128 128 255 -0.380813 0.837978 0.390863
0.355900 -0.517797 -0.047695 128 128 255 -0.420954 0.821139 0.385393
0.394479 -0.497144 -0.047043 128 128 255 -0.459768 0.804114 0.376848
0.431868 -0.474813 -0.046573 128 128 255 -0.497872 0.786722 0.364955
0.468068 -0.450852 -0.046291 128 128 255 -0.535831 0.768551 0.349591
0.503064 -0.425283 -0.046193 128 128 255 -0.574087 0.748992 0.330811
0.536824 -0.398103 -0.046275 128 128 255 -0.612904 0.727297 0.308850
0.569289 -0.369289 -0.046525 128 128 255 -0.652337 0.702659 0.284124
0.600369 -0.338812 -0.046928 128 128 255 -0.692218 0.674298 0.257207
0.629947 -0.306643 -0.047467 128 128 255 -0.732173 0.641542 0.228792
0.657875 -0.272760 -0.048119 128 128 255 -0.771656 0.603895 0.199644
0.683979 -0.237160 -0.048862 128 128 255 -0.810000 0.561083 0.170548
0.708069 -0.199866 -0.049671 128 128 255 -0.846474 0.513072 0.142260
0.729942 -0.160931 -0.050523 128 128 255 -0.880346 0.460066 0.115453
0.749395 -0.120440 -0.051396 128 128 255 -0.910927 0.402475 0.090696
0.766232 -0.078516 -0.052269 128 128 255 -0.937612 0.340883 0.068427
0.780271 -0.035314 -0.053125 128 128 255 -0.959909 0.276004 0.048953
0.791358 0.008981 -0.053952 128 128 255 -0.977456 0.208631 0.032446
0.799368 0.054161 -0.054739 128 128 255 -0.990021 0.139638 0.018954
0.804210 0.099954 -0.055482 128 128 255 -0.994692 0.102750 0.005432
1.538678 0.100000 -0.284868 128 128 255 -0.871659 -0.113960 0.476679
1.527819 0.193584 -0.282782 128 128 255 -0.869997 -0.137123 0.473605
1.511436 0.285819 -0.280839 128 128 255 -0.857884 -0.188733 0.477927
1.489562 0.376401 -0.279014 128 128 255 -0.843252 -0.240612 0.480657
1.462215 0.465004 -0.277274 128 128 255 -0.825711 -0.292940 0.482066
1.429414 0.551275 -0.275580 128 128 255 -0.804802 -0.345726 0.482460
1.391192 0.634829 -0.273887 128 128 255 -0.780050 -0.398797 0.482165
1.347610 0.715253 -0.272151 128 128 255 -0.751019 -0.451796 0.481509
1.298775 0.792113 -0.270327 128 128 255 -0.717358 -0.504202 0.480809
1.244845 0.864961 -0.268372 128 128 255 -0.678851 -0.555356 0.480355
1.186044 0.933351 -0.266247 128 128 255 -0.635444 -0.604507 0.480399
1.122663 0.996851 -0.263923 128 128 255 -0.587268 -0.650859 0.481142
1.055062 1.055062 -0.261374 128 128 255 -0.534645 -0.693627 0.482738
0.983666 1.107628 -0.258587 128 128 255 -0.478074 -0.732087 0.485277
0.908957 1.154253 -0.255555 128 128 255 -0.418207 -0.765627 0.488793
0.831461 1.194708 -0.252281 128 128 255 -0.355814 -0.793781 0.493264
0.751738 1.228844 -0.248778 128 128 255 -0.291733 -0.816255 0.498618
0.670366 1.256588 -0.245067 128 128 255 -0.226824 -0.832940 0.504738
0.587922 1.277948 -0.241174 128 128 255 -0.161920 -0.843906 0.511474
0.504971 1.293007 -0.237131 128 128 255 -0.097776 -0.849380 0.518645
0.422052 1.301913 -0.232976 128 128 255 -0.035039 -0.849726 0.526059
0.339664 1.304870 -0.228745 128 128 255 0.025784 -0.845399 0.533513
0.258263 1.302126 -0.224477 128 128 255 0.084337 -0.836906 0.540810
0.178256 1.293958 -0.220208 128 128 255 0.140418 -0.824766 0.547763
0.100000 1.280660 -0.215972 128 128 255 0.193966 -0.809462 0.554210
0.023804 1.262532 -0.211795 128 128 255 0.245046 -0.791413 0.560016
-0.050067 1.239868 -0.207702 128 128 255 0.293814 -0.770945 0.565081
-0.121379 1.212950 -0.203708 128 128 255 0.340486 -0.748275 0.569345
-0.189932 1.182041 -0.199823 128 128 255 0.385297 -0.723502 0.572793
-0.255541 1.147389 -0.196050 128 128 255 0.428460 -0.696617 0.575454
-0.318033 1.109222 -0.192386 128 128 255 0.470136 -0.667520 0.577399
-0.377245 1.067757 -0.188822 128 128 255 0.510403 -0.636045 0.578736
-0.433011 1.023201 -0.185345 128 128 255 0.549236 -0.601994 0.579606
-0.485167 0.975764 -0.181938 128 128 255 0.586499 -0.565175 0.580169
-0.533549 0.925658 -0.178582 128 128 255 0.621947 -0.525445 0.580594
-0.577999 0.873109 -0.175260 128 128 255 0.655246 -0.482738 0.581048
-0.618363 0.818363 -0.171952 128 128 255 0.685997 -0.437097 0.581682
-0.654506 0.761684 -0.168643 128 128 255 0.713773 -0.388693 0.582619
-0.686311 0.703358 -0.165320 128 128 255 0.738157 -0.337830 0.583948
-0.713693 0.643692 -0.161975 128 128 255 0.758783 -0.284934 0.585714
-0.736601 0.583012 -0.158604 128 128 255 0.775379 -0.230536 0.587912
-0.755022 0.521650 -0.155208 128 128 255 0.787787 -0.175238 0.590493
-0.768990 0.459947 -0.151794 128 128 255 0.795992 -0.119676 0.593358
-0.778577 0.398237 -0.148373 128 128 255 0.800119 -0.064473 0.596366
-0.783901 0.336840 -0.144961 128 128 255 0.800432 -0.010194 0.599338
-0.785113 0.276060 -0.141577 128 128 255 0.797305 0.042687 0.602065
-0.782398 0.216170 -0.138242 128 128 255 0.791199 0.093826 0.604319
-0.775961 0.157413 -0.134979 128 128 255 0.782614 0.143022 0.605855
-0.766020 0.100000 -0.131809 128 128 255 0.772046 0.190233 0.606429
-0.752797 0.044105 -0.128752 128 128 255 0.759944 0.235564 0.605800
-0.736511 -0.010129 -0.125828 128 128 255 0.746662 0.279251 0.603750
-0.717366 -0.062584 -0.123049 128 128 255 0.732425 0.321633 0.600088
-0.695548 -0.113166 -0.120426 128 128 255 0.717301 0.363108 0.594670
-0.671221 -0.161794 -0.117962 128 128 255 0.701187 0.404091 0.587407
-0.644527 -0.208393 -0.115657 128 128 255 0.683812 0.444960 0.578284
-0.615586 -0.252888 -0.113504 128 128 255 0.664751 0.486008 0.567365
-0.584498 -0.295195 -0.111492 128 128 255 0.643463 0.527392 0.554809
-0.551355 -0.335222 -0.109603 128 128 255 0.619341 0.569109 0.540862
-0.516241 -0.372858 -0.107818 128 128 255 0.591769 0.610965 0.525862
-0.479244 -0.407983 -0.106114 128 128 255 0.560190 0.652582 0.510219
-0.440462 -0.440462 -0.104466 128 128 255 0.524171 0.693412 0.494394
-0.400012 -0.470154 -0.102851 128 128 255 0.483453 0.732770 0.478875
-0.358030 -0.496917 -0.101245 128 128 255 0.437995 0.769890 0.464143
-0.314682 -0.520616 -0.099628 128 128 255 0.387992 0.803979 0.450644
-0.270158 -0.541133 -0.097983 128 128 255 0.333874 0.834279 0.438755
-0.224674 -0.558374 -0.096298 128 128 255 0.276287 0.860133 0.428762
-0.178466 -0.572277 -0.094567 128 128 255 0.216058 0.881027 0.420845
-0.131785 -0.582817 -0.092790 128 128 255 0.154140 0.896639 0.415065
-0.084888 -0.590012 -0.090972 128 128 255 0.091555 0.906863 0.411360
-0.038030 -0.593924 -0.089128 128 128 255 0.029332 0.911816 0.409549
0.008547 -0.594655 -0.087274 128 128 255 -0.031567 0.911837 0.409338
0.054621 -0.592344 -0.085433 128 128 255 -0.090296 0.907454 0.410334
0.100000 -0.587163 -0.083634 128 128 255 -0.146186 0.899353 0.412059
0.144524 -0.579302 -0.081905 128 128 255 -0.198784 0.888321 0.413970
0.188071 -0.568965 -0.080279 128 128 255 -0.247879 0.875178 0.415476
0.230557 -0.556355 -0.078787 128 128 255 -0.293508 0.860710 0.415971
0.271934 -0.541665 -0.077458 128 128 255 -0.335946 0.845598 0.414855
0.312181 -0.525066 -0.076321 128 128 255 -0.375679 0.830349 0.411565
0.351305 -0.506703 -0.075397 128 128 255 -0.413347 0.815243 0.405614
0.389321 -0.486685 -0.074705 128 128 255 -0.449686 0.800297 0.396619
0.426252 -0.465085 -0.074255 128 128 255 -0.485450 0.785252 0.384339
0.462112 -0.441939 -0.074053 128 128 255 -0.521330 0.769594 0.368700
0.496898 -0.417247 -0.074095 128 128 255 -0.557880 0.752596 0.349814
0.530582 -0.390985 -0.074374 128 128 255 -0.595455 0.733393 0.327977
0.563107 -0.363107 -0.074872 128 128 255 -0.634171 0.711068 0.303659
0.594376 -0.333557 -0.075569 128 128 255 -0.673894 0.684747 0.277468
0.624261 -0.302280 -0.076437 128 128 255 -0.714243 0.653684 0.250107
0.652597 -0.269234 -0.077446 128 128 255 -0.754639 0.617329 0.222319
0.679190 -0.234395 -0.078565 128 128 255 -0.794348 0.575369 0.194836
0.703825 -0.197773 -0.079758 128 128 255 -0.832551 0.527751 0.168336
0.726274 -0.159411 -0.080993 128 128 255 -0.868401 0.474673 0.143406
0.746307 -0.119392 -0.082238 128 128 255 -0.901082 0.416564 0.120522
0.763704 -0.077839 -0.083467 128 128 255 -0.929863 0.354043 0.100039
0.778264 -0.034915 -0.084656 128 128 255 -0.954132 0.287883 0.082190
0.789814 0.009184 -0.085786 128 128 255 -0.973425 0.218960 0.067087
0.798217 0.054236 -0.086846 128 128 255 -0.987435 0.148244 0.054741
0.803374 0.099954 -0.087830 128 128 255 -0.993003 0.110529 0.041574
1.506004 0.100000 -0.342687 128 128 255 -0.846284 -0.118824 0.519311
1.494968 0.191431 -0.340154 128 128 255 -0.844701 -0.140370 0.516503
1.478665 0.281505 -0.337826 128 128 255 -0.832480 -0.188989 0.520826
1.457111 0.369946 -0.335667 128 128 255 -0.817930 -0.238069 0.523749
1.430302 0.456453 -0.333634 128 128 255 -0.800611 -0.287832 0.525523
1.398232 0.540690 -0.331674 128 128 255 -0.780011 -0.338311 0.526430
1.360909 0.622285 -0.329730 128 128 255 -0.755607 -0.389334 0.526761
1.318367 0.700832 -0.327740 128 128 255 -0.726920 -0.440526 0.526806
1.270688 0.775897 -0.325647 128 128 255 -0.693570 -0.491330 0.526836
1.218013 0.847033 -0.323396 128 128 255 -0.655324 -0.541042 0.527090
1.160549 0.913788 -0.320937 128 128 255 -0.612130 -0.588859 0.527770
1.098575 0.975727 -0.318231 128 128 255 -0.564137 -0.633934 0.529034
1.032445 1.032445 -0.315247 128 128 255 -0.511700 -0.675438 0.530987
0.962582 1.083586 -0.311968 128 128 255 -0.455364 -0.712616 0.533688
0.889466 1.128853 -0.308386 128 128 255 -0.395835 -0.744839 0.537150
0.813630 1.168023 -0.304507 128 128 255 -0.333938 -0.771645 0.541340
0.735635 1.200953 -0.300348 128 128 255 -0.270560 -0.792765 0.546187
0.656062 1.227583 -0.295936 128 128 255 -0.206603 -0.808124 0.551589
0.575491 1.247936 -0.291307 128 128 255 -0.142920 -0.817838 0.557418
0.494483 1.262109 -0.286502 128 128 255 -0.080276 -0.822189 0.563526
0.413573 1.270269 -0.281569 128 128 255 -0.019306 -0.821587 0.569756
0.333252 1.272636 -0.276555 128 128 255 0.039511 -0.816533 0.575946
0.253964 1.269473 -0.271509 128 128 255 0.095857 -0.807565 0.581937
0.176101 1.261070 -0.266476 128 128 255 0.149583 -0.795219 0.587581
0.100000 1.247730 -0.261497 128 128 255 0.200685 -0.779985 0.592747
0.025952 1.229755 -0.256606 128 128 255 0.249289 -0.762269 0.597329
-0.045797 1.207439 -0.251831 128 128 255 0.295609 -0.742368 0.601253
-0.115036 1.181057 -0.247189 128 128 255 0.339911 -0.720459 0.604483
-0.181578 1.150864 -0.242691 128 128 255 0.382475 -0.696593 0.607018
-0.245256 1.117092 -0.238338 128 128 255 0.423548 -0.670705 0.608902
-0.305910 1.079954 -0.234123 128 128 255 0.463309 -0.642638 0.610214
-0.363383 1.039647 -0.230034 128 128 255 0.501836 -0.612172 0.611070
-0.417514 0.996361 -0.226050 128 128 255 0.539092 -0.579064 0.611608
-0.468144 0.950287 -0.222150 128 128 255 0.574915 -0.543089 0.611986
-0.515106 0.901621 -0.218309 128 128 255 0.609024 -0.504088 0.612360
-0.558239 0.850577 -0.214500 128 128 255 0.641041 -0.461998 0.612882
-0.597387 0.797387 -0.210703 128 128 255 0.670524 -0.416888 0.613680
-0.632412 0.742308 -0.206895 128 128 255 0.697008 -0.368968 0.614852
-0.663195 0.685620 -0.203062 128 128 255 0.720051 -0.318599 0.616458
-0.689653 0.627629 -0.199194 128 128 255 0.739280 -0.266276 0.618516
-0.711735 0.568655 -0.195289 128 128 255 0.754429 -0.212603 0.620997
-0.729436 0.509032 -0.191350 128 128 255 0.765373 -0.158249 0.623828
-0.742796 0.449098 -0.187388 128 128 255 0.772145 -0.103912 0.626893
-0.751900 0.389181 -0.183418 128 128 255 0.774936 -0.050256 0.630038
-0.756876 0.329599 -0.179464 128 128 255 0.774085 0.002128 0.633078
-0.757890 0.270645 -0.175552 128 128 255 0.770049 0.052766 0.635799
-0.755136 0.212581 -0.171709 128 128 255 0.763363 0.101336 0.637972
-0.748831 0.155635 -0.167966 128 128 255 0.754597 0.147689 0.639352
-0.739199 0.100000 -0.164352 128 128 255 0.744303 0.191849 0.639693
-0.726466 0.045831 -0.160892 128 128 255 0.732960 0.234009 0.638756
-0.710849 -0.006750 -0.157609 128 128 255 0.720932 0.274507 0.636319
-0.692543 -0.057647 -0.154521 128 128 255 0.708425 0.313793 0.632193
-0.671724 -0.106783 -0.151638 128 128 255 0.695458 0.352377 0.626234
-0.648539 -0.154095 -0.148964 128 128 255 0.681850 0.390781 0.618362
-0.623106 -0.199520 -0.146495 128 128 255 0.667226 0.429476 0.608572
-0.595520 -0.242993 -0.144219 128 128 255 0.651040 0.468827 0.596949
-0.565856 -0.284432 -0.142119 128 128 255 0.632618 0.509038 0.583673
-0.534176 -0.323743 -0.140171 128 128 255 0.611215 0.550118 0.569022
-0.500537 -0.360808 -0.138345 128 128 255 0.586092 0.591852 0.553361
-0.465003 -0.395494 -0.136610 128 128 255 0.556586 0.633809 0.537121
-0.427649 -0.427649 -0.134932 128 128 255 0.522186 0.675357 0.520783
-0.388576 -0.457114 -0.133278 128 128 255 0.482591 0.715712 0.504839
-0.347909 -0.483726 -0.131616 128 128 255 0.437756 0.753989 0.489766
-0.305805 -0.507330 -0.129920 128 128 255 0.387905 0.789279 0.475992
-0.262454 -0.527790 -0.128166 128 128 255 0.333537 0.820717 0.463872
-0.218076 -0.544994 -0.126340 128 128 255 0.275393 0.847554 0.453664
-0.172913 -0.558870 -0.124434 128 128 255 0.214417 0.869217 0.445519
-0.127226 -0.569386 -0.122448 128 128 255 0.151690 0.885354 0.439474
-0.081283 -0.576558 -0.120393 128 128 255 0.088367 0.895865 0.435450
-0.035350 -0.580450 -0.118285 128 128 255 0.025596 0.900908 0.433255
0.010322 -0.581173 -0.116150 128 128 255 -0.035554 0.900887 0.432596
0.055504 -0.578878 -0.114019 128 128 255 -0.094159 0.896423 0.433083
0.100000 -0.573750 -0.111930 128 128 255 -0.149498 0.888300 0.434250
0.143652 -0.565996 -0.109923 128 128 255 -0.201098 0.877405 0.435570
0.186342 -0.555835 -0.108041 128 128 255 -0.248760 0.864647 0.436468
0.227997 -0.543484 -0.106325 128 128 255 -0.292562 0.850885 0.436350
0.268579 -0.529146 -0.104816 128 128 255 -0.332852 0.836843 0.434631
0.308085 -0.513000 -0.103548 128 128 255 -0.370205 0.823038 0.430762
0.346537 -0.495192 -0.102553 128 128 255 -0.405380 0.809727 0.424275
0.383967 -0.475829 -0.101852 128 128 255 -0.439235 0.796870 0.414815
0.420414 -0.454973 -0.101460 128 128 255 -0.472657 0.784122 0.402180
0.455903 -0.432647 -0.101382 128 128 255 -0.506460 0.770865 0.386350
0.490442 -0.408834 -0.101614 128 128 255 -0.541308 0.756262 0.367496
0.524008 -0.383488 -0.102144 128 128 255 -0.577644 0.739343 0.345976
0.556540 -0.356540 -0.102948 128 128 255 -0.615639 0.719103 0.322305
0.587939 -0.327911 -0.103997 128 128 255 -0.655181 0.694593 0.297115
0.618062 -0.297523 -0.105256 128 128 255 -0.695886 0.665017 0.271099
0.646730 -0.265313 -0.106684 128 128 255 -0.737133 0.629785 0.244960
0.673729 -0.231242 -0.108238 128 128 255 -0.778123 0.588561 0.219362
0.698822 -0.195306 -0.109872 128 128 255 -0.817945 0.541277 0.194896
0.721758 -0.157541 -0.111544 128 128 255 -0.855644 0.488130 0.172052
0.742286 -0.118027 -0.113213 128 128 255 -0.890288 0.429560 0.151211
0.760164 -0.076890 -0.114843 128 128 255 -0.921025 0.366221 0.132645
0.775171 -0.034300 -0.116403 128 128 255 -0.947133 0.298939 0.116514
0.787120 0.009539 -0.117872 128 128 255 -0.968054 0.228663 0.102879
0.795866 0.054391 -0.119233 128 128 255 -0.983419 0.156452 0.091706
0.801303 0.099954 -0.120480 128 128 255 -0.989872 0.118007 0.078920
1.470820 0.100000 -0.398313 128 128 255 -0.819178 -0.123870 0.560003
1.459655 0.189117 -0.395315 128 128 255 -0.817645 -0.143779 0.557480
1.443471 0.276871 -0.392587 128 128 255 -0.805275 -0.189393 0.561839
1.422266 0.363015 -0.390085 128 128 255 -0.790734 -0.235647 0.564986
1.396020 0.447267 -0.387750 128 128 255 -0.773538 -0.282799 0.567154
1.364704 0.529309 -0.385517 128 128 255 -0.753133 -0.330896 0.568593
1.328302 0.608779 -0.383313 128 128 255 -0.728957 -0.379763 0.569562
1.286830 0.685280 -0.381063 128 128 255 -0.700502 -0.429005 0.570308
1.240350 0.758381 -0.378694 128 128 255 -0.667371 -0.478030 0.571055
1.188984 0.827636 -0.376137 128 128 255 -0.629325 -0.526093 0.571994
1.132929 0.892594 -0.373334 128 128 255 -0.586325 -0.572345 0.573275
1.072453 0.952819 -0.370234 128 128 255 -0.538545 -0.615899 0.575011
1.007906 1.007906 -0.366803 128 128 255 -0.486380 -0.655893 0.577269
0.939706 1.057501 -0.363018 128 128 255 -0.430421 -0.691554 0.580078
0.868334 1.101312 -0.358875 128 128 255 -0.371426 -0.722254 0.583432
0.794321 1.139125 -0.354380 128 128 255 -0.310266 -0.747543 0.587294
0.718230 1.170805 -0.349557 128 128 255 -0.247869 -0.767183 0.591600
0.640638 1.196306 -0.344440 128 128 255 -0.185160 -0.781143 0.596265
0.562123 1.215664 -0.339073 128 128 255 -0.123005 -0.789585 0.601187
0.483241 1.228992 -0.333509 128 128 255 -0.062161 -0.792840 0.606251
0.404516 1.236470 -0.327806 128 128 255 -0.003240 -0.791363 0.611338
0.326429 1.238334 -0.322023 128 128 255 0.053316 -0.785689 0.616320
0.249407 1.234856 -0.316216 128 128 255 0.107238 -0.776379 0.621076
0.173824 1.226333 -0.310442 128 128 255 0.158432 -0.763978 0.625489
0.100000 1.213073 -0.304748 128 128 255 0.206954 -0.748967 0.629459
0.028205 1.195375 -0.299175 128 128 255 0.252988 -0.731728 0.632906
-0.041333 1.173530 -0.293751 128 128 255 0.296806 -0.712527 0.635777
-0.108421 1.147801 -0.288498 128 128 255 0.338722 -0.691491 0.638050
-0.172888 1.118432 -0.283425 128 128 255 0.379055 -0.668616 0.639742
-0.234579 1.085639 -0.278529 128 128 255 0.418075 -0.643778 0.640908
-0.293344 1.049616 -0.273800 128 128 255 0.455971 -0.616762 0.641635
-0.349031 1.010545 -0.269218 128 128 255 0.492817 -0.587294 0.642041
-0.401484 0.968596 -0.264759 128 128 255 0.528555 -0.555090 0.642265
-0.450541 0.923943 -0.260392 128 128 255 0.562987 -0.519899 0.642456
-0.496036 0.876770 -0.256087 128 128 255 0.595789 -0.481554 0.642761
-0.537805 0.827277 -0.251811 128 128 255 0.626536 -0.440006 0.643310
-0.575690 0.775690 -0.247536 128 128 255 0.654740 -0.395355 0.644212
-0.609548 0.722257 -0.243240 128 128 255 0.679902 -0.347864 0.645542
-0.639265 0.667258 -0.238903 128 128 255 0.701555 -0.297961 0.647333
-0.664754 0.610992 -0.234517 128 128 255 0.719322 -0.246214 0.649580
-0.685974 0.553782 -0.230081 128 128 255 0.732956 -0.193304 0.652234
-0.702925 0.495959 -0.225600 128 128 255 0.742371 -0.139971 0.655205
-0.715656 0.437856 -0.221092 128 128 255 0.747655 -0.086971 0.658367
-0.724266 0.379801 -0.216580 128 128 255 0.749073 -0.035009 0.661562
-0.728894 0.322102 -0.212093 128 128 255 0.747042 0.015306 0.664601
-0.729719 0.265041 -0.207665 128 128 255 0.742102 0.063506 0.667272
-0.726946 0.208869 -0.203334 128 128 255 0.734868 0.109301 0.669345
-0.720800 0.153798 -0.199138 128 128 255 0.725977 0.152593 0.670577
-0.711512 0.100000 -0.195113 128 128 255 0.716030 0.193484 0.670720
-0.699309 0.047611 -0.191291 128 128 255 0.705537 0.232260 0.669532
-0.684403 -0.003269 -0.187699 128 128 255 0.694864 0.269367 0.666788
-0.666982 -0.052562 -0.184358 128 128 255 0.684190 0.305371 0.662293
-0.647207 -0.100213 -0.181277 128 128 255 0.673479 0.340900 0.655907
-0.625204 -0.146174 -0.178461 128 128 255 0.662465 0.376588 0.647551
-0.601071 -0.190393 -0.175899 128 128 255 0.650663 0.413002 0.637234
-0.574876 -0.232812 -0.173576 128 128 255 0.637397 0.450581 0.625061
-0.546666 -0.273353 -0.171466 128 128 255 0.621856 0.489574 0.611238
-0.516477 -0.311917 -0.169535 128 128 255 0.603162 0.529998 0.596068
-0.484338 -0.348379 -0.167745 128 128 255 0.580452 0.571616 0.579940
-0.450290 -0.382591 -0.166053 128 128 255 0.552963 0.613934 0.563308
-0.414388 -0.414388 -0.164414 128 128 255 0.520117 0.656235 0.546657
-0.376716 -0.443591 -0.162785 128 128 255 0.481576 0.697624 0.530477
-0.337390 -0.470017 -0.161126 128 128 255 0.437298 0.737097 0.515226
-0.296560 -0.493494 -0.159402 128 128 255 0.387550 0.773626 0.501307
-0.254416 -0.513866 -0.157584 128 128 255 0.332899 0.806236 0.489042
-0.211179 -0.531009 -0.155655 128 128 255 0.274190 0.834091 0.478657
-0.167101 -0.544840 -0.153604 128 128 255 0.212484 0.856558 0.470275
-0.122451 -0.555321 -0.151436 128 128 255 0.148993 0.873264 0.463909
-0.077507 -0.562467 -0.149162 128 128 255 0.084999 0.884118 0.459468
-0.032544 -0.566345 -0.146806 128 128 255 0.021766 0.889324 0.456759
0.012178 -0.567075 -0.144402 128 128 255 -0.039538 0.889360 0.455494
0.056426 -0.564817 -0.141991 128 128 255 -0.097918 0.884936 0.455303
0.100000 -0.559770 -0.139622 128 128 255 -0.152610 0.876933 0.455739
0.142745 -0.552155 -0.137348 128 128 255 -0.203131 0.866331 0.456298
0.184548 -0.542205 -0.135222 128 128 255 -0.249295 0.854122 0.456430
0.225344 -0.530147 -0.133298 128 128 255 -0.291225 0.841220 0.455563
0.265109 -0.516194 -0.131626 128 128 255 -0.329338 0.828379 0.453128
0.303852 -0.500529 -0.130253 128 128 255 -0.364304 0.816114 0.448598
0.341611 -0.483300 -0.129214 128 128 255 -0.396989 0.804644 0.441528
0.378433 -0.464607 -0.128538 128 128 255 -0.428379 0.793862 0.431597
0.414370 -0.444504 -0.128241 128 128 255 -0.459484 0.783331 0.418648
0.449458 -0.423001 -0.128331 128 128 255 -0.491242 0.772333 0.402719
0.483712 -0.400063 -0.128799 128 128 255 -0.524421 0.759931 0.384041
0.517111 -0.375624 -0.129628 128 128 255 -0.559540 0.745068 0.363028
0.549595 -0.349595 -0.130790 128 128 255 -0.596821 0.726668 0.340232
0.581055 -0.321874 -0.132246 128 128 255 -0.636170 0.703738 0.316293
0.611341 -0.292366 -0.133949 128 128 255 -0.677186 0.675444 0.291880
0.640256 -0.260988 -0.135849 128 128 255 -0.719208 0.641178 0.267639
0.667571 -0.227687 -0.137889 128 128 255 -0.761370 0.600587 0.244154
0.693028 -0.192449 -0.140014 128 128 255 -0.802675 0.553594 0.221918
0.716358 -0.155304 -0.142168 128 128 255 -0.842066 0.500394 0.201323
0.737288 -0.116330 -0.144301 128 128 255 -0.878503 0.441439 0.182656
0.755558 -0.075656 -0.146369 128 128 255 -0.911027 0.377411 0.166103
0.770934 -0.033457 -0.148334 128 128 255 -0.938817 0.309180 0.151756
0.783217 0.010053 -0.150169 128 128 255 -0.961235 0.237764 0.139626
0.792253 0.054627 -0.151855 128 128 255 -0.977853 0.164302 0.129646
0.797933 0.099954 -0.153386 128 128 255 -0.985173 0.125232 0.117269
1.433309 0.100000 -0.451650 128 128 255 -0.790441 -0.129159 0.598766
1.422064 0.186653 -0.448172 128 128 255 -0.788926 -0.147419 0.596543
1.406034 0.271943 -0.445031 128 128 255 -0.776357 -0.190026 0.600966
1.385206 0.355643 -0.442171 128 128 255 -0.761745 -0.233439 0.604360
1.359542 0.437493 -0.439523 128 128 255 -0.744568 -0.277941 0.606932
1.328997 0.517188 -0.437005 128 128 255 -0.724240 -0.323590 0.608906
1.293536 0.594379 -0.434528 128 128 255 -0.700170 -0.370200 0.610502
1.253159 0.668675 -0.432003 128 128 255 -0.671835 -0.417355 0.611926
1.207913 0.739654 -0.429341 128 128 255 -0.638830 -0.464430 0.613352
1.157907 0.806871 -0.426463 128 128 255 -0.600926 -0.510642 0.614925
1.103327 0.869880 -0.423298 128 128 255 -0.558103 -0.555105 0.616749
1.044436 0.928248 -0.419789 128 128 255 -0.510572 -0.596902 0.618890
0.981576 0.981576 -0.415894 128 128 255 -0.458768 -0.635150 0.621382
0.915163 1.029516 -0.411592 128 128 255 -0.403331 -0.669072 0.624233
0.845676 1.071784 -0.406876 128 128 255 -0.345065 -0.698050 0.627421
0.773641 1.108175 -0.401758 128 128 255 -0.284879 -0.721663 0.630909
0.699618 1.138569 -0.396267 128 128 255 -0.223732 -0.739708 0.634646
0.624180 1.162931 -0.390446 128 128 255 -0.162561 -0.752201 0.638567
0.547894 1.181312 -0.384350 128 128 255 -0.102229 -0.759352 0.642599
0.471308 1.193838 -0.378041 128 128 255 -0.043471 -0.761538 0.646661
0.394932 1.200702 -0.371587 128 128 255 0.013133 -0.759252 0.650665
0.319231 1.202147 -0.365058 128 128 255 0.067188 -0.753054 0.654519
0.244614 1.198453 -0.358523 128 128 255 0.118481 -0.743521 0.658133
0.171437 1.189921 -0.352044 128 128 255 0.166975 -0.731194 0.661419
0.100000 1.176854 -0.345675 128 128 255 0.212790 -0.716537 0.664300
0.030553 1.159551 -0.339461 128 128 255 0.256168 -0.699903 0.666718
-0.036693 1.138288 -0.333435 128 128 255 0.297434 -0.681512 0.668636
-0.101562 1.113321 -0.327616 128 128 255 0.336949 -0.661439 0.670047
-0.163896 1.084875 -0.322012 128 128 255 0.375063 -0.639620 0.670980
-0.223551 1.053149 -0.316617 128 128 255 0.412066 -0.615869 0.671496
-0.280381 1.018321 -0.311414 128 128 255 0.448150 -0.589911 0.671689
-0.334240 0.980552 -0.306378 128 128 255 0.483375 -0.561421 0.671681
-0.384974 0.939999 -0.301475 128 128 255 0.517651 -0.530079 0.671606
-0.432418 0.896820 -0.296670 128 128 255 0.550741 -0.495612 0.671604
-0.476406 0.851186 -0.291923 128 128 255 0.582271 -0.457854 0.671811
-0.516769 0.803290 -0.287197 128 128 255 0.611766 -0.416777 0.672339
-0.553347 0.753347 -0.282459 128 128 255 0.638691 -0.372525 0.673275
-0.586000 0.701606 -0.277682 128 128 255 0.662509 -0.325423 0.674672
-0.614611 0.648340 -0.272848 128 128 255 0.682738 -0.275969 0.676543
-0.639099 0.593850 -0.267947 128 128 255 0.699002 -0.224814 0.678863
-0.659428 0.538456 -0.262981 128 128 255 0.711077 -0.172716 0.681571
-0.675608 0.482488 -0.257962 128 128 255 0.718923 -0.120489 0.684567
-0.687700 0.426276 -0.252912 128 128 255 0.722692 -0.068942 0.687723
-0.695812 0.370142 -0.247864 128 128 255 0.722724 -0.018817 0.690880
-0.700098 0.314386 -0.242855 128 128 255 0.719521 0.029262 0.693854
-0.700747 0.259279 -0.237929 128 128 255 0.713705 0.074842 0.696436
-0.697977 0.205056 -0.233133 128 128 255 0.705970 0.117665 0.698399
-0.692019 0.151912 -0.228514 128 128 255 0.697016 0.157697 0.699500
-0.683109 0.100000 -0.224114 128 128 255 0.687494 0.195116 0.699487
-0.671471 0.049435 -0.219974 128 128 255 0.677935 0.230311 0.698112
-0.657313 0.000298 -0.216125 128 128 255 0.668705 0.263840 0.695142
-0.640812 -0.047357 -0.212588 128 128 255 0.659949 0.296388 0.690378
-0.622112 -0.093489 -0.209374 128 128 255 0.651567 0.328709 0.683674
-0.601321 -0.138067 -0.206483 128 128 255 0.643203 0.361550 0.674960
-0.578513 -0.181049 -0.203902 128 128 255 0.634254 0.395581 0.664257
-0.553730 -0.222384 -0.201607 128 128 255 0.623914 0.431315 0.651689
-0.526992 -0.261994 -0.199562 128 128 255 0.611232 0.469043 0.637490
-0.498307 -0.299776 -0.197725 128 128 255 0.595198 0.508790 0.621991
-0.467681 -0.335597 -0.196044 128 128 255 0.574832 0.550286 0.605602
-0.435132 -0.369298 -0.194465 128 128 255 0.549282 0.592975 0.588787
-0.400696 -0.400696 -0.192931 128 128 255 0.517906 0.636045 0.572031
-0.364443 -0.429595 -0.191390 128 128 255 0.480346 0.678488 0.555807
-0.326477 -0.455796 -0.189789 128 128 255 0.436567 0.719180 0.540545
-0.286947 -0.479107 -0.188086 128 128 255 0.386882 0.756970 0.526612
-0.246040 -0.499359 -0.186248 128 128 255 0.331937 0.790775 0.514289
-0.203982 -0.516415 -0.184252 128 128 255 0.272678 0.819674 0.503767
-0.161030 -0.530182 -0.182089 128 128 255 0.210288 0.842980 0.495139
-0.117461 -0.540618 -0.179763 128 128 255 0.146105 0.860301 0.488400
-0.073561 -0.547738 -0.177292 128 128 255 0.081535 0.871566 0.483451
-0.029614 -0.551612 -0.174707 128 128 255 0.017951 0.877027 0.480106
0.014114 -0.552366 -0.172050 128 128 255 -0.043390 0.877237 0.478093
0.057385 -0.550172 -0.169375 128 128 255 -0.101432 0.872993 0.477068
0.100000 -0.545239 -0.166741 128 128 255 -0.155376 0.865272 0.476617
0.141804 -0.537800 -0.164214 128 128 255 -0.204732 0.855135 0.476265
0.182691 -0.528097 -0.161862 128 128 255 -0.249338 0.843646 0.475492
0.222604 -0.516370 -0.159750 128 128 255 -0.289361 0.831762 0.473754
0.261529 -0.502835 -0.157940 128 128 255 -0.325287 0.820251 0.470506
0.299491 -0.487681 -0.156486 128 128 255 -0.357876 0.809611 0.465247
0.336537 -0.471051 -0.155434 128 128 255 -0.388103 0.800010 0.457559
0.372730 -0.453042 -0.154817 128 128 255 -0.417072 0.791263 0.447162
0.408131 -0.433698 -0.154654 128 128 255 -0.445917 0.782844 0.433950
0.442785 -0.413015 -0.154951 128 128 255 -0.475690 0.773938 0.418018
0.476713 -0.390942 -0.155699 128 128 255 -0.507255 0.763521 0.399659
0.509896 -0.367397 -0.156873 128 128 255 -0.541201 0.750471 0.379335
0.542269 -0.342269 -0.158438 128 128 255 -0.577789 0.733666 0.357623
0.573720 -0.315441 -0.160346 128 128 255 -0.616932 0.712085 0.335157
0.604085 -0.286798 -0.162539 128 128 255 -0.658210 0.684882 0.312565
0.633157 -0.256244 -0.164953 128 128 255 -0.700916 0.651437 0.290425
0.660690 -0.223715 -0.167521 128 128 255 -0.744122 0.611391 0.269229
0.686411 -0.189186 -0.170175 128 128 255 -0.786748 0.564661 0.249371
0.710032 -0.152683 -0.172848 128 128 255 -0.827648 0.511441 0.231142
0.731265 -0.114286 -0.175478 128 128 255 -0.865686 0.452191 0.214736
0.749836 -0.074123 -0.178012 128 128 255 -0.899806 0.387616 0.200258
0.765499 -0.032376 -0.180407 128 128 255 -0.929103 0.318627 0.187736
0.778046 0.010733 -0.182630 128 128 255 -0.952871 0.246298 0.177130
0.787318 0.054951 -0.184662 128 128 255 -0.970635 0.171838 0.168345
0.793204 0.099955 -0.186493 128 128 255 -0.978799 0.132254 0.156404
1.393653 0.100000 -0.502616 128 128 255 -0.760153 -0.134761 0.635615
1.382373 0.184051 -0.498644 128 128 255 -0.758623 -0.151359 0.633705
1.366531 0.266742 -0.495076 128 128 255 -0.745798 -0.190970 0.638213
1.346104 0.347866 -0.491845 128 128 255 -0.731029 -0.231536 0.641862
1.321040 0.427177 -0.488867 128 128 255 -0.713765 -0.273361 0.644836
1.291280 0.504385 -0.486045 128 128 255 -0.693394 -0.316502 0.647326
1.256777 0.579153 -0.483276 128 128 255 -0.669312 -0.360763 0.649516
1.217517 0.651098 -0.480455 128 128 255 -0.640986 -0.405701 0.651570
1.173536 0.719806 -0.477479 128 128 255 -0.608021 -0.450662 0.653616
1.124936 0.784840 -0.474257 128 128 255 -0.570205 -0.494830 0.655751
1.071894 0.845761 -0.470709 128 128 255 -0.527550 -0.537290 0.658035
1.014668 0.902142 -0.466769 128 128 255 -0.480308 -0.577103 0.660497
0.953595 0.953595 -0.462394 128 128 255 -0.428959 -0.613382 0.663142
0.889087 0.999781 -0.457559 128 128 255 -0.374190 -0.645356 0.665956
0.821616 1.040428 -0.452261 128 128 255 -0.316847 -0.672428 0.668916
0.751705 1.075345 -0.446516 128 128 255 -0.257870 -0.694216 0.671988
0.679904 1.104424 -0.440360 128 128 255 -0.198233 -0.710559 0.675136
0.606779 1.127645 -0.433844 128 128 255 -0.138877 -0.721522 0.678321
0.532883 1.145071 -0.427034 128 128 255 -0.080646 -0.727364 0.681497
0.458749 1.156840 -0.420002 128 128 255 -0.024246 -0.728502 0.684614
0.384871 1.163154 -0.412827 128 128 255 0.029791 -0.725462 0.687617
0.311695 1.164262 -0.405591 128 128 255 0.081120 -0.718822 0.690445
0.239610 1.160447 -0.398368 128 128 255 0.129590 -0.709165 0.693031
0.168952 1.152007 -0.391230 128 128 255 0.175229 -0.697019 0.695312
0.100000 1.139241 -0.384237 128 128 255 0.218218 -0.682826 0.697230
0.032986 1.122437 -0.377436 128 128 255 0.258858 -0.666899 0.698741
-0.031898 1.101861 -0.370861 128 128 255 0.297526 -0.649406 0.699821
-0.094487 1.077751 -0.364530 128 128 255 0.334625 -0.630366 0.700475
-0.154636 1.050315 -0.358447 128 128 255 0.370533 -0.609648 0.700739
-0.212208 1.019735 -0.352601 128 128 255 0.405554 -0.587003 0.700680
-0.267064 0.986170 -0.346969 128 128 255 0.439875 -0.562097 0.700397
-0.319058 0.949765 -0.341518 128 128 255 0.473534 -0.534558 0.700010
-0.368035 0.910660 -0.336208 128 128 255 0.506405 -0.504029 0.699649
-0.413830 0.869001 -0.330993 128 128 255 0.538202 -0.470228 0.699446
-0.456273 0.824950 -0.325827 128 128 255 0.568498 -0.432993 0.699520
-0.495194 0.778689 -0.320669 128 128 255 0.596761 -0.392328 0.699968
-0.530433 0.730433 -0.315481 128 128 255 0.622412 -0.348427 0.700858
-0.561846 0.680423 -0.310232 128 128 255 0.644879 -0.301685 0.702223
-0.589321 0.628935 -0.304905 128 128 255 0.663667 -0.252681 0.704059
-0.612784 0.576267 -0.299493 128 128 255 0.678405 -0.202148 0.706330
-0.632204 0.522738 -0.294001 128 128 255 0.688902 -0.150925 0.708968
-0.647603 0.468677 -0.288448 128 128 255 0.695168 -0.099895 0.711873
-0.659051 0.414409 -0.282864 128 128 255 0.697422 -0.049919 0.714920
-0.666670 0.360249 -0.277290 128 128 255 0.696085 -0.001774 0.717957
-0.670626 0.306489 -0.271773 128 128 255 0.691742 0.043912 0.720808
-0.671120 0.253385 -0.266369 128 128 255 0.685100 0.086699 0.723272
-0.668378 0.201159 -0.261135 128 128 255 0.676925 0.126372 0.725123
-0.662637 0.149986 -0.256125 128 128 255 0.667980 0.162957 0.726118
-0.654134 0.100000 -0.251392 128 128 255 0.658959 0.196721 0.725998
-0.643092 0.051295 -0.246981 128 128 255 0.650414 0.228153 0.724505
-0.629711 0.003932 -0.242927 128 128 255 0.642700 0.257928 0.721394
-0.614155 -0.042054 -0.239254 128 128 255 0.635925 0.286860 0.716457
-0.596552 -0.086641 -0.235971 128 128 255 0.629919 0.315830 0.709544
-0.576989 -0.129807 -0.233074 128 128 255 0.624227 0.345706 0.700591
-0.555517 -0.171524 -0.230545 128 128 255 0.618125 0.377259 0.689635
-0.532152 -0.211743 -0.228350 128 128 255 0.610674 0.411078 0.676825
-0.506889 -0.250387 -0.226443 128 128 255 0.600787 0.447495 0.662422
-0.479710 -0.287350 -0.224771 128 128 255 0.587327 0.486537 0.646783
-0.450599 -0.322490 -0.223268 128 128 255 0.569207 0.527899 0.630338
-0.419551 -0.355634 -0.221868 128 128 255 0.545494 0.570954 0.613554
-0.386587 -0.386587 -0.220503 128 128 255 0.515496 0.614793 0.596903
-0.351762 -0.415136 -0.219105 128 128 255 0.478839 0.658294 0.580829
-0.315175 -0.441066 -0.217615 128 128 255 0.435507 0.700207 0.565724
-0.276967 -0.464171 -0.215980 128 128 255 0.385861 0.739263 0.551906
