ply
format ascii 1.0
element vertex 703
property float x
property float y
property float z
property uchar red
property uchar green
property uchar blue
property float nx
property float ny
property float nz
end_header
0.180187 0.039859 -0.389344 128 128 255 0.481168 0.300737 0.823429
0.200234 0.039859 -0.402223 128 128 255 0.549803 0.279469 0.787156
0.220281 0.039859 -0.417337 128 128 255 0.606232 0.261093 0.751208
0.240329 0.039859 -0.434567 128 128 255 0.652111 0.245932 0.717125
0.260376 0.039859 -0.453783 128 128 255 0.689107 0.234049 0.685823
0.280423 0.039859 -0.474839 128 128 255 0.718723 0.225350 0.657765
0.300471 0.039859 -0.497578 128 128 255 0.742229 0.219665 0.633121
0.320518 0.039859 -0.521827 128 128 255 0.760657 0.216803 0.611880
0.340564 0.039859 -0.547404 128 128 255 0.774812 0.216579 0.593937
0.360609 0.039859 -0.574112 128 128 255 0.785306 0.218834 0.579143
0.380653 0.039860 -0.601749 128 128 255 0.792587 0.223448 0.567342
0.400696 0.039861 -0.630099 128 128 255 0.796961 0.230336 0.558389
0.420737 0.039862 -0.658943 128 128 255 0.798614 0.239446 0.552160
0.440776 0.039863 -0.688054 128 128 255 0.797623 0.250768 0.548556
0.460812 0.039865 -0.717201 128 128 255 0.793960 0.264324 0.547504
0.480846 0.039866 -0.746150 128 128 255 0.787500 0.280163 0.548956
0.500877 0.039868 -0.774666 128 128 255 0.778011 0.298362 0.552883
0.520906 0.039871 -0.802513 128 128 255 0.765146 0.319015 0.559268
0.540931 0.039873 -0.829458 128 128 255 0.748433 0.342224 0.568094
0.560955 0.039875 -0.855269 128 128 255 0.727255 0.368081 0.579325
0.580975 0.039878 -0.879722 128 128 255 0.700839 0.396638 0.592877
0.600994 0.039881 -0.902597 128 128 255 0.668243 0.427872 0.608586
0.621010 0.039883 -0.923680 128 128 255 0.628368 0.461619 0.626149
0.641025 0.039886 -0.942771 128 128 255 0.579997 0.497497 0.645058
0.661038 0.039889 -0.959674 128 128 255 0.521894 0.534812 0.664532
0.681051 0.039891 -0.974209 128 128 255 0.452991 0.572452 0.683445
0.701063 0.039894 -0.986208 128 128 255 0.372681 0.608828 0.700312
0.721075 0.039896 -0.995516 128 128 255 0.281184 0.641902 0.713370
0.741087 0.039898 -1.001994 128 128 255 0.179897 0.669389 0.720802
0.761100 0.039900 -1.005516 128 128 255 0.071555 0.689130 0.721096
0.781115 0.039902 -1.005978 128 128 255 -0.039961 0.699568 0.713448
0.801130 0.039903 -1.003288 128 128 255 -0.150249 0.700146 0.698012
0.821148 0.039904 -0.997375 128 128 255 -0.255198 0.691414 0.675885
0.841167 0.039905 -0.988186 128 128 255 -0.351676 0.674813 0.648808
0.861189 0.039906 -0.975688 128 128 255 -0.437862 0.652258 0.618738
0.881213 0.039907 -0.959865 128 128 255 -0.513175 0.625714 0.587481
0.901239 0.039907 -0.940722 128 128 255 -0.577966 0.596897 0.556479
0.921268 0.039907 -0.918283 128 128 255 -0.633149 0.567147 0.526751
0.941299 0.039907 -0.892591 128 128 255 -0.679893 0.537413 0.498931
0.961332 0.039907 -0.863708 128 128 255 -0.719411 0.508314 0.473355
0.981367 0.039907 -0.831716 128 128 255 -0.752835 0.480213 0.450150
1.001403 0.039906 -0.796714 128 128 255 -0.781170 0.453290 0.429305
1.021441 0.039906 -0.758820 128 128 255 -0.805270 0.427599 0.410731
1.041479 0.039906 -0.718166 128 128 255 -0.825847 0.403120 0.394298
1.061518 0.039905 -0.674903 128 128 255 -0.843490 0.379781 0.379857
1.081556 0.039905 -0.629197 128 128 255 -0.858671 0.357491 0.367267
1.101573 0.039904 -0.581277 128 128 255 -0.865516 0.345050 0.363073
-0.901563 0.059937 -0.621096 128 128 255 0.905001 0.187881 0.381674
-0.881525 0.059938 -0.668162 128 128 255 0.895840 0.209969 0.391643
-0.861486 0.059938 -0.712765 128 128 255 0.879826 0.244967 0.407305
-0.841447 0.059938 -0.754734 128 128 255 0.860043 0.282675 0.424759
-0.821409 0.059939 -0.793913 128 128 255 0.835687 0.323242 0.444006
-0.801372 0.059939 -0.830164 128 128 255 0.805811 0.366714 0.464962
-0.781337 0.059939 -0.863365 128 128 255 0.769334 0.412976 0.487417
-0.761304 0.059939 -0.893414 128 128 255 0.725091 0.461668 0.510986
-0.741272 0.059939 -0.920225 128 128 255 0.671939 0.512077 0.535047
-0.721244 0.059939 -0.943732 128 128 255 0.608927 0.563067 0.558716
-0.701217 0.059939 -0.963890 128 128 255 0.535553 0.613031 0.580841
-0.681193 0.059939 -0.980672 128 128 255 0.452056 0.659953 0.600089
-0.661172 0.059938 -0.994070 128 128 255 0.359666 0.701617 0.615121
-0.641153 0.059938 -1.004097 128 128 255 0.260676 0.735952 0.624838
-0.621136 0.059937 -1.010787 128 128 255 0.158256 0.761430 0.628633
-0.601122 0.059936 -1.014191 128 128 255 0.055972 0.777376 0.626541
-0.581108 0.059935 -1.014379 128 128 255 -0.042787 0.784058 0.619211
-0.561097 0.059934 -1.011442 128 128 255 -0.135305 0.782527 0.607737
-0.541086 0.059932 -1.005486 128 128 255 -0.219798 0.774309 0.593409
-0.521075 0.059931 -0.996635 128 128 255 -0.295406 0.761081 0.577487
-0.501065 0.059929 -0.985031 128 128 255 -0.362022 0.744417 0.561056
-0.481054 0.059927 -0.970830 128 128 255 -0.420056 0.725651 0.544963
-0.461043 0.059926 -0.954200 128 128 255 -0.470204 0.705831 0.529821
-0.441030 0.059924 -0.935327 128 128 255 -0.513289 0.685735 0.516044
-0.421016 0.059922 -0.914405 128 128 255 -0.550141 0.665909 0.503894
-0.401000 0.059920 -0.891640 128 128 255 -0.581537 0.646722 0.493523
-0.380982 0.059918 -0.867248 128 128 255 -0.608163 0.628410 0.485014
-0.360961 0.059916 -0.841452 128 128 255 -0.630607 0.611115 0.478408
-0.340937 0.059915 -0.814481 128 128 255 -0.649356 0.594914 0.473724
-0.320911 0.059913 -0.786570 128 128 255 -0.664803 0.579844 0.470976
-0.300882 0.059912 -0.757957 128 128 255 -0.677254 0.565912 0.470182
-0.280850 0.059911 -0.728881 128 128 255 -0.686932 0.553111 0.471374
-0.260815 0.059909 -0.699583 128 128 255 -0.693983 0.541426 0.474601
-0.240778 0.059909 -0.670300 128 128 255 -0.698480 0.530839 0.479932
-0.220738 0.059908 -0.641269 128 128 255 -0.700422 0.521331 0.487467
-0.200697 0.059907 -0.612722 128 128 255 -0.699727 0.512882 0.497327
-0.180654 0.059907 -0.584883 128 128 255 -0.696229 0.505475 0.509666
-0.160609 0.059906 -0.557970 128 128 255 -0.689666 0.499088 0.524664
-0.140563 0.059906 -0.532193 128 128 255 -0.679657 0.493693 0.542526
-0.120517 0.059906 -0.507752 128 128 255 -0.665687 0.489247 0.563470
-0.100470 0.059906 -0.484833 128 128 255 -0.647078 0.485679 0.587713
-0.080423 0.059906 -0.463612 128 128 255 -0.622958 0.482870 0.615434
-0.060376 0.059906 -0.444251 128 128 255 -0.592237 0.480627 0.646725
-0.040328 0.059906 -0.426897 128 128 255 -0.553592 0.478642 0.681496
-0.020281 0.059906 -0.411681 128 128 255 -0.505495 0.476442 0.719360
-0.000235 0.059906 -0.398721 128 128 255 -0.446303 0.473330 0.759455
0.019812 0.059906 -0.388117 128 128 255 -0.374465 0.468340 0.800271
0.039859 0.059906 -0.379957 128 128 255 -0.288808 0.460216 0.839518
0.059906 0.059906 -0.374324 128 128 255 -0.188758 0.447546 0.874113
0.079953 0.059906 -0.371307 128 128 255 -0.074209 0.429619 0.899956
0.100000 0.059905 -0.371014 128 128 255 0.051240 0.408110 0.911494
0.120047 0.059905 -0.373508 128 128 255 0.174800 0.385518 0.905991
0.140094 0.059906 -0.378712 128 128 255 0.287760 0.361358 0.886913
0.160141 0.059906 -0.386504 128 128 255 0.387039 0.336208 0.858583
0.180188 0.059906 -0.396780 128 128 255 0.472021 0.311619 0.824675
0.200235 0.059906 -0.409446 128 128 255 0.543209 0.288970 0.788302
0.220283 0.059906 -0.424399 128 128 255 0.601833 0.269167 0.751895
0.240330 0.059906 -0.441527 128 128 255 0.649514 0.252656 0.717145
0.260377 0.059906 -0.460700 128 128 255 0.687945 0.239553 0.685088
0.280425 0.059906 -0.481774 128 128 255 0.718691 0.229780 0.656265
0.300472 0.059906 -0.504593 128 128 255 0.743090 0.223159 0.630886
0.320519 0.059906 -0.528984 128 128 255 0.762233 0.219482 0.608957
0.340565 0.059906 -0.554762 128 128 255 0.776976 0.218547 0.590377
0.360610 0.059906 -0.581730 128 128 255 0.787973 0.220181 0.574995
0.380654 0.059907 -0.609684 128 128 255 0.795702 0.224242 0.562649
0.400697 0.059907 -0.638405 128 128 255 0.800497 0.230634 0.553184
0.420737 0.059908 -0.667671 128 128 255 0.802564 0.239295 0.546469
0.440776 0.059909 -0.697252 128 128 255 0.802001 0.250204 0.542396
0.460812 0.059910 -0.726913 128 128 255 0.798796 0.263375 0.540887
0.480845 0.059911 -0.756415 128 128 255 0.792840 0.278854 0.541891
0.500876 0.059912 -0.785519 128 128 255 0.783917 0.296717 0.545374
0.520903 0.059914 -0.813984 128 128 255 0.771698 0.317057 0.551323
0.540928 0.059916 -0.841573 128 128 255 0.755729 0.339979 0.559722
0.560951 0.059917 -0.868048 128 128 255 0.735409 0.365585 0.570544
0.580970 0.059919 -0.893179 128 128 255 0.709984 0.393943 0.583723
0.600988 0.059921 -0.916741 128 128 255 0.678521 0.425053 0.599115
0.621003 0.059923 -0.938515 128 128 255 0.639922 0.458788 0.616452
0.641017 0.059925 -0.958293 128 128 255 0.592955 0.494808 0.635271
0.661029 0.059927 -0.975876 128 128 255 0.536336 0.532473 0.654840
0.681040 0.059928 -0.991077 128 128 255 0.468909 0.570729 0.674087
0.701051 0.059930 -1.003721 128 128 255 0.389924 0.608026 0.691566
0.721062 0.059931 -1.013648 128 128 255 0.299415 0.642333 0.705520
0.741073 0.059933 -1.020713 128 128 255 0.198580 0.671309 0.714080
0.761085 0.059934 -1.024788 128 128 255 0.090001 0.692664 0.715623
0.781098 0.059935 -1.025758 128 128 255 -0.022492 0.704661 0.709187
0.801113 0.059936 -1.023530 128 128 255 -0.134396 0.706555 0.694779
0.821130 0.059937 -1.018028 128 128 255 -0.241389 0.698764 0.673394
0.841148 0.059938 -1.009194 128 128 255 -0.340088 0.682687 0.646745
0.861169 0.059938 -0.996989 128 128 255 -0.428447 0.660272 0.616826
0.881193 0.059939 -0.981396 128 128 255 -0.505731 0.633569 0.585514
0.901219 0.059939 -0.962415 128 128 255 -0.572219 0.604392 0.554325
0.921247 0.059939 -0.940068 128 128 255 -0.628810 0.574166 0.524338
0.941278 0.059939 -0.914394 128 128 255 -0.676694 0.543908 0.496235
0.961312 0.059939 -0.885455 128 128 255 -0.717119 0.514282 0.470377
0.981347 0.059939 -0.853329 128 128 255 -0.751261 0.485677 0.446906
1.001384 0.059938 -0.818115 128 128 255 -0.780160 0.458288 0.425819
1.021423 0.059938 -0.779928 128 128 255 -0.804707 0.432178 0.407025
1.041462 0.059938 -0.738903 128 128 255 -0.825638 0.407327 0.390394
1.061502 0.059937 -0.695190 128 128 255 -0.843563 0.383661 0.375773
1.081541 0.059937 -0.648955 128 128 255 -0.858974 0.361086 0.363017
1.101560 0.059937 -0.600428 128 128 255 -0.865936 0.348539 0.358714
-0.901557 0.079969 -0.630533 128 128 255 0.909408 0.184131 0.372926
-0.881517 0.079969 -0.678945 128 128 255 0.900631 0.206080 0.382615
-0.861476 0.079969 -0.724874 128 128 255 0.885301 0.240828 0.397798
-0.841436 0.079969 -0.768144 128 128 255 0.866332 0.278290 0.414758
-0.821396 0.079970 -0.808592 128 128 255 0.842936 0.318635 0.433509
-0.801358 0.079970 -0.846076 128 128 255 0.814181 0.361941 0.453991
-0.781321 0.079970 -0.880467 128 128 255 0.778993 0.408131 0.476024
-0.761286 0.079970 -0.911657 128 128 255 0.736196 0.456893 0.499263
-0.741253 0.079970 -0.939556 128 128 255 0.684606 0.507582 0.523140
-0.721224 0.079970 -0.964094 128 128 255 0.623194 0.559125 0.546817
-0.701196 0.079970 -0.985219 128 128 255 0.551330 0.609968 0.569188
-0.681172 0.079970 -1.002901 128 128 255 0.469087 0.658112 0.588936
-0.661150 0.079970 -1.017130 128 128 255 0.377516 0.701299 0.604699
-0.641131 0.079969 -1.027914 128 128 255 0.278760 0.737352 0.615308
-0.621114 0.079969 -1.035284 128 128 255 0.175915 0.764585 0.620052
-0.601099 0.079969 -1.039288 128 128 255 0.072592 0.782147 0.618851
-0.581086 0.079968 -1.039997 128 128 255 -0.027689 0.790166 0.612267
-0.561075 0.079967 -1.037497 128 128 255 -0.122023 0.789615 0.601347
-0.541064 0.079967 -1.031895 128 128 255 -0.208442 0.782014 0.587372
-0.521055 0.079966 -1.023314 128 128 255 -0.285940 0.769078 0.571626
-0.501045 0.079965 -1.011896 128 128 255 -0.354313 0.752450 0.555231
-0.481036 0.079964 -0.997797 128 128 255 -0.413923 0.733534 0.539069
-0.461026 0.079963 -0.981188 128 128 255 -0.465453 0.713443 0.523787
-0.441015 0.079962 -0.962253 128 128 255 -0.509735 0.693004 0.509820
-0.421002 0.079961 -0.941191 128 128 255 -0.547620 0.672800 0.497446
-0.400987 0.079961 -0.918209 128 128 255 -0.579908 0.653226 0.486829
-0.380971 0.079960 -0.893526 128 128 255 -0.607313 0.634535 0.478054
-0.360951 0.079959 -0.867368 128 128 255 -0.630446 0.616879 0.471166
-0.340929 0.079958 -0.839968 128 128 255 -0.649818 0.600343 0.466181
-0.320905 0.079957 -0.811565 128 128 255 -0.665841 0.584964 0.463112
-0.300877 0.079956 -0.782400 128 128 255 -0.678838 0.570752 0.461975
-0.280846 0.079955 -0.752719 128 128 255 -0.689048 0.557702 0.462797
-0.260813 0.079955 -0.722766 128 128 255 -0.696635 0.545798 0.465623
-0.240776 0.079954 -0.692785 128 128 255 -0.701686 0.535023 0.470519
-0.220738 0.079954 -0.663017 128 128 255 -0.704215 0.525358 0.477578
-0.200697 0.079954 -0.633699 128 128 255 -0.704159 0.516787 0.486920
-0.180655 0.079953 -0.605063 128 128 255 -0.701373 0.509295 0.498693
-0.160610 0.079953 -0.577331 128 128 255 -0.695613 0.502867 0.513077
-0.140565 0.079953 -0.550720 128 128 255 -0.686526 0.497483 0.530276
-0.120519 0.079953 -0.525434 128 128 255 -0.673626 0.493113 0.550516
-0.100472 0.079953 -0.501667 128 128 255 -0.656268 0.489702 0.574025
-0.080425 0.079953 -0.479600 128 128 255 -0.633615 0.487158 0.601006
-0.060378 0.079953 -0.459400 128 128 255 -0.604614 0.485320 0.631590
-0.040330 0.079953 -0.441219 128 128 255 -0.567971 0.483926 0.665752
-0.020283 0.079953 -0.425193 128 128 255 -0.522171 0.482557 0.703190
-0.000236 0.079953 -0.411442 128 128 255 -0.465563 0.480583 0.743163
0.019811 0.079953 -0.400069 128 128 255 -0.396552 0.477099 0.784298
0.039858 0.079953 -0.391161 128 128 255 -0.313937 0.470871 0.824454
0.059905 0.079952 -0.384792 128 128 255 -0.217176 0.460235 0.860824
0.079952 0.079952 -0.381043 128 128 255 -0.105504 0.442491 0.890545
0.100000 0.079952 -0.380094 128 128 255 0.028571 0.420107 0.907025
0.120048 0.079952 -0.382166 128 128 255 0.156452 0.400477 0.902852
0.140095 0.079952 -0.387030 128 128 255 0.272154 0.376235 0.885652
0.160142 0.079953 -0.394500 128 128 255 0.373874 0.350007 0.858902
0.180189 0.079953 -0.404488 128 128 255 0.461684 0.323815 0.825828
0.200236 0.079953 -0.416912 128 128 255 0.535643 0.299430 0.789575
0.220284 0.079953 -0.431680 128 128 255 0.596686 0.277953 0.752800
0.240331 0.079953 -0.448681 128 128 255 0.646350 0.259916 0.717408
0.260378 0.079953 -0.467790 128 128 255 0.686353 0.245468 0.684591
0.280426 0.079953 -0.488865 128 128 255 0.718327 0.234526 0.654983
0.300473 0.079953 -0.511747 128 128 255 0.743687 0.226897 0.628846
0.320520 0.079953 -0.536265 128 128 255 0.763591 0.222353 0.606208
0.340566 0.079953 -0.562232 128 128 255 0.778952 0.220667 0.586975
0.360611 0.079953 -0.589451 128 128 255 0.790469 0.221645 0.570992
0.380655 0.079953 -0.617714 128 128 255 0.798657 0.225129 0.558089
0.400697 0.079954 -0.646800 128 128 255 0.803878 0.231004 0.548104
0.420737 0.079954 -0.676485 128 128 255 0.806360 0.239198 0.540896
0.440775 0.079954 -0.706533 128 128 255 0.806219 0.249680 0.536350
0.460811 0.079955 -0.736707 128 128 255 0.803464 0.262454 0.534381
0.480843 0.079956 -0.766764 128 128 255 0.798002 0.277561 0.534932
0.500873 0.079956 -0.796459 128 128 255 0.789634 0.295073 0.537969
0.520900 0.079957 -0.825548 128 128 255 0.778047 0.315085 0.543475
0.540925 0.079958 -0.853787 128 128 255 0.762804 0.337705 0.551440
0.560946 0.079959 -0.880934 128 128 255 0.743326 0.363041 0.561843
0.580965 0.079960 -0.906753 128 128 255 0.718872 0.391179 0.574631
0.600981 0.079961 -0.931013 128 128 255 0.688528 0.422137 0.589685
0.620995 0.079962 -0.953489 128 128 255 0.651200 0.455822 0.606766
0.641007 0.079963 -0.973968 128 128 255 0.605639 0.491942 0.625455
0.661018 0.079964 -0.992244 128 128 255 0.550528 0.529908 0.645071
0.681028 0.079965 -1.008124 128 128 255 0.484624 0.568726 0.664598
0.701038 0.079965 -1.021429 128 128 255 0.407043 0.606897 0.682636
0.721048 0.079966 -1.031991 128 128 255 0.317635 0.642405 0.697441
0.741058 0.079967 -1.039661 128 128 255 0.217390 0.672862 0.707106
0.761069 0.079968 -1.044303 128 128 255 0.108715 0.695859 0.709902
0.781081 0.079968 -1.045800 128 128 255 -0.004634 0.709475 0.704715
0.801094 0.079969 -1.044051 128 128 255 -0.118078 0.712769 0.691389
0.821110 0.079969 -1.038976 128 128 255 -0.227090 0.706008 0.670807
0.841128 0.079970 -1.030512 128 128 255 -0.328028 0.690531 0.644643
0.861148 0.079970 -1.018618 128 128 255 -0.418607 0.668314 0.614919
0.881171 0.079970 -1.003270 128 128 255 -0.497922 0.641488 0.583581
0.901197 0.079970 -0.984466 128 128 255 -0.566167 0.611968 0.552224
0.921226 0.079970 -0.962223 128 128 255 -0.624220 0.581271 0.521990
0.941257 0.079970 -0.936581 128 128 255 -0.673288 0.550486 0.493608
0.961290 0.079970 -0.907596 128 128 255 -0.714656 0.520324 0.467472
0.981326 0.079970 -0.875346 128 128 255 -0.749543 0.491205 0.443737
1.001364 0.079970 -0.839928 128 128 255 -0.779030 0.463341 0.422408
1.021403 0.079969 -0.801458 128 128 255 -0.804037 0.436802 0.403396
1.041443 0.079969 -0.760067 128 128 255 -0.825334 0.411569 0.386568
1.061484 0.079969 -0.715908 128 128 255 -0.843551 0.387569 0.371769
1.081525 0.079969 -0.669146 128 128 255 -0.859196 0.364706 0.358847
1.101545 0.079969 -0.620014 128 128 255 -0.866276 0.352051 0.354437
-0.901549 0.100000 -0.639991 128 128 255 0.913621 0.180385 0.364360
-0.881507 0.100000 -0.689778 128 128 255 0.905214 0.202192 0.373772
-0.861465 0.100000 -0.737064 128 128 255 0.890544 0.236678 0.388479
-0.841423 0.100000 -0.781665 128 128 255 0.872358 0.273881 0.404944
-0.821382 0.100000 -0.823414 128 128 255 0.849892 0.313988 0.423195
-0.801342 0.100000 -0.862161 128 128 255 0.822230 0.357099 0.443191
-0.781303 0.100000 -0.897773 128 128 255 0.788305 0.403179 0.464781
-0.761267 0.100000 -0.930136 128 128 255 0.746936 0.451965 0.487661
-0.741233 0.100000 -0.959155 128 128 255 0.696905 0.502877 0.511310
-0.721202 0.100000 -0.984753 128 128 255 0.637116 0.554904 0.534944
-0.701174 0.100000 -1.006876 128 128 255 0.566818 0.606555 0.557502
-0.681149 0.100000 -1.025488 128 128 255 0.485921 0.655860 0.577692
-0.661126 0.100000 -1.040575 128 128 255 0.395286 0.700534 0.594139
-0.641106 0.100000 -1.052144 128 128 255 0.296901 0.738298 0.605612
-0.621089 0.100000 -1.060220 128 128 255 0.193769 0.767312 0.611299
-0.601075 0.100000 -1.064851 128 128 255 0.089517 0.786548 0.611006
-0.581062 0.100000 -1.066104 128 128 255 -0.012210 0.795980 0.605200
-0.561051 0.100000 -1.064064 128 128 255 -0.108325 0.796489 0.594871
-0.541041 0.100000 -1.058837 128 128 255 -0.196666 0.789573 0.581288
-0.521032 0.100000 -1.050546 128 128 255 -0.276073 0.776986 0.565752
-0.501024 0.100000 -1.039332 128 128 255 -0.346234 0.760435 0.549419
-0.481016 0.100000 -1.025352 128 128 255 -0.407452 0.741396 0.533211
-0.461007 0.100000 -1.008776 128 128 255 -0.460397 0.721050 0.517804
-0.440997 0.100000 -0.989793 128 128 255 -0.505904 0.700275 0.503662
-0.420986 0.100000 -0.968601 128 128 255 -0.544846 0.679696 0.491077
-0.400973 0.100000 -0.945410 128 128 255 -0.578045 0.659734 0.480223
-0.380958 0.100000 -0.920442 128 128 255 -0.606244 0.640661 0.471192
-0.360940 0.100000 -0.893926 128 128 255 -0.630076 0.622640 0.464030
-0.340920 0.100000 -0.866100 128 128 255 -0.650075 0.605761 0.458754
-0.320897 0.100000 -0.837204 128 128 255 -0.666674 0.590067 0.455374
-0.300871 0.100000 -0.807487 128 128 255 -0.680214 0.575570 0.453903
-0.280841 0.100000 -0.777197 128 128 255 -0.690950 0.562263 0.454365
-0.260809 0.100000 -0.746585 128 128 255 -0.699062 0.550133 0.456800
-0.240774 0.100000 -0.715898 128 128 255 -0.704652 0.539161 0.461271
-0.220737 0.100000 -0.685385 128 128 255 -0.707751 0.529332 0.467864
-0.200697 0.100000 -0.655287 128 128 255 -0.708311 0.520630 0.476697
-0.180655 0.100000 -0.625841 128 128 255 -0.706206 0.513043 0.487913
-0.160611 0.100000 -0.597279 128 128 255 -0.701214 0.506563 0.501690
-0.140566 0.100000 -0.569820 128 128 255 -0.693005 0.501178 0.518232
-0.120520 0.100000 -0.543675 128 128 255 -0.681122 0.496869 0.537768
-0.100474 0.100000 -0.519046 128 128 255 -0.664950 0.493601 0.560536
-0.080427 0.100000 -0.496117 128 128 255 -0.643686 0.491306 0.586759
-0.060379 0.100000 -0.475063 128 128 255 -0.616310 0.489861 0.616602
-0.040332 0.100000 -0.456042 128 128 255 -0.581552 0.489052 0.650096
-0.020285 0.100000 -0.439194 128 128 255 -0.537904 0.488534 0.687019
-0.000237 0.100000 -0.424644 128 128 255 -0.483677 0.487772 0.726729
0.019810 0.100000 -0.412499 128 128 255 -0.417189 0.486007 0.767953
0.039857 0.100000 -0.402848 128 128 255 -0.337100 0.482260 0.808572
0.059904 0.100000 -0.395759 128 128 255 -0.242860 0.475532 0.845511
0.079952 0.100000 -0.391281 128 128 255 -0.134714 0.465563 0.874702
0.100000 0.100000 -0.389444 128 128 255 0.000230 0.446600 0.894734
0.120048 0.100000 -0.391281 128 128 255 0.138565 0.420305 0.896741
0.140096 0.100000 -0.395759 128 128 255 0.254110 0.394338 0.883134
0.160143 0.100000 -0.402848 128 128 255 0.358514 0.365680 0.858921
0.180190 0.100000 -0.412499 128 128 255 0.449704 0.337204 0.827079
0.200237 0.100000 -0.424644 128 128 255 0.526884 0.310726 0.791102
0.220285 0.100000 -0.439194 128 128 255 0.590679 0.287358 0.754005
0.240332 0.100000 -0.456042 128 128 255 0.642562 0.267650 0.717968
0.260379 0.100000 -0.475063 128 128 255 0.684301 0.251747 0.684365
0.280427 0.100000 -0.496117 128 128 255 0.717615 0.239555 0.653943
0.300474 0.100000 -0.519046 128 128 255 0.744011 0.230857 0.627019
0.320520 0.100000 -0.543675 128 128 255 0.764726 0.225397 0.603647
0.340566 0.100000 -0.569820 128 128 255 0.780739 0.222924 0.583740
0.360611 0.100000 -0.597279 128 128 255 0.792797 0.223217 0.567140
0.380655 0.100000 -0.625841 128 128 255 0.801455 0.226100 0.553668
0.400697 0.100000 -0.655287 128 128 255 0.807105 0.231442 0.543154
0.420737 0.100000 -0.685385 128 128 255 0.810002 0.239153 0.535446
0.440774 0.100000 -0.715898 128 128 255 0.810282 0.249193 0.530421
0.460809 0.100000 -0.746585 128 128 255 0.807970 0.261558 0.527989
0.480841 0.100000 -0.777197 128 128 255 0.802991 0.276282 0.528085
0.500871 0.100000 -0.807487 128 128 255 0.795164 0.293432 0.530671
0.520897 0.100000 -0.837204 128 128 255 0.784194 0.313102 0.535730
0.540920 0.100000 -0.866100 128 128 255 0.769662 0.335406 0.543253
0.560941 0.100000 -0.893926 128 128 255 0.751007 0.360456 0.553227
0.580958 0.100000 -0.920442 128 128 255 0.727509 0.388349 0.565611
0.600973 0.100000 -0.945410 128 128 255 0.698266 0.419129 0.580306
0.620986 0.100000 -0.968601 128 128 255 0.662195 0.452731 0.597103
0.640997 0.100000 -0.989793 128 128 255 0.618042 0.488908 0.615624
0.661007 0.100000 -1.008776 128 128 255 0.564453 0.527126 0.635240
0.681016 0.100000 -1.025352 128 128 255 0.500117 0.566452 0.654993
0.701024 0.100000 -1.039332 128 128 255 0.424017 0.605443 0.673534
0.721032 0.100000 -1.050546 128 128 255 0.335818 0.642113 0.689142
0.741041 0.100000 -1.058837 128 128 255 0.236298 0.674039 0.699882
0.761051 0.100000 -1.064064 128 128 255 0.127673 0.698699 0.703932
0.781062 0.100000 -1.066104 128 128 255 0.013598 0.713992 0.700022
0.801075 0.100000 -1.064851 128 128 255 -0.101299 0.718768 0.687830
0.821089 0.100000 -1.060220 128 128 255 -0.212299 0.713129 0.668114
0.841106 0.100000 -1.052144 128 128 255 -0.315489 0.698332 0.642494
0.861126 0.100000 -1.040575 128 128 255 -0.408330 0.676374 0.613013
0.881149 0.100000 -1.025488 128 128 255 -0.489738 0.649465 0.581681
0.901174 0.100000 -1.006876 128 128 255 -0.559801 0.619622 0.550174
0.921202 0.100000 -0.984753 128 128 255 -0.619371 0.588461 0.519705
0.941233 0.100000 -0.959155 128 128 255 -0.669670 0.557146 0.491051
0.961267 0.100000 -0.930136 128 128 255 -0.712019 0.526442 0.464638
0.981303 0.100000 -0.897773 128 128 255 -0.747680 0.496800 0.440641
1.001342 0.100000 -0.862161 128 128 255 -0.777774 0.468452 0.419070
1.021382 0.100000 -0.823414 128 128 255 -0.803260 0.441475 0.399841
1.041423 0.100000 -0.781665 128 128 255 -0.824935 0.415853 0.382817
1.061465 0.100000 -0.737064 128 128 255 -0.843454 0.391508 0.367841
1.081507 0.100000 -0.689778 128 128 255 -0.859341 0.368346 0.354759
1.101529 0.100000 -0.640042 128 128 255 -0.866541 0.355580 0.350243
-0.901541 0.120031 -0.649467 128 128 255 0.917647 0.176648 0.355978
-0.881497 0.120031 -0.700659 128 128 255 0.909597 0.198305 0.365114
-0.861453 0.120030 -0.749331 128 128 255 0.895560 0.232523 0.379349
-0.841409 0.120030 -0.795295 128 128 255 0.878132 0.269454 0.395321
-0.821366 0.120030 -0.838376 128 128 255 0.856566 0.309303 0.413069
-0.801324 0.120029 -0.878419 128 128 255 0.829965 0.352197 0.432568
-0.781284 0.120029 -0.915284 128 128 255 0.797275 0.398133 0.453699
-0.761247 0.120029 -0.948851 128 128 255 0.757313 0.446898 0.476192
-0.741212 0.120029 -0.979020 128 128 255 0.708836 0.497973 0.499574
-0.721179 0.120029 -1.005711 128 128 255 0.650683 0.550421 0.523114
-0.701150 0.120029 -1.028862 128 128 255 0.581996 0.602812 0.545801
-0.681124 0.120029 -1.048435 128 128 255 0.502527 0.653211 0.566376
-0.661101 0.120029 -1.064410 128 128 255 0.412950 0.699322 0.583456
-0.641081 0.120029 -1.076792 128 128 255 0.315070 0.738784 0.595759
-0.621063 0.120030 -1.085602 128 128 255 0.211789 0.769601 0.602379
-0.601049 0.120030 -1.090886 128 128 255 0.106727 0.790564 0.603008
-0.581036 0.120030 -1.092707 128 128 255 0.003638 0.801481 0.598009
-0.561026 0.120031 -1.091151 128 128 255 -0.094216 0.803130 0.588308
-0.541016 0.120032 -1.086321 128 128 255 -0.184473 0.796974 0.575154
-0.521008 0.120033 -1.078340 128 128 255 -0.265802 0.784796 0.559862
-0.501001 0.120033 -1.067348 128 128 255 -0.337779 0.768364 0.543619
-0.480994 0.120034 -1.053503 128 128 255 -0.400641 0.749233 0.527387
-0.460986 0.120035 -1.036977 128 128 255 -0.455034 0.728648 0.511875
-0.440978 0.120036 -1.017958 128 128 255 -0.501797 0.707547 0.497571
-0.420969 0.120037 -0.996646 128 128 255 -0.541819 0.686596 0.484787
-0.400957 0.120038 -0.973255 128 128 255 -0.575950 0.666246 0.473707
-0.380944 0.120039 -0.948009 128 128 255 -0.604956 0.646787 0.464430
-0.360928 0.120040 -0.921140 128 128 255 -0.629498 0.628396 0.457003
-0.340909 0.120041 -0.892889 128 128 255 -0.650130 0.611170 0.451445
-0.320888 0.120042 -0.863503 128 128 255 -0.667307 0.595155 0.447763
-0.300863 0.120043 -0.833232 128 128 255 -0.681388 0.580365 0.445968
-0.280836 0.120044 -0.802330 128 128 255 -0.692645 0.566795 0.446079
-0.260805 0.120045 -0.771053 128 128 255 -0.701273 0.554431 0.448133
-0.240771 0.120045 -0.739654 128 128 255 -0.707389 0.543255 0.452189
-0.220735 0.120046 -0.708386 128 128 255 -0.711040 0.533252 0.458328
-0.200696 0.120046 -0.677499 128 128 255 -0.712195 0.524408 0.466663
-0.180655 0.120047 -0.647233 128 128 255 -0.710745 0.516716 0.477333
-0.160612 0.120047 -0.617827 128 128 255 -0.706487 0.510170 0.490513
-0.140567 0.120047 -0.589506 128 128 255 -0.699116 0.504768 0.506406
-0.120522 0.120047 -0.562489 128 128 255 -0.688199 0.500502 0.525243
-0.100475 0.120048 -0.536982 128 128 255 -0.673153 0.497354 0.547270
-0.080428 0.120048 -0.513178 128 128 255 -0.653206 0.495282 0.572729
-0.060381 0.120048 -0.491256 128 128 255 -0.627366 0.494197 0.601815
-0.040333 0.120048 -0.471381 128 128 255 -0.594385 0.493937 0.634613
-0.020286 0.120048 -0.453700 128 128 255 -0.552747 0.494225 0.670979
-0.000238 0.120048 -0.438345 128 128 255 -0.500705 0.494625 0.710380
0.019809 0.120048 -0.425430 128 128 255 -0.436408 0.494510 0.751670
0.039857 0.120048 -0.415051 128 128 255 -0.358157 0.493084 0.792838
0.059904 0.120048 -0.407293 128 128 255 -0.264661 0.489512 0.830863
0.079952 0.120048 -0.402245 128 128 255 -0.154503 0.482848 0.861967
0.100000 0.120048 -0.400097 128 128 255 -0.028305 0.471976 0.881157
0.120048 0.120048 -0.401077 128 128 255 0.109418 0.446180 0.888229
0.140096 0.120048 -0.404964 128 128 255 0.230944 0.414068 0.880462
0.160143 0.120048 -0.411576 128 128 255 0.340242 0.382168 0.859176
0.180190 0.120048 -0.420831 128 128 255 0.435834 0.351213 0.828673
0.200238 0.120048 -0.432652 128 128 255 0.516827 0.322545 0.793003
0.220285 0.120048 -0.446950 128 128 255 0.583759 0.297206 0.755576
0.240332 0.120047 -0.463616 128 128 255 0.638121 0.275748 0.718864
0.260380 0.120047 -0.482526 128 128 255 0.681772 0.258323 0.684438
0.280427 0.120047 -0.503538 128 128 255 0.716548 0.244824 0.653162
0.300474 0.120047 -0.526494 128 128 255 0.744060 0.235009 0.625417
0.320521 0.120047 -0.551220 128 128 255 0.765640 0.228594 0.601282
0.340567 0.120047 -0.577527 128 128 255 0.782338 0.225301 0.580678
0.360611 0.120047 -0.605215 128 128 255 0.794958 0.224886 0.563443
0.380655 0.120047 -0.634069 128 128 255 0.804100 0.227147 0.549389
0.400696 0.120046 -0.663867 128 128 255 0.810186 0.231936 0.538335
0.420736 0.120046 -0.694373 128 128 255 0.813497 0.239153 0.530121
0.440773 0.120045 -0.725349 128 128 255 0.814192 0.248739 0.524614
0.460807 0.120045 -0.756547 128 128 255 0.812317 0.260683 0.521713
0.480839 0.120044 -0.787716 128 128 255 0.807812 0.275014 0.521350
0.500867 0.120043 -0.818603 128 128 255 0.800514 0.291792 0.523483
0.520893 0.120043 -0.848953 128 128 255 0.790146 0.311110 0.528091
0.540915 0.120042 -0.878511 128 128 255 0.776307 0.333082 0.535167
0.560934 0.120041 -0.907025 128 128 255 0.758457 0.357829 0.544703
0.580951 0.120040 -0.934247 128 128 255 0.735893 0.385459 0.556671
0.600965 0.120039 -0.959934 128 128 255 0.707736 0.416033 0.570987
0.620977 0.120038 -0.983850 128 128 255 0.672909 0.449520 0.587473
0.640986 0.120037 -1.005769 128 128 255 0.630160 0.485713 0.605790
0.660995 0.120036 -1.025474 128 128 255 0.578105 0.524135 0.625362
0.681002 0.120035 -1.042759 128 128 255 0.515369 0.563915 0.645287
0.701009 0.120034 -1.057431 128 128 255 0.440817 0.603673 0.664273
0.721016 0.120033 -1.069313 128 128 255 0.353936 0.641457 0.680633
0.741024 0.120032 -1.078242 128 128 255 0.255276 0.674830 0.692415
0.761032 0.120031 -1.084070 128 128 255 0.146847 0.701168 0.697710
0.781042 0.120031 -1.086671 128 128 255 0.032183 0.718190 0.695103
0.801053 0.120030 -1.085932 128 128 255 -0.084069 0.724530 0.684097
0.821067 0.120030 -1.081762 128 128 255 -0.197011 0.720105 0.665308
0.841083 0.120029 -1.074090 128 128 255 -0.302461 0.706078 0.640290
0.861102 0.120029 -1.062865 128 128 255 -0.397606 0.684446 0.611100
0.881124 0.120029 -1.048054 128 128 255 -0.481164 0.657496 0.579810
0.901149 0.120029 -1.029649 128 128 255 -0.553110 0.627355 0.548175
0.921177 0.120029 -1.007660 128 128 255 -0.614255 0.595738 0.517482
0.941208 0.120029 -0.982119 128 128 255 -0.665833 0.563891 0.488562
0.961242 0.120029 -0.953080 128 128 255 -0.709202 0.532638 0.461876
0.981279 0.120029 -0.920615 128 128 255 -0.745668 0.502464 0.437617
1.001318 0.120029 -0.884819 128 128 255 -0.776394 0.473621 0.415808
1.021359 0.120030 -0.845803 128 128 255 -0.802375 0.446197 0.396361
1.041401 0.120030 -0.803702 128 128 255 -0.824441 0.420176 0.379142
1.061444 0.120030 -0.758664 128 128 255 -0.843271 0.395482 0.363990
1.081488 0.120030 -0.710858 128 128 255 -0.859408 0.372013 0.350748
1.101511 0.120031 -0.660519 128 128 255 -0.866730 0.359130 0.346129
-0.901532 0.140061 -0.658958 128 128 255 0.921494 0.172919 0.347777
-0.881486 0.140061 -0.711585 128 128 255 0.913787 0.194425 0.356641
-0.861440 0.140060 -0.761674 128 128 255 0.900359 0.228367 0.370410
-0.841395 0.140059 -0.809032 128 128 255 0.883660 0.265017 0.385891
-0.821350 0.140059 -0.853477 128 128 255 0.862965 0.304591 0.403132
-0.801306 0.140058 -0.894848 128 128 255 0.837394 0.347243 0.422130
-0.781264 0.140057 -0.932998 128 128 255 0.805909 0.393001 0.442787
-0.761225 0.140057 -0.967803 128 128 255 0.767330 0.441704 0.464868
-0.741189 0.140057 -0.999155 128 128 255 0.720395 0.492888 0.487947
-0.721155 0.140056 -1.026969 128 128 255 0.663889 0.545690 0.511346
-0.701125 0.140056 -1.051181 128 128 255 0.596852 0.598747 0.534106
-0.681098 0.140056 -1.071745 128 128 255 0.518883 0.650176 0.555006
-0.661074 0.140057 -1.088639 128 128 255 0.430472 0.697673 0.572666
-0.641053 0.140057 -1.101862 128 128 255 0.333238 0.738807 0.585762
-0.621036 0.140058 -1.111435 128 128 255 0.229946 0.771440 0.593300
-0.601021 0.140058 -1.117398 128 128 255 0.124199 0.794178 0.594858
-0.581009 0.140059 -1.119814 128 128 255 0.019837 0.806653 0.590693
-0.560998 0.140060 -1.118765 128 128 255 -0.079703 0.809521 0.581655
-0.540990 0.140062 -1.114355 128 128 255 -0.171861 0.804202 0.568967
-0.520983 0.140063 -1.106705 128 128 255 -0.255126 0.792494 0.553953
-0.500976 0.140065 -1.095955 128 128 255 -0.328944 0.776231 0.537830
-0.480970 0.140067 -1.082262 128 128 255 -0.393485 0.757038 0.521597
-0.460964 0.140069 -1.065800 128 128 255 -0.449359 0.736235 0.505998
-0.440957 0.140071 -1.046758 128 128 255 -0.497409 0.714819 0.491547
-0.420949 0.140073 -1.025338 128 128 255 -0.538537 0.693500 0.478576
-0.400940 0.140075 -1.001757 128 128 255 -0.573621 0.672761 0.467281
-0.380928 0.140077 -0.976240 128 128 255 -0.603450 0.652914 0.457767
-0.360914 0.140079 -0.949023 128 128 255 -0.628712 0.634148 0.450086
-0.340897 0.140082 -0.920351 128 128 255 -0.649985 0.616569 0.444254
-0.320877 0.140084 -0.890474 128 128 255 -0.667743 0.600227 0.440280
-0.300854 0.140085 -0.859648 128 128 255 -0.682364 0.585138 0.438170
-0.280828 0.140087 -0.828132 128 128 255 -0.694138 0.571297 0.437941
-0.260799 0.140089 -0.796185 128 128 255 -0.703274 0.558691 0.439625
-0.240767 0.140090 -0.764067 128 128 255 -0.709905 0.547303 0.443277
-0.220732 0.140091 -0.732037 128 128 255 -0.714093 0.537116 0.448973
-0.200694 0.140093 -0.700350 128 128 255 -0.715824 0.528120 0.456821
-0.180654 0.140093 -0.669253 128 128 255 -0.715003 0.520309 0.466958
-0.160611 0.140094 -0.638990 128 128 255 -0.711449 0.513683 0.479552
-0.140567 0.140095 -0.609794 128 128 255 -0.704879 0.508245 0.494806
-0.120522 0.140095 -0.581891 128 128 255 -0.694885 0.503999 0.512953
-0.100476 0.140095 -0.555491 128 128 255 -0.680911 0.500942 0.534245
-0.080429 0.140095 -0.530796 128 128 255 -0.662218 0.499053 0.558940
-0.060382 0.140095 -0.507991 128 128 255 -0.637842 0.498276 0.587264
-0.040334 0.140095 -0.487248 128 128 255 -0.606554 0.498492 0.619353
-0.020287 0.140096 -0.468722 128 128 255 -0.566834 0.499482 0.655146
-0.000239 0.140096 -0.452553 128 128 255 -0.516875 0.500878 0.694235
0.019809 0.140096 -0.438862 128 128 255 -0.454663 0.502113 0.735639
0.039856 0.140096 -0.427760 128 128 255 -0.378181 0.502381 0.777555
0.059904 0.140096 -0.419348 128 128 255 -0.285746 0.500585 0.817169
0.079952 0.140096 -0.413733 128 128 255 -0.176620 0.495114 0.850686
0.100000 0.140096 -0.411041 128 128 255 -0.052657 0.482995 0.874038
0.120048 0.140096 -0.411350 128 128 255 0.078777 0.460676 0.884065
0.140096 0.140096 -0.414597 128 128 255 0.204980 0.430623 0.878946
0.160143 0.140096 -0.420672 128 128 255 0.319711 0.397755 0.859986
0.180191 0.140095 -0.429482 128 128 255 0.420284 0.365084 0.830708
0.200238 0.140095 -0.440940 128 128 255 0.505543 0.334506 0.795319
0.220285 0.140095 -0.454952 128 128 255 0.575947 0.307286 0.757535
0.240333 0.140095 -0.471407 128 128 255 0.633033 0.284093 0.720112
0.260380 0.140095 -0.490181 128 128 255 0.678770 0.265126 0.684821
0.280428 0.140095 -0.511130 128 128 255 0.715126 0.250285 0.652650
0.300474 0.140095 -0.534095 128 128 255 0.743836 0.239321 0.624047
0.320521 0.140095 -0.558901 128 128 255 0.766334 0.231922 0.599119
0.340567 0.140094 -0.585358 128 128 255 0.783753 0.227784 0.577794
0.360611 0.140094 -0.613263 128 128 255 0.796959 0.226638 0.559904
0.380654 0.140093 -0.642400 128 128 255 0.806594 0.228262 0.545254
0.400695 0.140093 -0.672541 128 128 255 0.813122 0.232485 0.533651
0.420735 0.140092 -0.703451 128 128 255 0.816849 0.239192 0.524923
0.440771 0.140091 -0.734886 128 128 255 0.817957 0.248314 0.518928
0.460805 0.140089 -0.766594 128 128 255 0.816511 0.259830 0.515556
0.480836 0.140088 -0.798321 128 128 255 0.812471 0.273756 0.514732
0.500864 0.140086 -0.829808 128 128 255 0.805688 0.290155 0.516408
0.520888 0.140085 -0.860794 128 128 255 0.795906 0.309109 0.520562
0.540909 0.140083 -0.891020 128 128 255 0.782744 0.330737 0.527186
0.560928 0.140081 -0.920229 128 128 255 0.765679 0.355165 0.536277
0.580943 0.140079 -0.948166 128 128 255 0.744031 0.382511 0.547817
0.600956 0.140076 -0.974583 128 128 255 0.716938 0.412856 0.561738
0.620966 0.140074 -0.999237 128 128 255 0.683341 0.446196 0.577888
0.640975 0.140072 -1.021896 128 128 255 0.641987 0.482364 0.595968
0.660982 0.140070 -1.042336 128 128 255 0.591474 0.520940 0.615451
0.680988 0.140068 -1.060345 128 128 255 0.530368 0.561119 0.635496
0.700993 0.140066 -1.075725 128 128 255 0.457426 0.601586 0.654871
0.720999 0.140064 -1.088292 128 128 255 0.371957 0.640438 0.671927
0.741005 0.140063 -1.097875 128 128 255 0.274294 0.675230 0.684710
0.761012 0.140061 -1.104324 128 128 255 0.166213 0.703253 0.691237
0.781021 0.140060 -1.107502 128 128 255 0.051102 0.722052 0.689949
0.801031 0.140059 -1.107295 128 128 255 -0.066399 0.730036 0.680176
0.821044 0.140058 -1.103604 128 128 255 -0.181227 0.726920 0.662377
0.841059 0.140057 -1.096354 128 128 255 -0.288934 0.713752 0.638024
0.861077 0.140057 -1.085488 128 128 255 -0.386425 0.692519 0.609174
0.881098 0.140056 -1.070971 128 128 255 -0.472191 0.665578 0.577963
0.901123 0.140056 -1.052789 128 128 255 -0.546083 0.635163 0.546224
0.921150 0.140056 -1.030949 128 128 255 -0.608863 0.603101 0.515320
0.941181 0.140056 -1.005479 128 128 255 -0.661771 0.570724 0.486141
0.961215 0.140057 -0.976432 128 128 255 -0.706201 0.538915 0.459185
0.981252 0.140057 -0.943877 128 128 255 -0.743503 0.508200 0.434667
1.001292 0.140057 -0.907906 128 128 255 -0.774885 0.478852 0.412618
1.021334 0.140058 -0.868631 128 128 255 -0.801382 0.450968 0.392957
1.041377 0.140059 -0.826185 128 128 255 -0.823853 0.424538 0.375544
1.061422 0.140059 -0.780716 128 128 255 -0.843003 0.399486 0.360217
1.081467 0.140060 -0.732393 128 128 255 -0.859396 0.375710 0.346816
1.101491 0.140060 -0.681453 128 128 255 -0.866842 0.362709 0.342093
-0.901522 0.160091 -0.668460 128 128 255 0.925168 0.169202 0.339757
-0.881474 0.160090 -0.722552 128 128 255 0.917791 0.190553 0.348352
-0.861427 0.160089 -0.774090 128 128 255 0.904948 0.224211 0.361660
-0.841379 0.160088 -0.822874 128 128 255 0.888952 0.260571 0.376654
-0.821332 0.160087 -0.868716 128 128 255 0.869097 0.299857 0.393391
-0.801287 0.160086 -0.911447 128 128 255 0.844525 0.342246 0.411881
-0.781243 0.160085 -0.950916 128 128 255 0.814214 0.387799 0.432051
-0.761202 0.160084 -0.986990 128 128 255 0.776992 0.436395 0.453699
-0.741164 0.160083 -1.019559 128 128 255 0.731583 0.487637 0.476441
-0.721129 0.160083 -1.048530 128 128 255 0.676725 0.540729 0.499655
-0.701098 0.160082 -1.073834 128 128 255 0.611371 0.594380 0.522435
-0.681070 0.160082 -1.095421 128 128 255 0.534971 0.646765 0.543601
-0.661046 0.160083 -1.113264 128 128 255 0.447830 0.695590 0.561785
-0.641024 0.160083 -1.127360 128 128 255 0.351371 0.738366 0.575634
-0.621007 0.160084 -1.137723 128 128 255 0.248213 0.772821 0.584070
-0.600992 0.160085 -1.144393 128 128 255 0.141908 0.797377 0.586560
-0.580979 0.160086 -1.147430 128 128 255 0.036373 0.811478 0.583250
-0.560970 0.160088 -1.146915 128 128 255 -0.064795 0.815646 0.574911
-0.540962 0.160090 -1.142947 128 128 255 -0.158833 0.811240 0.562726
-0.520955 0.160092 -1.135649 128 128 255 -0.244041 0.800071 0.548024
-0.500950 0.160095 -1.125160 128 128 255 -0.319728 0.784026 0.532050
-0.480945 0.160098 -1.111638 128 128 255 -0.385979 0.764807 0.515840
-0.460940 0.160101 -1.095256 128 128 255 -0.443370 0.743808 0.500172
-0.440934 0.160104 -1.076205 128 128 255 -0.492737 0.722089 0.485590
-0.420928 0.160107 -1.054690 128 128 255 -0.535000 0.700408 0.472445
-0.400920 0.160110 -1.030927 128 128 255 -0.571058 0.679281 0.460945
-0.380910 0.160114 -1.005147 128 128 255 -0.601728 0.659043 0.451205
-0.360898 0.160117 -0.977588 128 128 255 -0.627722 0.639898 0.443278
-0.340883 0.160120 -0.948498 128 128 255 -0.649643 0.621961 0.437182
-0.320865 0.160124 -0.918133 128 128 255 -0.667987 0.605285 0.432925
-0.300844 0.160127 -0.886751 128 128 255 -0.683148 0.589889 0.430510
-0.280820 0.160129 -0.854617 128 128 255 -0.695436 0.575770 0.429951
-0.260792 0.160132 -0.821996 128 128 255 -0.705073 0.562914 0.431276
-0.240761 0.160134 -0.789153 128 128 255 -0.712210 0.551304 0.434534
-0.220728 0.160136 -0.756352 128 128 255 -0.716922 0.540924 0.439800
-0.200691 0.160138 -0.723855 128 128 255 -0.719210 0.531764 0.447174
-0.180652 0.160140 -0.691915 128 128 255 -0.718996 0.523821 0.456789
-0.160610 0.160141 -0.660783 128 128 255 -0.716120 0.517097 0.468810
-0.140567 0.160142 -0.630698 128 128 255 -0.710318 0.511602 0.483438
-0.120522 0.160142 -0.601893 128 128 255 -0.701208 0.507348 0.500904
-0.100476 0.160143 -0.574585 128 128 255 -0.688262 0.504346 0.521469
-0.080430 0.160143 -0.548983 128 128 255 -0.670771 0.502593 0.545404
-0.060382 0.160143 -0.525279 128 128 255 -0.647803 0.502059 0.572964
-0.040335 0.160144 -0.503652 128 128 255 -0.618155 0.502658 0.604334
-0.020287 0.160144 -0.484265 128 128 255 -0.580313 0.504211 0.639537
-0.000239 0.160144 -0.467266 128 128 255 -0.532437 0.506390 0.678292
0.019808 0.160144 -0.452786 128 128 255 -0.472418 0.508637 0.719798
0.039856 0.160144 -0.440944 128 128 255 -0.398072 0.510065 0.762478
0.059904 0.160144 -0.431848 128 128 255 -0.307597 0.509317 0.803729
0.079952 0.160144 -0.425600 128 128 255 -0.200484 0.504397 0.839875
0.100000 0.160144 -0.422287 128 128 255 -0.078988 0.492709 0.866602
0.120048 0.160144 -0.421954 128 128 255 0.050506 0.472370 0.879952
0.140096 0.160143 -0.424580 128 128 255 0.178780 0.444365 0.877825
0.160143 0.160143 -0.430100 128 128 255 0.298020 0.411934 0.861101
0.180191 0.160143 -0.438435 128 128 255 0.403493 0.378413 0.833065
0.200238 0.160143 -0.449500 128 128 255 0.493204 0.346356 0.797990
0.220286 0.160143 -0.463198 128 128 255 0.567316 0.317446 0.759856
0.240333 0.160143 -0.479417 128 128 255 0.627329 0.292586 0.721700
0.260380 0.160143 -0.498031 128 128 255 0.675309 0.272091 0.685510
0.280428 0.160143 -0.518896 128 128 255 0.713358 0.255902 0.652407
0.300474 0.160142 -0.541852 128 128 255 0.743345 0.243767 0.622909
0.320521 0.160142 -0.566722 128 128 255 0.766815 0.235362 0.597159
0.340566 0.160142 -0.593315 128 128 255 0.784989 0.230361 0.575087
0.360611 0.160141 -0.621425 128 128 255 0.798801 0.228466 0.556525
0.380653 0.160140 -0.650833 128 128 255 0.808945 0.229436 0.541265
0.400694 0.160139 -0.681312 128 128 255 0.815919 0.233081 0.529103
0.420733 0.160137 -0.712620 128 128 255 0.820063 0.239269 0.519854
0.440769 0.160136 -0.744510 128 128 255 0.821580 0.247917 0.513365
0.460802 0.160134 -0.776727 128 128 255 0.820556 0.258993 0.509519
0.480832 0.160131 -0.809011 128 128 255 0.816970 0.272508 0.508231
0.500859 0.160129 -0.841100 128 128 255 0.810692 0.288514 0.509449
0.520883 0.160126 -0.872727 128 128 255 0.801481 0.307098 0.513146
0.540903 0.160123 -0.903627 128 128 255 0.788977 0.328372 0.519314
0.560920 0.160120 -0.933538 128 128 255 0.772678 0.352467 0.527954
0.580934 0.160117 -0.962200 128 128 255 0.751925 0.379512 0.539055
0.600946 0.160113 -0.989356 128 128 255 0.725876 0.409604 0.552566
0.620955 0.160110 -1.014760 128 128 255 0.693490 0.442764 0.568358
0.640962 0.160107 -1.038172 128 128 255 0.653520 0.478870 0.586170
0.660967 0.160104 -1.059361 128 128 255 0.604551 0.517552 0.605523
0.680972 0.160101 -1.078111 128 128 255 0.545098 0.558075 0.625636
0.700976 0.160098 -1.094214 128 128 255 0.473819 0.599193 0.645339
0.720980 0.160095 -1.107482 128 128 255 0.389858 0.639058 0.663035
0.740985 0.160092 -1.117738 128 128 255 0.293319 0.675234 0.676774
0.760991 0.160090 -1.124824 128 128 255 0.185743 0.704941 0.684513
0.780998 0.160088 -1.128598 128 128 255 0.070334 0.725557 0.684559
0.801007 0.160086 -1.128940 128 128 255 -0.048297 0.735263 0.676059
0.821019 0.160085 -1.125747 128 128 255 -0.164949 0.733555 0.659309
0.841033 0.160084 -1.118937 128 128 255 -0.274904 0.721341 0.635685
0.861051 0.160083 -1.108448 128 128 255 -0.374773 0.700582 0.607231
0.881071 0.160082 -1.094241 128 128 255 -0.462808 0.673703 0.576137
0.901095 0.160082 -1.076298 128 128 255 -0.538710 0.643047 0.544319
0.921122 0.160082 -1.054622 128 128 255 -0.603185 0.610552 0.513219
0.941153 0.160082 -1.029239 128 128 255 -0.657477 0.577645 0.483788
0.961187 0.160083 -1.000196 128 128 255 -0.703011 0.545274 0.456565
0.981224 0.160083 -0.967563 128 128 255 -0.741183 0.514009 0.431789
1.001264 0.160084 -0.931428 128 128 255 -0.773247 0.484147 0.409501
1.021307 0.160085 -0.891904 128 128 255 -0.800277 0.455795 0.389625
1.041351 0.160086 -0.849120 128 128 255 -0.823168 0.428947 0.372020
1.061397 0.160087 -0.803226 128 128 255 -0.842650 0.403528 0.356521
1.081444 0.160088 -0.754390 128 128 255 -0.859307 0.379431 0.342963
1.101470 0.160089 -0.702851 128 128 255 -0.866879 0.366310 0.338138
-0.901511 0.180121 -0.677969 128 128 255 0.928677 0.165501 0.331917
-0.881462 0.180119 -0.733557 128 128 255 0.921617 0.186693 0.340247
-0.861412 0.180118 -0.786576 128 128 255 0.909336 0.220064 0.353101
-0.841362 0.180116 -0.836819 128 128 255 0.894015 0.256121 0.367612
-0.821313 0.180114 -0.884090 128 128 255 0.874971 0.295107 0.383846
-0.801266 0.180113 -0.928215 128 128 255 0.851366 0.337213 0.401826
-0.781221 0.180111 -0.969036 128 128 255 0.822197 0.382532 0.421498
-0.761178 0.180110 -1.006415 128 128 255 0.786303 0.430988 0.442694
-0.741139 0.180108 -1.040233 128 128 255 0.742401 0.482234 0.465071
-0.721102 0.180108 -1.070395 128 128 255 0.689189 0.535553 0.488058
-0.701070 0.180107 -1.096823 128 128 255 0.625539 0.589728 0.510805
-0.681041 0.180107 -1.119466 128 128 255 0.550769 0.642994 0.532178
-0.661016 0.180107 -1.138290 128 128 255 0.464993 0.693084 0.550831
-0.640994 0.180107 -1.153288 128 128 255 0.369439 0.737464 0.565387
-0.620976 0.180108 -1.164473 128 128 255 0.266559 0.773738 0.574697
-0.600961 0.180110 -1.171879 128 128 255 0.159833 0.800146 0.578118
-0.580949 0.180112 -1.175563 128 128 255 0.053227 0.815939 0.575682
-0.560939 0.180114 -1.175606 128 128 255 -0.049502 0.821488 0.568073
-0.540932 0.180116 -1.172105 128 128 255 -0.145393 0.818076 0.556428
-0.520926 0.180119 -1.165182 128 128 255 -0.232547 0.807514 0.542073
-0.500921 0.180123 -1.154975 128 128 255 -0.310126 0.791740 0.526278
-0.480917 0.180127 -1.141641 128 128 255 -0.378120 0.772534 0.510115
-0.460914 0.180131 -1.125356 128 128 255 -0.437062 0.751364 0.494398
-0.440910 0.180135 -1.106311 128 128 255 -0.487780 0.729355 0.479700
-0.420905 0.180139 -1.084712 128 128 255 -0.531206 0.707317 0.466393
-0.400899 0.180144 -1.060779 128 128 255 -0.568261 0.685804 0.454700
-0.380891 0.180148 -1.034744 128 128 255 -0.599789 0.665173 0.444744
-0.360880 0.180153 -1.006849 128 128 255 -0.626530 0.645646 0.436579
-0.340868 0.180158 -0.977345 128 128 255 -0.649108 0.627344 0.430230
-0.320852 0.180162 -0.946492 128 128 255 -0.668041 0.610329 0.425699
-0.300832 0.180166 -0.914555 128 128 255 -0.683746 0.594620 0.422988
-0.280810 0.180171 -0.881800 128 128 255 -0.696545 0.580215 0.422109
-0.260784 0.180174 -0.848500 128 128 255 -0.706680 0.567101 0.423085
-0.240755 0.180178 -0.814926 128 128 255 -0.714314 0.555259 0.425962
-0.220723 0.180181 -0.781346 128 128 255 -0.719537 0.544675 0.430808
-0.200687 0.180183 -0.748028 128 128 255 -0.722366 0.535339 0.437720
-0.180649 0.180185 -0.715234 128 128 255 -0.722741 0.527248 0.446827
-0.160609 0.180187 -0.683220 128 128 255 -0.720518 0.520409 0.458288
-0.140566 0.180189 -0.652232 128 128 255 -0.715456 0.514834 0.472302
-0.120522 0.180190 -0.622508 128 128 255 -0.707196 0.510543 0.489101
-0.100476 0.180191 -0.594276 128 128 255 -0.695240 0.507557 0.508947
-0.080430 0.180191 -0.567749 128 128 255 -0.678910 0.505888 0.532126
-0.060383 0.180191 -0.543128 128 128 255 -0.657310 0.505525 0.558917
-0.040335 0.180192 -0.520598 128 128 255 -0.629269 0.506407 0.589553
-0.020287 0.180192 -0.500332 128 128 255 -0.593297 0.508385 0.624134
-0.000240 0.180192 -0.482482 128 128 255 -0.547558 0.511151 0.662499
0.019808 0.180192 -0.467189 128 128 255 -0.489903 0.514151 0.704020
0.039856 0.180192 -0.454577 128 128 255 -0.418068 0.516447 0.747330
0.059904 0.180192 -0.444757 128 128 255 -0.330149 0.516577 0.790032
0.079952 0.180192 -0.437823 128 128 255 -0.225526 0.512498 0.828543
