ply
format ascii 1.0
element vertex 702
property float x
property float y
property float z
property uchar red
property uchar green
property uchar blue
property float nx
property float ny
property float nz
end_header
0.359729 -0.070874 0.185298 128 128 255 -0.685106 -0.158260 0.711044
0.373363 -0.070852 0.200598 128 128 255 -0.789209 -0.129075 0.600407
0.386994 -0.070830 0.221117 128 128 255 -0.861124 -0.103393 0.497771
0.400621 -0.070807 0.247730 128 128 255 -0.907755 -0.082566 0.411296
0.414245 -0.070785 0.281236 128 128 255 -0.937189 -0.066455 0.342434
0.427866 -0.070764 0.322267 128 128 255 -0.955696 -0.054295 0.289304
0.441484 -0.070742 0.371188 128 128 255 -0.967417 -0.045235 0.249115
0.455099 -0.070721 0.427993 128 128 255 -0.974903 -0.038551 0.219269
0.468711 -0.070700 0.492211 128 128 255 -0.979679 -0.033697 0.197721
0.482319 -0.070678 0.562831 128 128 255 -0.982640 -0.030286 0.183032
0.495922 -0.070656 0.638269 128 128 255 -0.984285 -0.028068 0.174341
0.509520 -0.070633 0.716372 128 128 255 -0.984838 -0.026917 0.171373
0.523112 -0.070610 0.794491 128 128 255 -0.984285 -0.026832 0.174539
0.536697 -0.070585 0.869603 128 128 255 -0.982289 -0.027979 0.185273
0.550275 -0.070559 0.938485 128 128 255 -0.977885 -0.030804 0.206864
0.563849 -0.070533 0.997934 128 128 255 -0.968404 -0.036362 0.246721
0.577418 -0.070506 1.045000 128 128 255 -0.945095 -0.047330 0.323351
0.590984 -0.070480 1.077224 128 128 255 -0.867696 -0.071713 0.491896
0.604548 -0.070455 1.092839 128 128 255 -0.447363 -0.128788 0.885031
0.618111 -0.070431 1.090920 128 128 255 0.614606 -0.113528 0.780622
0.631674 -0.070408 1.071465 128 128 255 0.896624 -0.063715 0.438184
0.645237 -0.070386 1.035400 128 128 255 0.953751 -0.043229 0.297474
0.658797 -0.070365 0.984489 128 128 255 0.972393 -0.033501 0.230932
0.672356 -0.070344 0.921194 128 128 255 0.980314 -0.028251 0.195414
0.685910 -0.070323 0.848460 128 128 255 0.984093 -0.025281 0.175845
0.699460 -0.070301 0.769492 128 128 255 0.985846 -0.023677 0.165976
0.713005 -0.070279 0.687511 128 128 255 0.986364 -0.023013 0.162961
0.726545 -0.070257 0.605540 128 128 255 0.985935 -0.023093 0.165528
0.740081 -0.070234 0.526228 128 128 255 0.984585 -0.023839 0.173275
0.753612 -0.070212 0.451727 128 128 255 0.982153 -0.025254 0.186381
0.767141 -0.070189 0.383623 128 128 255 0.978275 -0.027399 0.205494
0.780666 -0.070166 0.322926 128 128 255 0.972313 -0.030388 0.231700
0.794188 -0.070144 0.270110 128 128 255 0.963220 -0.034383 0.266505
0.807708 -0.070122 0.225180 128 128 255 0.949334 -0.039584 0.311766
0.821225 -0.070100 0.187775 128 128 255 0.928109 -0.046193 0.369431
0.834738 -0.070078 0.157264 128 128 255 0.895912 -0.054340 0.440896
0.848249 -0.070057 0.132852 128 128 255 0.848219 -0.063941 0.525773
0.861757 -0.070035 0.113668 128 128 255 0.780879 -0.074505 0.620224
0.875262 -0.070014 0.098836 128 128 255 0.692851 -0.085055 0.716047
0.888764 -0.069992 0.087530 128 128 255 0.589108 -0.094358 0.802526
0.902263 -0.069971 0.079010 128 128 255 0.480423 -0.101478 0.871147
0.915758 -0.069950 0.072638 128 128 255 0.378810 -0.106190 0.919362
0.929251 -0.069929 0.067885 128 128 255 0.292485 -0.108885 0.950051
0.942741 -0.069907 0.064327 128 128 255 0.224289 -0.110182 0.968274
0.956228 -0.069886 0.061632 128 128 255 0.173144 -0.110627 0.978664
0.969712 -0.069866 0.059551 128 128 255 0.136156 -0.110597 0.984495
0.983193 -0.069845 0.057900 128 128 255 0.110065 -0.110321 0.987783
0.996671 -0.069824 0.056544 128 128 255 0.091952 -0.109923 0.989678
1.010147 -0.069804 0.055393 128 128 255 0.079468 -0.109472 0.990808
1.023619 -0.069783 0.054380 128 128 255 0.070841 -0.109003 0.991514
1.037089 -0.069763 0.053465 128 128 255 0.064794 -0.108532 0.991979
1.050556 -0.069742 0.052619 128 128 255 0.060436 -0.108069 0.992305
1.064021 -0.069722 0.051823 128 128 255 0.057163 -0.107618 0.992548
1.077482 -0.069702 0.051067 128 128 255 0.054580 -0.107181 0.992740
1.090941 -0.069682 0.050342 128 128 255 0.052430 -0.106759 0.992902
1.104397 -0.069662 0.049644 128 128 255 0.050553 -0.106354 0.993042
1.117837 -0.069642 0.048972 128 128 255 0.048842 -0.106725 0.993088
-0.917944 0.015171 0.057845 128 128 255 -0.052201 -0.101230 0.993493
-0.904491 0.015161 0.058549 128 128 255 -0.052712 -0.102028 0.993384
-0.891036 0.015151 0.059276 128 128 255 -0.054366 -0.102174 0.993280
-0.877577 0.015141 0.060026 128 128 255 -0.056064 -0.102328 0.993170
-0.864116 0.015131 0.060799 128 128 255 -0.057806 -0.102492 0.993053
-0.850652 0.015120 0.061597 128 128 255 -0.059594 -0.102666 0.992929
-0.837186 0.015110 0.062420 128 128 255 -0.061429 -0.102850 0.992798
-0.823716 0.015100 0.063268 128 128 255 -0.063312 -0.103044 0.992660
-0.810244 0.015089 0.064143 128 128 255 -0.065244 -0.103251 0.992513
-0.796769 0.015079 0.065045 128 128 255 -0.067227 -0.103469 0.992358
-0.783291 0.015068 0.065974 128 128 255 -0.069261 -0.103700 0.992194
-0.769810 0.015058 0.066932 128 128 255 -0.071348 -0.103945 0.992021
-0.756327 0.015047 0.067920 128 128 255 -0.073489 -0.104204 0.991837
-0.742840 0.015036 0.068937 128 128 255 -0.075685 -0.104478 0.991643
-0.729351 0.015026 0.069986 128 128 255 -0.077938 -0.104768 0.991438
-0.715859 0.015015 0.071066 128 128 255 -0.080250 -0.105076 0.991221
-0.702363 0.015004 0.072178 128 128 255 -0.082628 -0.105401 0.990991
-0.688865 0.014993 0.073325 128 128 255 -0.085091 -0.105745 0.990746
-0.675364 0.014982 0.074506 128 128 255 -0.087712 -0.106108 0.990479
-0.661859 0.014971 0.075725 128 128 255 -0.090716 -0.106489 0.990167
-0.648352 0.014960 0.076990 128 128 255 -0.094784 -0.106883 0.989743
-0.634841 0.014949 0.078323 128 128 255 -0.101777 -0.107271 0.989007
-0.621328 0.014938 0.079782 128 128 255 -0.116354 -0.107592 0.987363
-0.607811 0.014927 0.081520 128 128 255 -0.149000 -0.107653 0.982960
-0.594291 0.014915 0.083893 128 128 255 -0.220117 -0.106786 0.969611
-0.580768 0.014904 0.087672 128 128 255 -0.358878 -0.102832 0.927702
-0.567242 0.014893 0.094371 128 128 255 -0.571961 -0.091074 0.815209
-0.553712 0.014881 0.106669 128 128 255 -0.784224 -0.069570 0.616565
-0.540180 0.014870 0.128806 128 128 255 -0.910433 -0.046975 0.410981
-0.526644 0.014858 0.166648 128 128 255 -0.963580 -0.030869 0.265633
-0.513106 0.014846 0.227031 128 128 255 -0.983746 -0.021146 0.178316
-0.499567 0.014834 0.316047 128 128 255 -0.991608 -0.015572 0.128336
-0.486026 0.014822 0.436286 128 128 255 -0.994842 -0.012499 0.100659
-0.472483 0.014809 0.583745 128 128 255 -0.996128 -0.011042 0.087218
-0.458931 0.014797 0.745765 128 128 255 -0.996320 -0.010888 0.085022
-0.445368 0.014786 0.901517 128 128 255 -0.995264 -0.012351 0.096425
-0.431797 0.014776 1.025869 128 128 255 -0.990240 -0.017503 0.138269
-0.418226 0.014765 1.095932 128 128 255 -0.935046 -0.043590 0.351836
-0.404663 0.014753 1.098016 128 128 255 0.919387 -0.047140 0.390519
-0.391106 0.014738 1.032123 128 128 255 0.989409 -0.017001 0.144154
-0.377548 0.014724 0.911944 128 128 255 0.994989 -0.011558 0.099316
-0.363977 0.014710 0.760372 128 128 255 0.996120 -0.010185 0.087412
-0.350393 0.014698 0.602542 128 128 255 0.995896 -0.010639 0.089881
-0.336800 0.014687 0.459282 128 128 255 0.994468 -0.012672 0.104269
-0.323204 0.014677 0.343258 128 128 255 0.990819 -0.016825 0.134147
-0.309607 0.014665 0.258471 128 128 255 0.981600 -0.024526 0.189367
-0.296009 0.014653 0.202336 128 128 255 0.956311 -0.038678 0.289781
-0.282409 0.014641 0.168763 128 128 255 0.882302 -0.063960 0.466318
-0.268806 0.014628 0.150918 128 128 255 0.685683 -0.101349 0.720810
-0.255199 0.014616 0.142935 128 128 255 0.353702 -0.133232 0.925821
-0.241588 0.014603 0.140580 128 128 255 0.066292 -0.145306 0.987163
-0.227973 0.014590 0.141172 128 128 255 -0.092233 -0.148269 0.984637
-0.214355 0.014577 0.143201 128 128 255 -0.166325 -0.150237 0.974559
-0.200732 0.014565 0.145896 128 128 255 -0.199670 -0.152916 0.967858
-0.187106 0.014552 0.148902 128 128 255 -0.215260 -0.156300 0.963968
-0.173475 0.014539 0.152067 128 128 255 -0.223619 -0.160223 0.961417
-0.159841 0.014526 0.155333 128 128 255 -0.229184 -0.164600 0.959365
-0.146202 0.014513 0.158678 128 128 255 -0.233664 -0.169420 0.957443
-0.132559 0.014500 0.162092 128 128 255 -0.237638 -0.174712 0.955512
-0.118912 0.014487 0.165571 128 128 255 -0.241251 -0.180524 0.953525
-0.105261 0.014475 0.169109 128 128 255 -0.244487 -0.186922 0.951465
-0.091606 0.014462 0.172701 128 128 255 -0.247268 -0.193979 0.949332
-0.077946 0.014449 0.176340 128 128 255 -0.249473 -0.201783 0.947125
-0.064282 0.014436 0.180014 128 128 255 -0.250947 -0.210436 0.944850
-0.050614 0.014424 0.183710 128 128 255 -0.251487 -0.220055 0.942513
-0.036941 0.014412 0.187410 128 128 255 -0.250833 -0.230773 0.940120
-0.023264 0.014400 0.191090 128 128 255 -0.248647 -0.242746 0.937683
-0.009583 0.014388 0.194717 128 128 255 -0.244493 -0.256148 0.935207
0.004102 0.014377 0.198249 128 128 255 -0.237810 -0.271173 0.932690
0.017792 0.014366 0.201628 128 128 255 -0.227899 -0.288029 0.930108
0.031485 0.014357 0.204782 128 128 255 -0.213935 -0.306918 0.927380
0.045183 0.014348 0.207616 128 128 255 -0.195048 -0.328000 0.924322
0.058884 0.014341 0.210019 128 128 255 -0.170553 -0.351332 0.920586
0.072587 0.014335 0.211865 128 128 255 -0.140344 -0.376773 0.915612
0.086293 0.014332 0.213033 128 128 255 -0.105388 -0.403933 0.908697
0.100000 0.014331 0.213433 128 128 255 0.063163 -0.415134 0.907565
0.113707 0.014332 0.213032 128 128 255 0.100670 -0.390524 0.915072
0.127413 0.014335 0.211865 128 128 255 0.135521 -0.366980 0.920304
0.141116 0.014341 0.210025 128 128 255 0.165409 -0.344774 0.923997
0.154817 0.014348 0.207637 128 128 255 0.189270 -0.324127 0.926886
0.168515 0.014357 0.204834 128 128 255 0.207000 -0.305164 0.929530
0.182208 0.014366 0.201738 128 128 255 0.218929 -0.287917 0.932295
0.195898 0.014377 0.198461 128 128 255 0.225369 -0.272357 0.935431
0.209583 0.014388 0.195104 128 128 255 0.226310 -0.258419 0.939151
0.223264 0.014400 0.191766 128 128 255 0.221222 -0.246025 0.943680
0.236941 0.014412 0.188552 128 128 255 0.208888 -0.235090 0.949262
0.250614 0.014424 0.185588 128 128 255 0.187215 -0.225510 0.956084
0.264282 0.014436 0.183029 128 128 255 0.153025 -0.217124 0.964075
0.277946 0.014449 0.181078 128 128 255 0.101876 -0.209633 0.972458
0.291606 0.014462 0.179998 128 128 255 0.028167 -0.202453 0.978887
0.305261 0.014475 0.180128 128 128 255 -0.073808 -0.194508 0.978120
0.318912 0.014487 0.181902 128 128 255 -0.206686 -0.184107 0.960929
0.332559 0.014500 0.185852 128 128 255 -0.364322 -0.169353 0.915745
0.346202 0.014513 0.192620 128 128 255 -0.527906 -0.149490 0.836043
0.359841 0.014526 0.202948 128 128 255 -0.672719 -0.126228 0.729051
0.373476 0.014539 0.217664 128 128 255 -0.783058 -0.102970 0.613366
0.387107 0.014551 0.237643 128 128 255 -0.858328 -0.082529 0.506420
0.400735 0.014564 0.263758 128 128 255 -0.906551 -0.066024 0.416902
0.414360 0.014576 0.296804 128 128 255 -0.936689 -0.053313 0.346081
0.427981 0.014588 0.337408 128 128 255 -0.955498 -0.043758 0.291735
0.441600 0.014600 0.385934 128 128 255 -0.967346 -0.036664 0.250794
0.455215 0.014612 0.442372 128 128 255 -0.974884 -0.031450 0.220480
0.468827 0.014623 0.506249 128 128 255 -0.979682 -0.027684 0.198638
0.482435 0.014635 0.576552 128 128 255 -0.982651 -0.025062 0.183764
0.496039 0.014647 0.651694 128 128 255 -0.984298 -0.023393 0.174960
0.509637 0.014659 0.729521 128 128 255 -0.984850 -0.022586 0.171930
0.523228 0.014672 0.807383 128 128 255 -0.984294 -0.022651 0.175079
0.536813 0.014685 0.882254 128 128 255 -0.982293 -0.023740 0.185840
0.550391 0.014699 0.950910 128 128 255 -0.977877 -0.026243 0.207526
0.563964 0.014712 1.010147 128 128 255 -0.968363 -0.031073 0.247606
0.577533 0.014726 1.057015 128 128 255 -0.944922 -0.040537 0.324775
0.591098 0.014740 1.089054 128 128 255 -0.866769 -0.061552 0.494897
0.604662 0.014753 1.104493 128 128 255 -0.439906 -0.110603 0.891207
0.618225 0.014766 1.102409 128 128 255 0.621103 -0.096401 0.777778
0.631787 0.014778 1.082800 128 128 255 0.898030 -0.054062 0.436601
0.645349 0.014789 1.046588 128 128 255 0.954265 -0.036697 0.296701
0.658909 0.014800 0.995540 128 128 255 0.972663 -0.028457 0.230471
0.672467 0.014811 0.932114 128 128 255 0.980490 -0.024024 0.195095
0.686021 0.014823 0.859258 128 128 255 0.984227 -0.021540 0.175597
0.699571 0.014834 0.780173 128 128 255 0.985958 -0.020228 0.165764
0.713115 0.014845 0.698081 128 128 255 0.986467 -0.019734 0.162765
0.726654 0.014857 0.616006 128 128 255 0.986037 -0.019892 0.165336
0.740189 0.014869 0.536596 128 128 255 0.984692 -0.020643 0.173076
0.753719 0.014880 0.462001 128 128 255 0.982273 -0.021995 0.186163
0.767247 0.014892 0.393808 128 128 255 0.978416 -0.024012 0.205246
0.780771 0.014904 0.333027 128 128 255 0.972488 -0.026802 0.231406
0.794293 0.014915 0.280129 128 128 255 0.963450 -0.030522 0.266145
0.807812 0.014926 0.235123 128 128 255 0.949649 -0.035361 0.311313
0.821328 0.014938 0.197645 128 128 255 0.928560 -0.041517 0.368852
0.834841 0.014949 0.167065 128 128 255 0.896574 -0.049122 0.440161
0.848352 0.014960 0.142587 128 128 255 0.849199 -0.058117 0.524866
0.861859 0.014971 0.123340 128 128 255 0.782299 -0.068067 0.619173
0.875364 0.014982 0.108448 128 128 255 0.694805 -0.078082 0.714947
0.888865 0.014993 0.097085 128 128 255 0.591597 -0.087017 0.801524
0.902363 0.015004 0.088510 128 128 255 0.483338 -0.093982 0.870374
0.915859 0.015015 0.082085 128 128 255 0.381981 -0.098732 0.918881
0.929351 0.015026 0.077282 128 128 255 0.295750 -0.101600 0.949847
0.942840 0.015036 0.073676 128 128 255 0.227537 -0.103144 0.968291
0.956327 0.015047 0.070935 128 128 255 0.176313 -0.103867 0.978839
0.969810 0.015058 0.068810 128 128 255 0.139218 -0.104121 0.984773
0.983291 0.015068 0.067116 128 128 255 0.113009 -0.104122 0.988123
0.996769 0.015079 0.065721 128 128 255 0.094777 -0.103992 0.990052
1.010244 0.015089 0.064530 128 128 255 0.082178 -0.103797 0.991198
1.023716 0.015100 0.063481 128 128 255 0.073440 -0.103570 0.991907
1.037186 0.015110 0.062530 128 128 255 0.067288 -0.103331 0.992368
1.050652 0.015120 0.061649 128 128 255 0.062830 -0.103089 0.992686
1.064116 0.015131 0.060821 128 128 255 0.059462 -0.102850 0.992918
1.077577 0.015141 0.060032 128 128 255 0.056787 -0.102615 0.993099
1.091036 0.015151 0.059277 128 128 255 0.054550 -0.102387 0.993248
1.104491 0.015161 0.058550 128 128 255 0.052591 -0.102167 0.993376
1.117931 0.015171 0.057849 128 128 255 0.051206 -0.102726 0.993391
-0.917976 0.100000 0.066364 128 128 255 -0.052126 -0.096859 0.993932
-0.904523 0.100000 0.067074 128 128 255 -0.053055 -0.097546 0.993816
-0.891067 0.100000 0.067806 128 128 255 -0.054740 -0.097487 0.993730
-0.877609 0.100000 0.068562 128 128 255 -0.056470 -0.097428 0.993639
-0.864148 0.100000 0.069343 128 128 255 -0.058246 -0.097368 0.993543
-0.850685 0.100000 0.070148 128 128 255 -0.060071 -0.097308 0.993440
-0.837218 0.100000 0.070978 128 128 255 -0.061944 -0.097247 0.993331
-0.823749 0.100000 0.071835 128 128 255 -0.063869 -0.097186 0.993215
-0.810277 0.100000 0.072718 128 128 255 -0.065845 -0.097124 0.993092
-0.796802 0.100000 0.073629 128 128 255 -0.067874 -0.097062 0.992961
-0.783324 0.100000 0.074569 128 128 255 -0.069958 -0.097000 0.992823
-0.769844 0.100000 0.075538 128 128 255 -0.072097 -0.096937 0.992676
-0.756360 0.100000 0.076537 128 128 255 -0.074294 -0.096874 0.992520
-0.742874 0.100000 0.077566 128 128 255 -0.076549 -0.096810 0.992355
-0.729385 0.100000 0.078628 128 128 255 -0.078864 -0.096747 0.992180
-0.715892 0.100000 0.079722 128 128 255 -0.081242 -0.096683 0.991994
-0.702397 0.100000 0.080849 128 128 255 -0.083690 -0.096618 0.991797
-0.688899 0.100000 0.082011 128 128 255 -0.086228 -0.096553 0.991586
-0.675398 0.100000 0.083209 128 128 255 -0.088927 -0.096486 0.991354
-0.661894 0.100000 0.084447 128 128 255 -0.092016 -0.096416 0.991079
-0.648387 0.100000 0.085731 128 128 255 -0.096173 -0.096336 0.990692
-0.634876 0.100000 0.087084 128 128 255 -0.103263 -0.096226 0.989989
-0.621363 0.100000 0.088565 128 128 255 -0.117947 -0.096027 0.988366
-0.607846 0.100000 0.090326 128 128 255 -0.150716 -0.095557 0.983948
-0.594326 0.100000 0.092723 128 128 255 -0.221964 -0.094208 0.970493
-0.580804 0.100000 0.096529 128 128 255 -0.360784 -0.090069 0.928290
-0.567278 0.100000 0.103255 128 128 255 -0.573602 -0.079065 0.815310
-0.553748 0.100000 0.115583 128 128 255 -0.785208 -0.059734 0.616344
-0.540216 0.100000 0.137752 128 128 255 -0.910870 -0.039783 0.410771
-0.526681 0.100000 0.175627 128 128 255 -0.963765 -0.025697 0.265511
-0.513143 0.100000 0.236046 128 128 255 -0.983834 -0.017240 0.178249
-0.499604 0.100000 0.325100 128 128 255 -0.991658 -0.012404 0.128296
-0.486064 0.100000 0.445379 128 128 255 -0.994876 -0.009728 0.100632
-0.472521 0.100000 0.592882 128 128 255 -0.996155 -0.008430 0.087197
-0.458969 0.100000 0.754948 128 128 255 -0.996347 -0.008220 0.085001
-0.445406 0.100000 0.910749 128 128 255 -0.995299 -0.009328 0.096396
-0.431835 0.100000 1.035154 128 128 255 -0.990313 -0.013389 0.138205
-0.418264 0.100000 1.105273 128 128 255 -0.935572 -0.034092 0.351487
-0.404702 0.100000 1.107417 128 128 255 0.919489 -0.037973 0.391278
-0.391145 0.100000 1.041589 128 128 255 0.989442 -0.013990 0.144250
-0.377587 0.100000 0.921479 128 128 255 0.995005 -0.009619 0.099362
-0.364017 0.100000 0.769982 128 128 255 0.996133 -0.008444 0.087450
-0.350434 0.100000 0.612230 128 128 255 0.995911 -0.008665 0.089926
-0.336840 0.100000 0.469057 128 128 255 0.994491 -0.010042 0.104336
-0.323244 0.100000 0.353124 128 128 255 0.990861 -0.012918 0.134269
-0.309647 0.100000 0.268437 128 128 255 0.981686 -0.018246 0.189633
-0.296049 0.100000 0.212409 128 128 255 0.956475 -0.027954 0.290474
-0.282449 0.100000 0.178952 128 128 255 0.882406 -0.045074 0.468324
-0.268846 0.100000 0.161232 128 128 255 0.684290 -0.069858 0.725856
-0.255239 0.100000 0.153386 128 128 255 0.347900 -0.089799 0.933221
-0.241628 0.100000 0.151178 128 128 255 0.056767 -0.095598 0.993800
-0.228014 0.100000 0.151932 128 128 255 -0.103531 -0.095197 0.990060
-0.214396 0.100000 0.154137 128 128 255 -0.178761 -0.094120 0.979380
-0.200773 0.100000 0.157026 128 128 255 -0.213206 -0.093403 0.972532
-0.187147 0.100000 0.160245 128 128 255 -0.230007 -0.092970 0.968738
-0.173517 0.100000 0.163645 128 128 255 -0.239728 -0.092668 0.966407
-0.159882 0.100000 0.167172 128 128 255 -0.246830 -0.092408 0.964643
-0.146244 0.100000 0.170805 128 128 255 -0.253049 -0.092150 0.963055
-0.132601 0.100000 0.174542 128 128 255 -0.258995 -0.091878 0.961499
-0.118954 0.100000 0.178382 128 128 255 -0.264856 -0.091583 0.959929
-0.105303 0.100000 0.182328 128 128 255 -0.270668 -0.091259 0.958337
-0.091648 0.100000 0.186382 128 128 255 -0.276413 -0.090900 0.956731
-0.077988 0.100000 0.190547 128 128 255 -0.282049 -0.090499 0.955122
-0.064324 0.100000 0.194825 128 128 255 -0.287519 -0.090046 0.953533
-0.050655 0.100000 0.199220 128 128 255 -0.292742 -0.089530 0.951991
-0.036983 0.100000 0.203734 128 128 255 -0.297614 -0.088934 0.950535
-0.023305 0.100000 0.208371 128 128 255 -0.301995 -0.088238 0.949217
-0.009623 0.100000 0.213133 128 128 255 -0.305703 -0.087413 0.948106
0.004063 0.100000 0.218023 128 128 255 -0.308495 -0.086424 0.947292
0.017754 0.100000 0.223046 128 128 255 -0.310064 -0.085222 0.946888
0.031450 0.100000 0.228204 128 128 255 -0.310040 -0.083752 0.947027
0.045150 0.100000 0.233500 128 128 255 -0.308023 -0.081949 0.947843
0.058855 0.100000 0.238938 128 128 255 -0.303674 -0.079759 0.949432
0.072565 0.100000 0.244522 128 128 255 -0.296880 -0.077158 0.951792
0.086280 0.100000 0.250255 128 128 255 -0.287973 -0.074188 0.954761
0.100000 0.100000 0.256143 128 128 255 -0.000195 -0.096817 0.995302
0.113720 0.100000 0.250261 128 128 255 0.286570 -0.111190 0.951585
0.127435 0.100000 0.244535 128 128 255 0.295411 -0.107735 0.949276
0.141145 0.100000 0.238963 128 128 255 0.301911 -0.104766 0.947562
0.154850 0.100000 0.233546 128 128 255 0.305606 -0.102358 0.946640
0.168550 0.100000 0.228287 128 128 255 0.306390 -0.100499 0.946586
0.182246 0.100000 0.223194 128 128 255 0.304257 -0.099125 0.947419
0.195937 0.100000 0.218280 128 128 255 0.299074 -0.098163 0.949168
0.209623 0.100000 0.213570 128 128 255 0.290395 -0.097553 0.951921
0.223305 0.100000 0.209102 128 128 255 0.277312 -0.097253 0.955845
0.236983 0.100000 0.204938 128 128 255 0.258286 -0.097241 0.961162
0.250656 0.100000 0.201165 128 128 255 0.230948 -0.097500 0.968069
0.264324 0.100000 0.197914 128 128 255 0.191851 -0.098000 0.976519
0.277988 0.100000 0.195364 128 128 255 0.136254 -0.098643 0.985751
0.291648 0.100000 0.193763 128 128 255 0.058187 -0.099178 0.993367
0.305303 0.100000 0.193437 128 128 255 -0.048513 -0.099049 0.993899
0.318954 0.100000 0.194808 128 128 255 -0.186881 -0.097275 0.977555
0.332601 0.100000 0.198401 128 128 255 -0.350674 -0.092623 0.931906
0.346244 0.100000 0.204851 128 128 255 -0.520116 -0.084393 0.849916
0.359883 0.100000 0.214895 128 128 255 -0.669233 -0.073365 0.739422
0.373518 0.100000 0.229355 128 128 255 -0.781950 -0.061507 0.620299
0.387149 0.100000 0.249104 128 128 255 -0.858225 -0.050621 0.510772
0.400777 0.100000 0.275010 128 128 255 -0.906764 -0.041566 0.419585
0.414401 0.100000 0.307865 128 128 255 -0.936953 -0.034437 0.347756
0.428023 0.100000 0.348297 128 128 255 -0.955730 -0.028987 0.292815
0.441641 0.100000 0.396664 128 128 255 -0.967532 -0.024892 0.251520
0.455257 0.100000 0.452957 128 128 255 -0.975031 -0.021865 0.220992
0.468869 0.100000 0.516701 128 128 255 -0.979798 -0.019687 0.199018
0.482477 0.100000 0.586881 128 128 255 -0.982746 -0.018204 0.184062
0.496080 0.100000 0.661909 128 128 255 -0.984379 -0.017326 0.175208
0.509678 0.100000 0.739631 128 128 255 -0.984924 -0.017023 0.172150
0.523269 0.100000 0.817396 128 128 255 -0.984364 -0.017333 0.175290
0.536853 0.100000 0.892176 128 128 255 -0.982366 -0.018397 0.186063
0.550431 0.100000 0.960748 128 128 255 -0.977959 -0.020544 0.207786
0.564004 0.100000 1.019907 128 128 255 -0.968461 -0.024513 0.247957
0.577572 0.100000 1.066702 128 128 255 -0.945044 -0.032159 0.325357
0.591137 0.100000 1.098672 128 128 255 -0.866816 -0.049036 0.496212
0.604701 0.100000 1.114047 128 128 255 -0.437799 -0.088397 0.894717
0.618263 0.100000 1.111903 128 128 255 0.624088 -0.076807 0.777570
0.631825 0.100000 1.092237 128 128 255 0.898829 -0.043078 0.436177
0.645387 0.100000 1.055972 128 128 255 0.954593 -0.029278 0.296469
0.658947 0.100000 1.004874 128 128 255 0.972847 -0.022747 0.230329
0.672505 0.100000 0.941400 128 128 255 0.980615 -0.019260 0.194994
0.686059 0.100000 0.868499 128 128 255 0.984323 -0.017340 0.175518
0.699608 0.100000 0.789373 128 128 255 0.986041 -0.016374 0.165697
0.713152 0.100000 0.707241 128 128 255 0.986544 -0.016082 0.162703
0.726691 0.100000 0.625128 128 128 255 0.986112 -0.016340 0.165274
0.740226 0.100000 0.545682 128 128 255 0.984771 -0.017108 0.173012
0.753756 0.100000 0.471053 128 128 255 0.982360 -0.018402 0.186094
0.767283 0.100000 0.402827 128 128 255 0.978517 -0.020287 0.205167
0.780807 0.100000 0.342015 128 128 255 0.972610 -0.022870 0.231313
0.794329 0.100000 0.289088 128 128 255 0.963605 -0.026298 0.266034
0.807847 0.100000 0.244054 128 128 255 0.949854 -0.030755 0.311177
0.821363 0.100000 0.206549 128 128 255 0.928839 -0.036432 0.368687
0.834876 0.100000 0.175943 128 128 255 0.896963 -0.043466 0.439965
0.848387 0.100000 0.151441 128 128 255 0.849741 -0.051821 0.524648
0.861894 0.100000 0.132170 128 128 255 0.783039 -0.061122 0.618961
0.875398 0.100000 0.117256 128 128 255 0.695766 -0.070570 0.714794
0.888899 0.100000 0.105871 128 128 255 0.592759 -0.079110 0.801485
0.902397 0.100000 0.097275 128 128 255 0.484639 -0.085900 0.870486
0.915892 0.100000 0.090831 128 128 255 0.383343 -0.090680 0.919144
0.929385 0.100000 0.086008 128 128 255 0.297113 -0.093725 0.950231
0.942874 0.100000 0.082384 128 128 255 0.228865 -0.095529 0.968760
0.956360 0.100000 0.079625 128 128 255 0.177590 -0.096551 0.979357
0.969844 0.100000 0.077483 128 128 255 0.140439 -0.097114 0.985315
0.983324 0.100000 0.075773 128 128 255 0.114178 -0.097420 0.988672
0.996802 0.100000 0.074361 128 128 255 0.095897 -0.097585 0.990596
1.010277 0.100000 0.073155 128 128 255 0.083253 -0.097671 0.991731
1.023749 0.100000 0.072091 128 128 255 0.074473 -0.097713 0.992424
1.037218 0.100000 0.071126 128 128 255 0.068282 -0.097731 0.992868
1.050685 0.100000 0.070231 128 128 255 0.063787 -0.097734 0.993166
1.064148 0.100000 0.069389 128 128 255 0.060385 -0.097728 0.993380
1.077609 0.100000 0.068588 128 128 255 0.057677 -0.097717 0.993541
1.091067 0.100000 0.067820 128 128 255 0.055410 -0.097703 0.993672
1.104523 0.100000 0.067081 128 128 255 0.053421 -0.097687 0.993782
1.117962 0.100000 0.066368 128 128 255 0.052422 -0.098399 0.993765
-0.917944 0.184829 0.074512 128 128 255 -0.050807 -0.092561 0.994410
-0.904491 0.184839 0.075210 128 128 255 -0.052126 -0.093088 0.994292
-0.891036 0.184849 0.075930 128 128 255 -0.053784 -0.092825 0.994229
-0.877577 0.184859 0.076673 128 128 255 -0.055486 -0.092552 0.994161
-0.864116 0.184869 0.077441 128 128 255 -0.057234 -0.092270 0.994088
-0.850652 0.184880 0.078232 128 128 255 -0.059029 -0.091977 0.994010
-0.837186 0.184890 0.079049 128 128 255 -0.060871 -0.091672 0.993927
-0.823716 0.184900 0.079891 128 128 255 -0.062763 -0.091356 0.993838
-0.810244 0.184911 0.080760 128 128 255 -0.064705 -0.091028 0.993744
-0.796769 0.184921 0.081655 128 128 255 -0.066699 -0.090687 0.993643
-0.783291 0.184932 0.082579 128 128 255 -0.068745 -0.090332 0.993536
-0.769810 0.184942 0.083531 128 128 255 -0.070846 -0.089963 0.993422
-0.756327 0.184953 0.084513 128 128 255 -0.073001 -0.089579 0.993301
-0.742840 0.184964 0.085525 128 128 255 -0.075213 -0.089180 0.993172
-0.729351 0.184974 0.086568 128 128 255 -0.077483 -0.088763 0.993035
-0.715859 0.184985 0.087643 128 128 255 -0.079813 -0.088329 0.992889
-0.702363 0.184996 0.088750 128 128 255 -0.082210 -0.087876 0.992733
-0.688865 0.185007 0.089892 128 128 255 -0.084694 -0.087403 0.992566
-0.675364 0.185018 0.091068 128 128 255 -0.087337 -0.086908 0.992381
-0.661859 0.185029 0.092283 128 128 255 -0.090366 -0.086388 0.992155
-0.648352 0.185040 0.093544 128 128 255 -0.094461 -0.085836 0.991821
-0.634841 0.185051 0.094872 128 128 255 -0.101490 -0.085230 0.991179
-0.621328 0.185062 0.096328 128 128 255 -0.116122 -0.084516 0.989633
-0.607811 0.185073 0.098062 128 128 255 -0.148871 -0.083526 0.985323
-0.594291 0.185085 0.100431 128 128 255 -0.220194 -0.081721 0.972027
-0.580768 0.185096 0.104207 128 128 255 -0.359320 -0.077441 0.929996
-0.567242 0.185107 0.110902 128 128 255 -0.572787 -0.067233 0.816942
-0.553712 0.185119 0.123198 128 128 255 -0.785030 -0.050054 0.617432
-0.540180 0.185130 0.145333 128 128 255 -0.910919 -0.032688 0.411289
-0.526644 0.185142 0.183172 128 128 255 -0.963826 -0.020578 0.265736
-0.513107 0.185154 0.243553 128 128 255 -0.983875 -0.013366 0.178355
-0.499567 0.185166 0.332567 128 128 255 -0.991685 -0.009256 0.128355
-0.486027 0.185178 0.452804 128 128 255 -0.994895 -0.006972 0.100671
-0.472483 0.185191 0.600262 128 128 255 -0.996171 -0.005830 0.087230
-0.458931 0.185203 0.762281 128 128 255 -0.996363 -0.005564 0.085034
-0.445366 0.185213 0.918032 128 128 255 -0.995319 -0.006320 0.096438
-0.431794 0.185223 1.042384 128 128 255 -0.990348 -0.009300 0.138290
-0.418223 0.185234 1.112446 128 128 255 -0.935651 -0.024705 0.352061
-0.404660 0.185247 1.114530 128 128 255 0.920033 -0.028712 0.390786
-0.391104 0.185261 1.048638 128 128 255 0.989494 -0.010976 0.144156
-0.377546 0.185276 0.928460 128 128 255 0.995027 -0.007682 0.099310
-0.363977 0.185290 0.776888 128 128 255 0.996150 -0.006710 0.087405
-0.350394 0.185302 0.619059 128 128 255 0.995930 -0.006699 0.089877
-0.336801 0.185313 0.475801 128 128 255 0.994521 -0.007420 0.104268
-0.323205 0.185324 0.359778 128 128 255 0.990920 -0.009018 0.134153
-0.309608 0.185335 0.274993 128 128 255 0.981828 -0.011962 0.189397
-0.296009 0.185347 0.218860 128 128 255 0.956897 -0.017180 0.289920
-0.282409 0.185359 0.185290 128 128 255 0.883861 -0.025972 0.467028
-0.268806 0.185372 0.167447 128 128 255 0.688916 -0.037777 0.723856
-0.255199 0.185384 0.159467 128 128 255 0.356890 -0.045610 0.933032
-0.241588 0.185397 0.157115 128 128 255 0.067407 -0.045426 0.996691
-0.227973 0.185410 0.157710 128 128 255 -0.092687 -0.041938 0.994812
-0.214355 0.185423 0.159742 128 128 255 -0.167596 -0.037964 0.985124
-0.200732 0.185435 0.162441 128 128 255 -0.201376 -0.033923 0.978926
-0.187106 0.185448 0.165451 128 128 255 -0.217236 -0.029711 0.975667
-0.173475 0.185461 0.168621 128 128 255 -0.225804 -0.025211 0.973846
-0.159841 0.185474 0.171891 128 128 255 -0.231559 -0.020340 0.972608
-0.146202 0.185487 0.175240 128 128 255 -0.236229 -0.015040 0.971581
-0.132559 0.185500 0.178659 128 128 255 -0.240398 -0.009252 0.970630
-0.118912 0.185513 0.182143 128 128 255 -0.244215 -0.002916 0.969717
-0.105261 0.185525 0.185686 128 128 255 -0.247667 0.004033 0.968837
-0.091606 0.185538 0.189284 128 128 255 -0.250671 0.011673 0.968002
-0.077946 0.185551 0.192927 128 128 255 -0.253107 0.020087 0.967230
-0.064282 0.185564 0.196607 128 128 255 -0.254817 0.029373 0.966543
-0.050614 0.185576 0.200309 128 128 255 -0.255596 0.039638 0.965971
-0.036941 0.185588 0.204015 128 128 255 -0.255176 0.051001 0.965549
-0.023264 0.185600 0.207701 128 128 255 -0.253211 0.063594 0.965318
-0.009583 0.185612 0.211334 128 128 255 -0.249253 0.077557 0.965328
0.004102 0.185623 0.214871 128 128 255 -0.242720 0.093036 0.965625
0.017792 0.185634 0.218257 128 128 255 -0.232881 0.110180 0.966244
0.031485 0.185643 0.221417 128 128 255 -0.218858 0.129131 0.967174
0.045183 0.185652 0.224257 128 128 255 -0.199709 0.150009 0.968305
0.058884 0.185659 0.226667 128 128 255 -0.174643 0.172896 0.969333
0.072587 0.185665 0.228519 128 128 255 -0.143440 0.197816 0.969688
0.086293 0.185668 0.229693 128 128 255 -0.106976 0.224713 0.968535
0.100000 0.185669 0.230100 128 128 255 -0.067535 0.253464 0.964984
0.113707 0.185668 0.229705 128 128 255 0.111345 0.240814 0.964163
0.127413 0.185665 0.228544 128 128 255 0.147418 0.209509 0.966630
0.141116 0.185659 0.226711 128 128 255 0.177945 0.180764 0.967295
0.154817 0.185652 0.224329 128 128 255 0.201911 0.154814 0.967091
0.168515 0.185643 0.221532 128 128 255 0.219324 0.131637 0.966731
0.182208 0.185634 0.218442 128 128 255 0.230639 0.111046 0.966682
0.195898 0.185623 0.215172 128 128 255 0.236267 0.092784 0.967248
0.209583 0.185612 0.211821 128 128 255 0.236271 0.076578 0.968665
0.223264 0.185600 0.208489 128 128 255 0.230157 0.062166 0.971166
0.236941 0.185588 0.205281 128 128 255 0.216715 0.049307 0.974989
0.250614 0.185576 0.202322 128 128 255 0.193832 0.037775 0.980307
0.264282 0.185564 0.199769 128 128 255 0.158282 0.027362 0.987015
0.277946 0.185551 0.197823 128 128 255 0.105547 0.017878 0.994254
0.291606 0.185538 0.196749 128 128 255 0.029945 0.009170 0.999510
0.305261 0.185526 0.196885 128 128 255 -0.074250 0.001180 0.997239
0.318912 0.185513 0.198663 128 128 255 -0.209483 -0.005965 0.977794
0.332560 0.185500 0.202618 128 128 255 -0.369060 -0.011865 0.929330
0.346203 0.185487 0.209391 128 128 255 -0.533470 -0.015983 0.845668
0.359842 0.185474 0.219723 128 128 255 -0.677827 -0.018058 0.734999
0.373477 0.185461 0.234444 128 128 255 -0.787006 -0.018397 0.616671
0.387108 0.185449 0.254427 128 128 255 -0.861082 -0.017656 0.508159
0.400736 0.185436 0.280546 128 128 255 -0.908386 -0.016438 0.417810
0.414361 0.185424 0.313595 128 128 255 -0.937903 -0.015130 0.346566
0.427982 0.185412 0.354203 128 128 255 -0.956315 -0.013931 0.292006
0.441601 0.185400 0.402732 128 128 255 -0.967913 -0.012924 0.250954
0.455217 0.185389 0.459174 128 128 255 -0.975293 -0.012139 0.220580
0.468829 0.185377 0.523053 128 128 255 -0.979991 -0.011585 0.198704
0.482437 0.185365 0.593359 128 128 255 -0.982897 -0.011265 0.183809
0.496040 0.185353 0.668503 128 128 255 -0.984506 -0.011192 0.174994
0.509637 0.185341 0.746332 128 128 255 -0.985039 -0.011402 0.171957
0.523228 0.185328 0.824196 128 128 255 -0.984477 -0.011960 0.175103
0.536812 0.185315 0.899069 128 128 255 -0.982489 -0.013000 0.185867
0.550390 0.185301 0.967726 128 128 255 -0.978110 -0.014785 0.207563
0.563963 0.185287 1.026965 128 128 255 -0.968679 -0.017877 0.247671
0.577531 0.185273 1.073834 128 128 255 -0.945442 -0.023666 0.324931
0.591096 0.185260 1.105872 128 128 255 -0.867863 -0.036289 0.495476
0.604659 0.185247 1.121312 128 128 255 -0.441751 -0.065734 0.894727
0.618222 0.185234 1.119228 128 128 255 0.622934 -0.057413 0.780164
0.631784 0.185222 1.099618 128 128 255 0.898871 -0.032200 0.437028
0.645346 0.185210 1.063406 128 128 255 0.954676 -0.021908 0.296838
0.658907 0.185199 1.012357 128 128 255 0.972914 -0.017065 0.230538
0.672465 0.185188 0.948930 128 128 255 0.980669 -0.014515 0.195137
0.686019 0.185177 0.876073 128 128 255 0.984369 -0.013155 0.175628
0.699569 0.185166 0.796986 128 128 255 0.986082 -0.012532 0.165789
0.713114 0.185155 0.714893 128 128 255 0.986583 -0.012442 0.162787
0.726654 0.185143 0.632815 128 128 255 0.986151 -0.012799 0.165357
0.740189 0.185131 0.553403 128 128 255 0.984811 -0.013584 0.173096
0.753720 0.185120 0.478806 128 128 255 0.982403 -0.014821 0.186185
0.767247 0.185108 0.410610 128 128 255 0.978565 -0.016577 0.205271
0.780772 0.185096 0.349825 128 128 255 0.972665 -0.018956 0.231438
0.794293 0.185085 0.296925 128 128 255 0.963667 -0.022099 0.266190
0.807812 0.185074 0.251915 128 128 255 0.949924 -0.026181 0.311381
0.821328 0.185062 0.214433 128 128 255 0.928915 -0.031388 0.368961
0.834842 0.185051 0.183849 128 128 255 0.897033 -0.037863 0.440338
0.848352 0.185040 0.159367 128 128 255 0.849785 -0.045593 0.525154
0.861859 0.185029 0.140115 128 128 255 0.783019 -0.054261 0.619626
0.875364 0.185018 0.125219 128 128 255 0.695631 -0.063150 0.715618
0.888865 0.185007 0.113851 128 128 255 0.592470 -0.071295 0.802432
0.902363 0.184996 0.105271 128 128 255 0.484186 -0.077902 0.871490
0.915859 0.184985 0.098841 128 128 255 0.382752 -0.082696 0.920142
0.929351 0.184974 0.094033 128 128 255 0.296430 -0.085901 0.951184
0.942840 0.184964 0.090421 128 128 255 0.228133 -0.087953 0.969649
0.956327 0.184953 0.087675 128 128 255 0.176843 -0.089263 0.980183
0.969810 0.184942 0.085545 128 128 255 0.139700 -0.090128 0.986084
0.983291 0.184932 0.083845 128 128 255 0.113459 -0.090735 0.989391
0.996769 0.184921 0.082443 128 128 255 0.095206 -0.091192 0.991272
1.010244 0.184911 0.081247 128 128 255 0.082593 -0.091559 0.992369
1.023716 0.184900 0.080191 128 128 255 0.073848 -0.091870 0.993029
1.037186 0.184890 0.079234 128 128 255 0.067689 -0.092144 0.993442
1.050652 0.184880 0.078347 128 128 255 0.063228 -0.092392 0.993713
1.064116 0.184869 0.077513 128 128 255 0.059857 -0.092620 0.993901
1.077577 0.184859 0.076718 128 128 255 0.057180 -0.092833 0.994038
1.091036 0.184849 0.075956 128 128 255 0.054940 -0.093033 0.994146
1.104491 0.184839 0.075223 128 128 255 0.052979 -0.093222 0.994235
1.117931 0.184829 0.074516 128 128 255 0.052396 -0.094036 0.994189
-0.917850 0.269642 0.082300 128 128 255 -0.048340 -0.088629 0.994891
-0.904397 0.269662 0.082970 128 128 255 -0.049986 -0.088960 0.994780
-0.890941 0.269682 0.083661 128 128 255 -0.051563 -0.088513 0.994740
-0.877482 0.269702 0.084374 128 128 255 -0.053181 -0.088048 0.994696
-0.864021 0.269722 0.085110 128 128 255 -0.054841 -0.087564 0.994648
-0.850556 0.269742 0.085869 128 128 255 -0.056544 -0.087062 0.994597
-0.837089 0.269763 0.086651 128 128 255 -0.058290 -0.086538 0.994542
-0.823619 0.269783 0.087457 128 128 255 -0.060081 -0.085994 0.994482
-0.810147 0.269803 0.088289 128 128 255 -0.061917 -0.085427 0.994419
-0.796671 0.269824 0.089146 128 128 255 -0.063799 -0.084837 0.994350
-0.783193 0.269845 0.090029 128 128 255 -0.065728 -0.084222 0.994277
-0.769712 0.269866 0.090939 128 128 255 -0.067705 -0.083581 0.994198
-0.756228 0.269886 0.091877 128 128 255 -0.069730 -0.082913 0.994114
-0.742741 0.269907 0.092843 128 128 255 -0.071805 -0.082216 0.994024
-0.729251 0.269929 0.093838 128 128 255 -0.073930 -0.081489 0.993929
-0.715758 0.269950 0.094862 128 128 255 -0.076108 -0.080730 0.993826
-0.702263 0.269971 0.095918 128 128 255 -0.078344 -0.079937 0.993716
-0.688764 0.269992 0.097004 128 128 255 -0.080658 -0.079108 0.993598
-0.675262 0.270014 0.098123 128 128 255 -0.083121 -0.078241 0.993463
-0.661757 0.270035 0.099278 128 128 255 -0.085961 -0.077331 0.993293
-0.648249 0.270057 0.100476 128 128 255 -0.089858 -0.076371 0.993022
-0.634738 0.270078 0.101738 128 128 255 -0.096683 -0.075341 0.992460
-0.621224 0.270100 0.103124 128 128 255 -0.111118 -0.074189 0.991034
-0.607707 0.270122 0.104785 128 128 255 -0.143718 -0.072762 0.986940
-0.594187 0.270144 0.107078 128 128 255 -0.215059 -0.070589 0.974047
-0.580663 0.270166 0.110774 128 128 255 -0.354708 -0.066234 0.932628
-0.567137 0.270188 0.117384 128 128 255 -0.569662 -0.056780 0.819916
-0.553607 0.270210 0.129591 128 128 255 -0.783748 -0.041518 0.619689
-0.540074 0.270232 0.151632 128 128 255 -0.910592 -0.026422 0.412461
-0.526538 0.270255 0.189372 128 128 255 -0.963765 -0.016048 0.266271
-0.512999 0.270278 0.249649 128 128 255 -0.983869 -0.009932 0.178614
-0.499459 0.270301 0.338553 128 128 255 -0.991688 -0.006464 0.128501
-0.485918 0.270325 0.458673 128 128 255 -0.994899 -0.004527 0.100771
-0.472372 0.270349 0.606009 128 128 255 -0.996175 -0.003528 0.087311
-0.458818 0.270371 0.767897 128 128 255 -0.996366 -0.003222 0.085115
-0.445252 0.270391 0.923510 128 128 255 -0.995322 -0.003685 0.096543
-0.431678 0.270410 1.047716 128 128 255 -0.990345 -0.005754 0.138505
-0.418107 0.270430 1.117623 128 128 255 -0.935309 -0.016693 0.353439
-0.404543 0.270454 1.119543 128 128 255 0.920919 -0.020897 0.389193
-0.390987 0.270482 1.053475 128 128 255 0.989557 -0.008498 0.143894
-0.377430 0.270511 0.933111 128 128 255 0.995052 -0.006126 0.099172
-0.363862 0.270537 0.781342 128 128 255 0.996169 -0.005335 0.087289
-0.350280 0.270561 0.623300 128 128 255 0.995951 -0.005147 0.089746
-0.336688 0.270581 0.479817 128 128 255 0.994554 -0.005349 0.104086
-0.323092 0.270602 0.363553 128 128 255 0.990985 -0.005934 0.133839
-0.309495 0.270623 0.278511 128 128 255 0.982001 -0.007002 0.188746
-0.295897 0.270645 0.222102 128 128 255 0.957485 -0.008718 0.288352
-0.282296 0.270668 0.188236 128 128 255 0.886254 -0.011089 0.463067
-0.268692 0.270691 0.170075 128 128 255 0.697884 -0.013023 0.716092
-0.255085 0.270714 0.161755 128 128 255 0.376921 -0.011828 0.926170
-0.241475 0.270737 0.159035 128 128 255 0.093445 -0.007448 0.995597
-0.227860 0.270760 0.159236 128 128 255 -0.064877 -0.002126 0.997891
-0.214241 0.270783 0.160841 128 128 255 -0.138515 0.003387 0.990354
-0.200619 0.270806 0.163080 128 128 255 -0.170602 0.009128 0.985298
-0.186993 0.270829 0.165591 128 128 255 -0.184340 0.015197 0.982745
-0.173363 0.270852 0.168222 128 128 255 -0.190445 0.021655 0.981459
-0.159729 0.270874 0.170907 128 128 255 -0.193447 0.028539 0.980696
-0.146091 0.270896 0.173622 128 128 255 -0.195082 0.035875 0.980131
-0.132449 0.270918 0.176352 128 128 255 -0.195927 0.043690 0.979645
-0.118803 0.270940 0.179086 128 128 255 -0.196115 0.052010 0.979201
-0.105153 0.270961 0.181815 128 128 255 -0.195614 0.060857 0.978791
-0.091499 0.270982 0.184526 128 128 255 -0.194333 0.070249 0.978417
-0.077842 0.271002 0.187207 128 128 255 -0.192149 0.080200 0.978083
-0.064180 0.271021 0.189842 128 128 255 -0.188921 0.090710 0.977794
-0.050515 0.271040 0.192413 128 128 255 -0.184487 0.101769 0.977552
-0.036846 0.271058 0.194899 128 128 255 -0.178667 0.113341 0.977360
-0.023174 0.271075 0.197278 128 128 255 -0.171265 0.125363 0.977217
-0.009498 0.271090 0.199525 128 128 255 -0.162069 0.137733 0.977120
0.004181 0.271105 0.201611 128 128 255 -0.150855 0.150291 0.977065
0.017863 0.271118 0.203507 128 128 255 -0.137402 0.162806 0.977044
0.031548 0.271129 0.205182 128 128 255 -0.121496 0.174956 0.977051
0.045236 0.271139 0.206606 128 128 255 -0.102968 0.186308 0.977081
0.058925 0.271146 0.207750 128 128 255 -0.081734 0.196320 0.977127
0.072616 0.271152 0.208589 128 128 255 -0.057888 0.204355 0.977184
0.086308 0.271155 0.209105 128 128 255 -0.031811 0.209766 0.977234
0.100000 0.271157 0.209284 128 128 255 -0.004277 0.212017 0.977257
0.113692 0.271155 0.209123 128 128 255 0.023574 0.210836 0.977237
0.127384 0.271152 0.208627 128 128 255 0.050442 0.206311 0.977185
0.141075 0.271146 0.207813 128 128 255 0.075169 0.198865 0.977140
0.154764 0.271139 0.206703 128 128 255 0.096921 0.189129 0.977157
0.168452 0.271129 0.205328 128 128 255 0.115178 0.177788 0.977305
0.182137 0.271118 0.203730 128 128 255 0.129576 0.165470 0.977666
0.195819 0.271105 0.201955 128 128 255 0.139715 0.152692 0.978348
0.209498 0.271090 0.200061 128 128 255 0.144982 0.139848 0.979501
0.223174 0.271075 0.198121 128 128 255 0.144382 0.127220 0.981310
0.236846 0.271058 0.196226 128 128 255 0.136359 0.114992 0.983963
0.250515 0.271040 0.194492 128 128 255 0.118599 0.103266 0.987558
0.264180 0.271021 0.193076 128 128 255 0.087823 0.092060 0.991873
0.277842 0.271002 0.192181 128 128 255 0.039652 0.081304 0.995900
0.291499 0.270982 0.192074 128 128 255 -0.031177 0.070832 0.997001
0.305153 0.270961 0.193101 128 128 255 -0.129613 0.060390 0.989724
0.318803 0.270940 0.195700 128 128 255 -0.257097 0.049730 0.965105
0.332449 0.270918 0.200409 128 128 255 -0.406472 0.038832 0.912837
0.346091 0.270897 0.207875 128 128 255 -0.559440 0.028176 0.828392
0.359729 0.270875 0.218847 128 128 255 -0.693677 0.018652 0.720044
0.373364 0.270853 0.234156 128 128 255 -0.795790 0.011003 0.605472
0.386995 0.270830 0.254683 128 128 255 -0.865736 0.005398 0.500472
0.400623 0.270808 0.281304 128 128 255 -0.910856 0.001533 0.412722
0.414247 0.270786 0.314817 128 128 255 -0.939260 -0.001048 0.343204
0.427868 0.270765 0.355855 128 128 255 -0.957102 -0.002759 0.289738
0.441487 0.270743 0.404783 128 128 255 -0.968400 -0.003910 0.249372
0.455102 0.270722 0.461594 128 128 255 -0.975617 -0.004717 0.219429
0.468713 0.270701 0.525817 128 128 255 -0.980223 -0.005328 0.197826
0.482321 0.270679 0.596443 128 128 255 -0.983076 -0.005848 0.183105
0.495924 0.270657 0.671885 128 128 255 -0.984655 -0.006357 0.174395
0.509521 0.270634 0.749992 128 128 255 -0.985174 -0.006929 0.171415
0.523111 0.270609 0.828116 128 128 255 -0.984614 -0.007646 0.174578
0.536695 0.270584 0.903231 128 128 255 -0.982641 -0.008627 0.185316
0.550273 0.270558 0.972115 128 128 255 -0.978305 -0.010073 0.206924
0.563845 0.270531 1.031566 128 128 255 -0.968979 -0.012393 0.246832
0.577413 0.270505 1.078634 128 128 255 -0.946041 -0.016572 0.323624
0.590978 0.270479 1.110859 128 128 255 -0.869696 -0.025518 0.492927
0.604542 0.270453 1.126475 128 128 255 -0.450833 -0.046360 0.891404
0.618105 0.270429 1.124555 128 128 255 0.617980 -0.040873 0.785130
0.631668 0.270407 1.105100 128 128 255 0.898198 -0.022853 0.438996
0.645231 0.270385 1.069033 128 128 255 0.954522 -0.015522 0.297736
0.658792 0.270363 1.018121 128 128 255 0.972864 -0.012105 0.231059
0.672351 0.270343 0.954824 128 128 255 0.980650 -0.010344 0.195494
0.685907 0.270322 0.882088 128 128 255 0.984362 -0.009456 0.175905
0.699458 0.270301 0.803116 128 128 255 0.986079 -0.009119 0.166025
0.713004 0.270279 0.721131 128 128 255 0.986583 -0.009195 0.163004
0.726545 0.270257 0.639156 128 128 255 0.986151 -0.009630 0.165567
0.740081 0.270234 0.559840 128 128 255 0.984811 -0.010421 0.173314
0.753613 0.270212 0.485334 128 128 255 0.982401 -0.011600 0.186422
0.767141 0.270189 0.417224 128 128 255 0.978559 -0.013235 0.205542
0.780666 0.270167 0.356521 128 128 255 0.972650 -0.015425 0.231761
0.794189 0.270144 0.303698 128 128 255 0.963636 -0.018307 0.266592
0.807708 0.270122 0.258761 128 128 255 0.949860 -0.022048 0.311897
0.821225 0.270100 0.221348 128 128 255 0.928788 -0.026831 0.369639
0.834739 0.270078 0.190830 128 128 255 0.896792 -0.032802 0.441235
0.848249 0.270057 0.166410 128 128 255 0.849343 -0.039969 0.526325
0.861757 0.270035 0.147217 128 128 255 0.782261 -0.048064 0.621094
0.875262 0.270014 0.132376 128 128 255 0.694439 -0.056445 0.717334
0.888764 0.269992 0.121061 128 128 255 0.590785 -0.064223 0.804269
0.902263 0.269971 0.112531 128 128 255 0.482052 -0.070647 0.873290
0.915758 0.269950 0.106149 128 128 255 0.380296 -0.075437 0.921783
0.929251 0.269928 0.101386 128 128 255 0.293796 -0.078769 0.952617
0.942741 0.269907 0.097817 128 128 255 0.225440 -0.081029 0.970882
0.956228 0.269886 0.095111 128 128 255 0.174170 -0.082588 0.981246
0.969712 0.269866 0.093019 128 128 255 0.137092 -0.083718 0.987014
0.983193 0.269845 0.091356 128 128 255 0.110941 -0.084590 0.990220
0.996671 0.269824 0.089989 128 128 255 0.092788 -0.085307 0.992025
1.010147 0.269803 0.088825 128 128 255 0.080279 -0.085925 0.993062
1.023619 0.269783 0.087801 128 128 255 0.071637 -0.086478 0.993675
1.037089 0.269763 0.086874 128 128 255 0.065581 -0.086983 0.994049
1.050556 0.269742 0.086015 128 128 255 0.061216 -0.087453 0.994286
1.064021 0.269722 0.085207 128 128 255 0.057939 -0.087894 0.994443
1.077482 0.269702 0.084438 128 128 255 0.055351 -0.088310 0.994554
1.090941 0.269682 0.083700 128 128 255 0.053196 -0.088705 0.994636
1.104397 0.269662 0.082990 128 128 255 0.051316 -0.089080 0.994702
1.117837 0.269642 0.082305 128 128 255 0.051142 -0.089939 0.994633
-0.917697 0.354424 0.089768 128 128 255 -0.044909 -0.085307 0.995342
-0.904243 0.354453 0.090395 128 128 255 -0.046797 -0.085427 0.995245
-0.890786 0.354483 0.091043 128 128 255 -0.048250 -0.084829 0.995227
-0.877327 0.354512 0.091710 128 128 255 -0.049739 -0.084208 0.995206
-0.863864 0.354542 0.092398 128 128 255 -0.051264 -0.083562 0.995183
-0.850400 0.354571 0.093107 128 128 255 -0.052825 -0.082890 0.995158
-0.836932 0.354601 0.093837 128 128 255 -0.054423 -0.082192 0.995129
-0.823461 0.354631 0.094590 128 128 255 -0.056058 -0.081465 0.995098
-0.809988 0.354661 0.095365 128 128 255 -0.057731 -0.080709 0.995064
-0.796512 0.354691 0.096164 128 128 255 -0.059442 -0.079922 0.995027
-0.783033 0.354721 0.096986 128 128 255 -0.061192 -0.079103 0.994987
-0.769552 0.354751 0.097833 128 128 255 -0.062981 -0.078249 0.994942
-0.756067 0.354782 0.098704 128 128 255 -0.064808 -0.077360 0.994895
-0.742579 0.354812 0.099601 128 128 255 -0.066675 -0.076434 0.994843
-0.729089 0.354843 0.100524 128 128 255 -0.068581 -0.075469 0.994787
-0.715595 0.354874 0.101473 128 128 255 -0.070529 -0.074462 0.994727
-0.702099 0.354904 0.102449 128 128 255 -0.072523 -0.073413 0.994661
-0.688600 0.354935 0.103453 128 128 255 -0.074583 -0.072317 0.994589
-0.675097 0.354966 0.104486 128 128 255 -0.076778 -0.071174 0.994505
-0.661592 0.354997 0.105550 128 128 255 -0.079335 -0.069977 0.994389
-0.648084 0.355028 0.106654 128 128 255 -0.082938 -0.068720 0.994183
-0.634572 0.355060 0.107817 128 128 255 -0.089460 -0.067383 0.993708
-0.621057 0.355091 0.109100 128 128 255 -0.103598 -0.065918 0.992432
-0.607540 0.355123 0.110652 128 128 255 -0.135957 -0.064188 0.988633
-0.594019 0.355154 0.112831 128 128 255 -0.207278 -0.061771 0.976330
-0.580495 0.355186 0.116408 128 128 255 -0.347617 -0.057411 0.935878
-0.566968 0.355217 0.122893 128 128 255 -0.564707 -0.048596 0.823859
-0.553437 0.355249 0.134968 128 128 255 -0.781590 -0.034847 0.622818
-0.539904 0.355281 0.156871 128 128 255 -0.909969 -0.021517 0.414118
-0.526367 0.355313 0.194466 128 128 255 -0.963606 -0.012492 0.267033
-0.512828 0.355345 0.254591 128 128 255 -0.983825 -0.007228 0.178985
-0.499287 0.355378 0.343335 128 128 255 -0.991673 -0.004260 0.128709
-0.485744 0.355412 0.463287 128 128 255 -0.994892 -0.002599 0.100911
-0.472197 0.355445 0.610445 128 128 255 -0.996170 -0.001720 0.087425
-0.458640 0.355476 0.772146 128 128 255 -0.996361 -0.001397 0.085227
-0.445072 0.355502 0.927563 128 128 255 -0.995313 -0.001660 0.096689
-0.431497 0.355527 1.051561 128 128 255 -0.990315 -0.003087 0.138805
-0.417924 0.355555 1.121250 128 128 255 -0.934671 -0.010861 0.355348
-0.404361 0.355588 1.122939 128 128 255 0.921995 -0.015470 0.386893
-0.390805 0.355628 1.056628 128 128 255 0.989623 -0.006876 0.143524
-0.377249 0.355669 0.936007 128 128 255 0.995076 -0.005166 0.098978
