ply
format ascii 1.0
element vertex 684
property float x
property float y
property float z
property uchar red
property uchar green
property uchar blue
property float nx
property float ny
property float nz
end_header
0.112206 0.087794 8.491079 128 128 255 0.172508 -0.002747 -0.985004
-2.836272 1.452423 8.748222 128 128 255 -0.062377 0.062459 -0.996096
-5.693439 2.715628 9.012267 128 128 255 -0.066311 0.067296 -0.995527
-8.281009 3.927303 9.274708 128 128 255 -0.073599 0.074079 -0.994533
-10.565994 4.965932 9.536155 128 128 255 -0.086401 0.085820 -0.992557
-12.473207 5.797341 9.797139 128 128 255 -0.108939 0.108548 -0.988104
-13.839581 6.453926 10.057846 128 128 255 -0.156055 0.156386 -0.975290
-14.728489 6.822469 10.318338 128 128 255 -0.284826 0.285674 -0.915022
-15.019945 6.979360 10.578638 128 128 255 -0.707865 0.706318 -0.006424
-14.729507 6.822932 10.838754 128 128 255 -0.284423 0.281164 0.916543
-13.842449 6.455230 11.098690 128 128 255 -0.155646 0.155382 0.975516
-12.468695 5.795290 11.358437 128 128 255 -0.108452 0.108431 0.988171
-10.570657 4.968052 11.617946 128 128 255 -0.085563 0.084814 0.992716
-8.277763 3.925828 11.877039 128 128 255 -0.072857 0.072457 0.994707
-5.694380 2.716056 12.135203 128 128 255 -0.064973 0.066035 0.995700
-2.836717 1.452625 12.391837 128 128 255 -0.061505 0.062327 0.996159
0.087794 0.112206 12.655457 128 128 255 -0.204132 0.016712 -0.978801
3.037173 -1.252832 12.910045 128 128 255 0.061735 -0.061897 -0.996171
5.892344 -2.515130 13.171641 128 128 255 0.065663 -0.066714 -0.995609
8.481183 -3.727382 13.431766 128 128 255 0.072935 -0.073439 -0.994629
10.765994 -4.765933 13.691037 128 128 255 0.085710 -0.085142 -0.992676
12.673825 -5.597621 13.950001 128 128 255 0.108018 -0.107746 -0.988293
14.040164 -6.254192 14.208857 128 128 255 0.156484 -0.156466 -0.975208
14.924606 -6.620704 14.470746 128 128 255 0.287373 -0.288104 -0.913462
15.217452 -6.778227 14.734403 128 128 255 0.707052 -0.707085 -0.010418
14.926807 -6.621705 14.998027 128 128 255 0.287585 -0.284823 0.914424
14.040060 -6.254145 15.261600 128 128 255 0.157843 -0.157587 0.974809
12.669666 -5.595731 15.525088 128 128 255 0.110056 -0.110015 0.987818
10.770664 -4.768055 15.788421 128 128 255 0.086772 -0.086089 0.992502
8.478191 -3.726022 16.051395 128 128 255 0.073853 -0.073649 0.994546
5.892940 -2.515401 16.313473 128 128 255 0.065836 -0.067213 0.995564
3.037101 -1.252799 16.574032 128 128 255 0.062214 -0.063722 0.996027
0.115182 0.086441 16.841270 128 128 255 0.063132 -0.060281 0.996183
0.087794 0.112206 -16.619503 128 128 255 -0.058412 0.063865 -0.996248
-2.569102 1.720990 -16.360481 128 128 255 -0.062250 0.064219 -0.995992
-5.167691 3.241086 -16.094339 128 128 255 -0.067219 0.066705 -0.995506
-7.515202 4.688650 -15.829526 128 128 255 -0.074989 0.073232 -0.994492
-9.599157 5.939023 -15.565573 128 128 255 -0.087205 0.086260 -0.992449
-11.305227 6.962665 -15.301972 128 128 255 -0.110637 0.109917 -0.987764
-12.571028 7.722146 -15.038542 128 128 255 -0.157052 0.157042 -0.975024
-13.353300 8.191509 -14.775229 128 128 255 -0.291007 0.288727 -0.912114
-13.617332 8.325517 -14.512027 128 128 255 -0.706301 0.707887 -0.005942
-13.352267 8.190889 -14.248944 128 128 255 -0.287712 0.292059 0.912098
-12.573718 7.723760 -13.985995 128 128 255 -0.156996 0.159641 0.974611
-11.306634 6.963510 -13.723211 128 128 255 -0.108855 0.110979 0.987843
-9.595805 5.937012 -13.460667 128 128 255 -0.085716 0.087949 0.992430
-7.517772 4.690192 -13.198565 128 128 255 -0.072137 0.075323 0.994547
-5.167140 3.240755 -12.937439 128 128 255 -0.063248 0.070177 0.995527
-2.569144 1.721015 -12.677775 128 128 255 -0.057408 0.070377 0.995867
0.112206 0.087794 -12.411148 128 128 255 0.212510 0.511609 0.832524
2.768708 -1.520754 -12.153823 128 128 255 0.065823 -0.057344 -0.996182
5.368906 -3.041814 -11.889540 128 128 255 0.068594 -0.063256 -0.995637
7.715192 -4.488644 -11.626740 128 128 255 0.075630 -0.070819 -0.994618
9.799000 -5.738929 -11.364939 128 128 255 0.087324 -0.084263 -0.992610
11.504253 -6.762081 -11.103615 128 128 255 0.110271 -0.108017 -0.988014
12.771705 -7.522552 -10.842571 128 128 255 0.155759 -0.154767 -0.975595
13.556167 -7.993229 -10.581742 128 128 255 0.288509 -0.285592 -0.913892
13.820639 -8.127501 -10.321105 128 128 255 0.706236 -0.707968 -0.003458
13.554460 -7.992205 -10.060649 128 128 255 0.284027 -0.289100 0.914194
12.771362 -7.522346 -9.800375 128 128 255 0.155232 -0.158310 0.975111
11.507492 -6.764024 -9.540297 128 128 255 0.107799 -0.109911 0.988078
9.795390 -5.736763 -9.280470 128 128 255 0.084937 -0.086895 0.992590
7.717412 -4.489976 -9.021082 128 128 255 0.071702 -0.074164 0.994665
5.368246 -3.041419 -8.762648 128 128 255 0.063235 -0.068479 0.995647
2.768295 -1.520506 -8.505641 128 128 255 0.058497 -0.066970 0.996039
0.087794 0.112206 -8.241612 128 128 255 -0.069153 -0.305607 0.949643
-2.567992 1.720324 -7.986815 128 128 255 -0.062729 0.060821 -0.996176
-5.168794 3.241747 -7.724971 128 128 255 -0.066526 0.065027 -0.995663
-7.515115 4.688598 -7.464509 128 128 255 -0.073839 0.072012 -0.994667
-9.599459 5.939204 -7.204927 128 128 255 -0.085741 0.085194 -0.992668
-11.302531 6.961048 -6.945692 128 128 255 -0.108267 0.108552 -0.988177
-12.576406 7.725373 -6.686592 128 128 255 -0.153798 0.154907 -0.975884
-13.356755 8.193583 -6.427549 128 128 255 -0.289257 0.287078 -0.913190
-13.619557 8.326852 -6.166039 128 128 255 -0.707946 0.706219 -0.008211
-13.357613 8.194097 -5.902460 128 128 255 -0.288631 0.290850 0.912194
-12.574748 7.724378 -5.638919 128 128 255 -0.157584 0.158914 0.974635
-11.303687 6.961741 -5.375453 128 128 255 -0.109702 0.110072 0.987851
-9.596961 5.937706 -5.112138 128 128 255 -0.086788 0.087266 0.992397
-7.518472 4.690612 -4.849185 128 128 255 -0.073237 0.074159 0.994554
-5.168081 3.241320 -4.587129 128 128 255 -0.064671 0.068473 0.995555
-2.567996 1.720326 -4.326469 128 128 255 -0.059833 0.067027 0.995956
0.112206 0.087794 -4.058779 128 128 255 0.076756 0.318573 0.944786
2.768250 -1.520479 -3.800335 128 128 255 0.064255 -0.060575 -0.996093
5.368939 -3.041834 -3.534883 128 128 255 0.068019 -0.064874 -0.995573
7.717109 -4.489794 -3.270873 128 128 255 0.075489 -0.072071 -0.994539
9.795218 -5.736660 -3.007829 128 128 255 0.087367 -0.085202 -0.992526
11.507140 -6.763813 -2.745236 128 128 255 0.110431 -0.108808 -0.987910
12.771080 -7.522177 -2.482907 128 128 255 0.156553 -0.155943 -0.975281
13.556233 -7.993269 -2.220782 128 128 255 0.289182 -0.286605 -0.913362
13.821417 -8.127968 -1.958849 128 128 255 0.706310 -0.707884 -0.005102
13.555837 -7.993031 -1.697107 128 128 255 0.285037 -0.290021 0.913587
12.771035 -7.522150 -1.435564 128 128 255 0.155837 -0.159038 0.974896
11.507496 -6.764027 -1.174240 128 128 255 0.108246 -0.110500 0.987964
9.795899 -5.737069 -0.913203 128 128 255 0.085172 -0.087385 0.992527
7.715364 -4.488748 -0.652647 128 128 255 0.071753 -0.074813 0.994613
5.367476 -3.040956 -0.393092 128 128 255 0.063063 -0.069535 0.995584
2.768577 -1.520675 -0.135021 128 128 255 0.057779 -0.069077 0.995937
0.100000 0.100000 0.130007 128 128 255 -0.183133 -0.499113 0.846964
-2.568577 1.720675 0.385733 128 128 255 -0.064239 0.058710 -0.996206
-5.167476 3.240956 0.648427 128 128 255 -0.067492 0.064002 -0.995665
-7.515364 4.688747 0.909659 128 128 255 -0.074659 0.071328 -0.994655
-9.595900 5.937068 1.169922 128 128 255 -0.086342 0.084475 -0.992678
-11.307496 6.964026 1.429747 128 128 255 -0.109091 0.108045 -0.988142
-12.571035 7.722150 1.689339 128 128 255 -0.154896 0.154912 -0.975710
-13.355837 8.193031 1.948775 128 128 255 -0.286399 0.284570 -0.914875
-13.621416 8.327968 2.208084 128 128 255 -0.706415 0.707767 -0.006625
-13.356234 8.193269 2.467284 128 128 255 -0.283276 0.286917 0.915114
-12.571080 7.722177 2.726383 128 128 255 -0.155115 0.156735 0.975384
-11.307140 6.963813 2.985376 128 128 255 -0.108065 0.108282 0.988229
-9.595219 5.936660 3.244210 128 128 255 -0.085510 0.085244 0.992684
-7.517109 4.689794 3.502705 128 128 255 -0.072606 0.072173 0.994746
-5.168939 3.241834 3.760354 128 128 255 -0.064753 0.065709 0.995736
-2.568250 1.720479 4.017085 128 128 255 -0.062099 0.062421 0.996116
0.087794 0.112206 4.285125 128 128 255 -0.206099 -0.026792 0.978164
2.767996 -1.520326 4.544019 128 128 255 0.061717 -0.064352 -0.996017
5.368082 -3.041320 4.810017 128 128 255 0.067012 -0.066796 -0.995514
7.718472 -4.490613 5.074668 128 128 255 0.074929 -0.073366 -0.994486
9.796961 -5.737705 5.338441 128 128 255 0.087149 -0.086416 -0.992440
11.503687 -6.761741 5.601847 128 128 255 0.110299 -0.109784 -0.987817
12.774748 -7.524378 5.865068 128 128 255 0.156301 -0.156572 -0.975221
13.557612 -7.994096 6.128157 128 128 255 0.291826 -0.288785 -0.911834
13.819557 -8.126852 6.391120 128 128 255 0.707858 -0.706339 -0.004838
13.556756 -7.993582 6.653954 128 128 255 0.287756 -0.291224 0.912351
12.776406 -7.525373 6.916640 128 128 255 0.156447 -0.159109 0.974787
11.502532 -6.761048 7.179151 128 128 255 0.108747 -0.110813 0.987874
9.799459 -5.739204 7.441415 128 128 255 0.085718 -0.087845 0.992439
7.715115 -4.488598 7.703225 128 128 255 0.072079 -0.075063 0.994570
5.368793 -3.041747 7.964056 128 128 255 0.063289 -0.070012 0.995536
2.767992 -1.520324 8.223414 128 128 255 0.057728 -0.070218 0.995860
0.112206 0.087794 8.489736 128 128 255 -0.261823 -0.640201 0.722213
-2.568295 1.720506 8.746751 128 128 255 -0.065353 0.057328 -0.996214
-5.168246 3.241419 9.010722 128 128 255 -0.068386 0.063298 -0.995649
-7.517412 4.689976 9.273210 128 128 255 -0.075509 0.070917 -0.994620
-9.595390 5.936763 9.534699 128 128 255 -0.087171 0.084224 -0.992627
-11.307491 6.964024 9.795713 128 128 255 -0.109918 0.107850 -0.988072
-12.571362 7.722346 10.056452 128 128 255 -0.156100 0.154979 -0.975507
-13.354460 8.192204 10.316980 128 128 255 -0.287925 0.285038 -0.914250
-13.620639 8.327501 10.577323 128 128 255 -0.706149 0.707991 -0.010106
-13.356167 8.193229 10.837492 128 128 255 -0.283718 0.288712 0.914412
-12.571705 7.722552 11.097487 128 128 255 -0.154852 0.157994 0.975222
-11.304253 6.962080 11.357298 128 128 255 -0.107792 0.109734 0.988099
-9.599000 5.938929 11.616867 128 128 255 -0.084963 0.086814 0.992595
-7.515192 4.688644 11.876008 128 128 255 -0.071657 0.073879 0.994689
-5.168905 3.241814 12.134211 128 128 255 -0.063328 0.068306 0.995652
-2.568708 1.720754 12.390999 128 128 255 -0.058879 0.066850 0.996024
0.087794 0.112206 12.654823 128 128 255 0.078935 0.407141 0.909948
2.769144 -1.521016 12.909432 128 128 255 0.062328 -0.060818 -0.996201
5.367140 -3.040755 13.171101 128 128 255 0.066386 -0.065060 -0.995671
7.717772 -4.490192 13.431409 128 128 255 0.073783 -0.072095 -0.994665
9.795805 -5.737012 13.690851 128 128 255 0.085622 -0.085169 -0.992681
11.506635 -6.763510 13.949965 128 128 255 0.108174 -0.108466 -0.988197
12.773718 -7.523760 14.208962 128 128 255 0.155363 -0.156200 -0.975430
13.552267 -7.990889 14.470812 128 128 255 0.290797 -0.289105 -0.912061
13.817332 -8.125517 14.734325 128 128 255 0.706364 -0.707774 -0.010314
13.553301 -7.991509 14.997806 128 128 255 0.287893 -0.291477 0.912227
12.771028 -7.522146 15.261234 128 128 255 0.157555 -0.159319 0.974574
11.505227 -6.762665 15.524576 128 128 255 0.109699 -0.110563 0.987797
9.799157 -5.739023 15.787755 128 128 255 0.086421 -0.087448 0.992413
7.715201 -4.488650 16.050560 128 128 255 0.072832 -0.074576 0.994552
5.367691 -3.041086 16.312456 128 128 255 0.064213 -0.069264 0.995530
2.769102 -1.520990 16.572947 128 128 255 0.059130 -0.068761 0.995879
0.114912 0.086171 16.840174 128 128 255 0.055320 -0.074869 0.995658
0.087794 0.112206 -16.619392 128 128 255 -0.061120 0.060203 -0.996313
-2.301040 1.964764 -16.360792 128 128 255 -0.062902 0.063269 -0.996012
-4.617886 3.766755 -16.095049 128 128 255 -0.066749 0.066589 -0.995545
-6.776821 5.451351 -15.830559 128 128 255 -0.075110 0.072564 -0.994532
-8.627651 6.909872 -15.566929 128 128 255 -0.088356 0.085839 -0.992383
-10.188740 8.080654 -15.303656 128 128 255 -0.110919 0.109776 -0.987748
-11.303035 8.966314 -15.040548 128 128 255 -0.157707 0.156177 -0.975057
-12.030379 9.513041 -14.777549 128 128 255 -0.287156 0.286196 -0.914130
-12.267868 9.722165 -14.514647 128 128 255 -0.707810 0.706374 -0.006480
-12.030364 9.513029 -14.251847 128 128 255 -0.284105 0.283342 0.915970
-11.306302 8.968856 -13.989164 128 128 255 -0.155046 0.159709 0.974912
-10.188361 8.080359 -13.726629 128 128 255 -0.108179 0.112901 0.987700
-8.625512 6.908208 -13.464317 128 128 255 -0.084734 0.088872 0.992432
-6.778925 5.452987 -13.202438 128 128 255 -0.070613 0.076383 0.994575
-4.617394 3.766372 -12.941517 128 128 255 -0.060991 0.071340 0.995586
-2.301065 1.964783 -12.681960 128 128 255 -0.052337 0.075437 0.995776
0.112206 0.087794 -12.415392 128 128 255 0.578949 0.708684 -0.403218
2.500661 -1.764468 -12.158209 128 128 255 0.071202 -0.051939 -0.996109
4.818906 -3.567548 -11.894020 128 128 255 0.070347 -0.061115 -0.995649
6.977059 -5.251536 -11.631214 128 128 255 0.077206 -0.068918 -0.994630
8.827363 -6.709648 -11.369383 128 128 255 0.089545 -0.083012 -0.992517
10.388047 -7.880116 -11.108014 128 128 255 0.111458 -0.107313 -0.987958
11.502747 -8.766090 -10.846904 128 128 255 0.157307 -0.153583 -0.975534
12.232212 -9.314466 -10.585982 128 128 255 0.285271 -0.282853 -0.915759
12.470203 -9.523981 -10.325225 128 128 255 0.707585 -0.706621 -0.003156
12.230881 -9.313431 -10.064624 128 128 255 0.280540 -0.281000 0.917789
11.503961 -8.767035 -9.804178 128 128 255 0.153515 -0.158822 0.975299
10.389601 -7.881324 -9.543905 128 128 255 0.107271 -0.112144 0.987885
8.825066 -6.707861 -9.283868 128 128 255 0.084129 -0.087902 0.992570
6.978484 -5.252645 -9.024260 128 128 255 0.070548 -0.075133 0.994675
4.818429 -3.567176 -8.765590 128 128 255 0.061675 -0.069246 0.995691
2.500286 -1.764176 -8.508254 128 128 255 0.055168 -0.070649 0.995974
0.087794 0.112206 -8.243859 128 128 255 -0.502232 -0.599291 -0.623388
-2.300033 1.963980 -7.988791 128 128 255 -0.065598 0.057938 -0.996163
-4.618678 3.767371 -7.726643 128 128 255 -0.066873 0.064395 -0.995681
-6.776977 5.451472 -7.465791 128 128 255 -0.074312 0.071332 -0.994681
-8.628344 6.910410 -7.205816 128 128 255 -0.087036 0.085084 -0.992565
-10.185443 8.078091 -6.946194 128 128 255 -0.108737 0.108915 -0.988086
-11.306555 8.969052 -6.686708 128 128 255 -0.154159 0.154581 -0.975879
-12.035387 9.516935 -6.427279 128 128 255 -0.284054 0.284911 -0.915499
-12.272370 9.725667 -6.165786 128 128 255 -0.708491 0.705695 -0.005932
-12.035585 9.517090 -5.902559 128 128 255 -0.284290 0.280954 0.916648
-11.304523 8.967472 -5.639370 128 128 255 -0.156085 0.158309 0.974975
-10.187714 8.079856 -5.376253 128 128 255 -0.109712 0.111498 0.987690
-8.625254 6.908008 -5.113286 128 128 255 -0.086436 0.087379 0.992418
-6.779731 5.453615 -4.850684 128 128 255 -0.072551 0.074457 0.994582
-4.618349 3.767114 -4.588976 128 128 255 -0.063501 0.068596 0.995622
-2.300045 1.963990 -4.328576 128 128 255 -0.056792 0.070209 0.995914
0.112206 0.087794 -4.061110 128 128 255 0.511388 0.610476 -0.604815
2.500306 -1.764192 -3.802985 128 128 255 0.067869 -0.056669 -0.996084
4.818913 -3.567554 -3.537812 128 128 255 0.068987 -0.063356 -0.995604
6.978056 -5.252312 -3.273989 128 128 255 0.076558 -0.070477 -0.994571
8.824774 -6.707633 -3.011115 128 128 255 0.089253 -0.084116 -0.992451
10.389946 -7.881592 -2.748682 128 128 255 0.111310 -0.108187 -0.987879
11.502955 -8.766253 -2.486495 128 128 255 0.157849 -0.154754 -0.975261
12.231975 -9.314281 -2.224492 128 128 255 0.285854 -0.283876 -0.915261
12.470823 -9.524464 -1.962654 128 128 255 0.707480 -0.706713 -0.005239
12.231628 -9.314013 -1.700981 128 128 255 0.281210 -0.281756 0.917352
11.503381 -8.766583 -1.439481 128 128 255 0.153922 -0.159469 0.975129
10.389626 -7.881343 -1.178176 128 128 255 0.107534 -0.112865 0.987774
8.825952 -6.708550 -0.917137 128 128 255 0.084063 -0.088599 0.992514
6.976822 -5.251352 -0.656565 128 128 255 0.070173 -0.076083 0.994629
4.817329 -3.566322 -0.396974 128 128 255 0.060836 -0.070857 0.995630
2.500488 -1.764333 -0.138767 128 128 255 0.052965 -0.074190 0.995837
0.100000 0.100000 0.126444 128 128 255 -0.529734 -0.644514 -0.551347
-2.300488 1.964334 0.382266 128 128 255 -0.068950 0.053874 -0.996164
-4.617329 3.766322 0.645099 128 128 255 -0.068829 0.062283 -0.995682
-6.776822 5.451352 0.906569 128 128 255 -0.075847 0.069806 -0.994673
-8.625952 6.908550 1.167084 128 128 255 -0.088241 0.083661 -0.992580
-10.189626 8.081344 1.427167 128 128 255 -0.109949 0.107801 -0.988074
-11.303381 8.966583 1.687030 128 128 255 -0.156066 0.154181 -0.975639
-12.031629 9.514012 1.946751 128 128 255 -0.283303 0.282660 -0.916429
-12.270823 9.724463 2.206360 128 128 255 -0.707597 0.706583 -0.006922
-12.031975 9.514281 2.465873 128 128 255 -0.280247 0.278529 0.918631
-11.302956 8.966253 2.725296 128 128 255 -0.154085 0.156773 0.975541
-10.189945 8.081593 2.984618 128 128 255 -0.108330 0.110004 0.988010
-8.624773 6.907634 3.243783 128 128 255 -0.085573 0.085448 0.992661
-6.778056 5.452312 3.502601 128 128 255 -0.072622 0.072111 0.994749
-4.618913 3.767554 3.760568 128 128 255 -0.064882 0.064955 0.995777
-2.300306 1.964193 4.017628 128 128 255 -0.061905 0.063065 0.996088
0.087794 0.112206 4.285343 128 128 255 0.039885 0.012012 -0.999132
2.500046 -1.763990 4.543801 128 128 255 0.062566 -0.063034 -0.996048
4.818348 -3.567114 4.809387 128 128 255 0.066642 -0.066504 -0.995558
6.979732 -5.253614 5.073706 128 128 255 0.075119 -0.072589 -0.994529
8.825254 -6.708007 5.337148 128 128 255 0.088367 -0.085874 -0.992379
10.387713 -7.879856 5.600220 128 128 255 0.110699 -0.109555 -0.987797
11.504523 -8.767472 5.863114 128 128 255 0.156928 -0.155568 -0.975280
12.235585 -9.317090 6.125887 128 128 255 0.286465 -0.285412 -0.914592
12.472370 -9.525667 6.388551 128 128 255 0.708373 -0.705823 -0.004717
12.235387 -9.316936 6.651103 128 128 255 0.282989 -0.282024 0.916722
11.506555 -8.769053 6.913527 128 128 255 0.154305 -0.159123 0.975125
10.385443 -7.878090 7.175795 128 128 255 0.108116 -0.112819 0.987716
8.828343 -6.710411 7.437831 128 128 255 0.084706 -0.088825 0.992439
6.976976 -5.251472 7.699427 128 128 255 0.070521 -0.076209 0.994595
4.818678 -3.567371 7.960062 128 128 255 0.060996 -0.071234 0.995593
2.500033 -1.763980 8.219324 128 128 255 0.052624 -0.075400 0.995764
0.112206 0.087794 8.485598 128 128 255 -0.517360 -0.632267 -0.576695
-2.300286 1.964176 8.742480 128 128 255 -0.070732 0.051856 -0.996147
-4.618428 3.767176 9.006370 128 128 255 -0.070136 0.061149 -0.995661
-6.778484 5.452644 9.268876 128 128 255 -0.077057 0.068999 -0.994636
-8.625066 6.907861 9.530407 128 128 255 -0.089394 0.082993 -0.992533
-10.189600 8.081324 9.791478 128 128 255 -0.111060 0.107147 -0.988021
-11.303961 8.967035 10.052294 128 128 255 -0.157435 0.153768 -0.975484
-12.030881 9.513431 10.312925 128 128 255 -0.285206 0.282791 -0.915798
-12.270204 9.723982 10.573398 128 128 255 -0.707577 0.706572 -0.009568
-12.032212 9.514466 10.833721 128 128 255 -0.280047 0.280408 0.918120
-11.302747 8.966090 11.093896 128 128 255 -0.153231 0.158456 0.975404
-10.188047 8.080115 11.353906 128 128 255 -0.107382 0.111951 0.987895
-8.627363 6.909648 11.613690 128 128 255 -0.084208 0.087710 0.992580
-6.777059 5.451536 11.873055 128 128 255 -0.070612 0.074787 0.994696
-4.618906 3.767548 12.131494 128 128 255 -0.061913 0.068900 0.995701
-2.300661 1.964468 12.388609 128 128 255 -0.055870 0.070190 0.995968
0.087794 0.112206 12.652796 128 128 255 0.376905 0.446811 -0.811358
2.501065 -1.764783 12.907669 128 128 255 0.064856 -0.058303 -0.996190
4.817394 -3.566372 13.169635 128 128 255 0.066567 -0.064628 -0.995687
6.978925 -5.252987 13.430322 128 128 255 0.074128 -0.071541 -0.994679
8.825512 -6.708208 13.690143 128 128 255 0.086843 -0.085153 -0.992576
10.388361 -7.880360 13.949629 128 128 255 0.108455 -0.108882 -0.988121
11.506302 -8.768856 14.208992 128 128 255 0.155503 -0.155841 -0.975465
12.230364 -9.313029 14.470740 128 128 255 0.286777 -0.287453 -0.913854
12.467868 -9.522165 14.733880 128 128 255 0.707900 -0.706278 -0.007002
12.230379 -9.313041 14.996989 128 128 255 0.284481 -0.282024 0.916260
11.503035 -8.766315 15.260051 128 128 255 0.156159 -0.158933 0.974861
10.388740 -7.880654 15.523031 128 128 255 0.109514 -0.112052 0.987649
8.827651 -6.709872 15.785851 128 128 255 0.085889 -0.087742 0.992434
6.976821 -5.251351 16.048296 128 128 255 0.071923 -0.075000 0.994586
4.817886 -3.566755 16.309839 128 128 255 0.062756 -0.069574 0.995601
2.501040 -1.764764 16.570068 128 128 255 0.055523 -0.072322 0.995835
0.114641 0.085900 16.837069 128 128 255 0.042422 -0.090512 0.994991
0.087794 0.112206 -16.619282 128 128 255 -0.061236 0.059935 -0.996322
-2.032923 2.232923 -16.361258 128 128 255 -0.063911 0.061920 -0.996033
-4.092368 4.292367 -16.096085 128 128 255 -0.067601 0.065390 -0.995567
-6.014082 6.214082 -15.832129 128 128 255 -0.074575 0.072633 -0.994567
-7.680835 7.880835 -15.569026 128 128 255 -0.088603 0.085790 -0.992366
-9.022717 9.222716 -15.306271 128 128 255 -0.112220 0.109292 -0.987655
-10.034870 10.234870 -15.043665 128 128 255 -0.156689 0.154994 -0.975410
-10.683804 10.883803 -14.781149 128 128 255 -0.288478 0.284054 -0.914381
-10.870457 11.070457 -14.518707 128 128 255 -0.706939 0.707274 -0.000483
-10.684079 10.884079 -14.256341 128 128 255 -0.284269 0.289619 0.913954
-10.037894 10.237894 -13.994062 128 128 255 -0.153913 0.157237 0.975493
-9.021887 9.221887 -13.731900 128 128 255 -0.107456 0.113064 0.987760
-7.679239 7.879239 -13.469930 128 128 255 -0.083379 0.090363 0.992412
-6.015873 6.215873 -13.208361 128 128 255 -0.068746 0.077182 0.994644
-4.091933 4.291933 -12.947712 128 128 255 -0.058667 0.071993 0.995678
-2.032942 2.232942 -12.688361 128 128 255 -0.048804 0.075887 0.995921
0.112206 0.087794 -12.421953 128 128 255 0.687822 0.718904 0.100386
2.232579 -2.032578 -12.164925 128 128 255 0.076815 -0.048557 -0.995862
4.293249 -4.093249 -11.900841 128 128 255 0.073530 -0.058922 -0.995551
6.214371 -6.014371 -11.638068 128 128 255 0.078181 -0.068413 -0.994589
7.880531 -7.680531 -11.376229 128 128 255 0.090987 -0.082641 -0.992417
9.222178 -9.022177 -11.114812 128 128 255 0.113700 -0.106688 -0.987770
10.234383 -10.034383 -10.853610 128 128 255 0.157289 -0.152447 -0.975715
10.885110 -10.685110 -10.592554 128 128 255 0.287647 -0.280913 -0.915613
11.072198 -10.872198 -10.331619 128 128 255 0.706995 -0.707212 0.002902
10.884085 -10.684085 -10.070799 128 128 255 0.281133 -0.287718 0.915523
10.235875 -10.035874 -9.810093 128 128 255 0.152675 -0.156864 0.975748
9.223063 -9.023064 -9.549521 128 128 255 0.106748 -0.112647 0.987884
7.878843 -7.678843 -9.289150 128 128 255 0.083037 -0.089586 0.992512
6.215449 -6.015449 -9.029177 128 128 255 0.069112 -0.076011 0.994709
4.292860 -4.092860 -8.770109 128 128 255 0.060119 -0.069799 0.995748
2.232244 -2.032244 -8.512321 128 128 255 0.053414 -0.070570 0.996076
0.087794 0.112206 -8.247439 128 128 255 -0.664473 -0.725384 0.179704
-2.032026 2.232026 -7.991897 128 128 255 -0.068849 0.055808 -0.996065
-4.093007 4.293007 -7.729246 128 128 255 -0.068643 0.063089 -0.995645
-6.014304 6.214304 -7.467846 128 128 255 -0.074240 0.071574 -0.994669
-7.681530 7.881530 -7.207310 128 128 255 -0.087536 0.085404 -0.992494
-9.019677 9.219677 -6.947119 128 128 255 -0.110285 0.108949 -0.987911
-10.037394 10.237393 -6.687057 128 128 255 -0.153451 0.154095 -0.976067
-10.688511 10.888511 -6.427049 128 128 255 -0.285002 0.283381 -0.915680
-10.874930 11.074930 -6.165586 128 128 255 -0.707069 0.707145 -0.000104
-10.688481 10.888482 -5.902901 128 128 255 -0.284483 0.286538 0.914858
-10.035567 10.235567 -5.640248 128 128 255 -0.155445 0.155313 0.975559
-9.021955 9.221954 -5.377658 128 128 255 -0.109620 0.111476 0.987703
-7.678642 7.878642 -5.115211 128 128 255 -0.085724 0.088404 0.992389
-6.016613 6.216614 -4.853116 128 128 255 -0.071514 0.074811 0.994630
-4.092808 4.292808 -4.591898 128 128 255 -0.062302 0.068645 0.995694
-2.032040 2.232040 -4.331941 128 128 255 -0.055319 0.069689 0.996034
0.112206 0.087794 -4.064888 128 128 255 0.668692 0.725417 0.163162
2.232281 -2.032281 -3.807184 128 128 255 0.071717 -0.053950 -0.995965
4.293241 -4.093241 -3.542399 128 128 255 0.071311 -0.061445 -0.995560
6.215029 -6.015028 -3.278903 128 128 255 0.076996 -0.070093 -0.994565
7.878582 -7.678581 -3.016325 128 128 255 0.090246 -0.083788 -0.992389
9.223511 -9.023511 -2.754155 128 128 255 0.113266 -0.107536 -0.987728
10.234868 -10.034868 -2.492196 128 128 255 0.157416 -0.153463 -0.975535
10.884834 -10.684834 -2.230381 128 128 255 0.288042 -0.281822 -0.915209
11.072650 -10.872650 -1.968692 128 128 255 0.706969 -0.707244 0.000758
10.884564 -10.684565 -1.707126 128 128 255 0.281500 -0.288123 0.915283
10.235362 -10.035362 -1.445690 128 128 255 0.152875 -0.157357 0.975637
9.223040 -9.023040 -1.184409 128 128 255 0.106769 -0.113305 0.987807
7.879750 -7.679750 -0.923351 128 128 255 0.082654 -0.090326 0.992476
6.214075 -6.014075 -0.662723 128 128 255 0.068302 -0.077066 0.994684
4.291771 -4.091771 -0.403036 128 128 255 0.058611 -0.071628 0.995708
2.232408 -2.032408 -0.144664 128 128 255 0.049790 -0.074694 0.995963
0.100000 0.100000 0.120757 128 128 255 -0.688483 -0.725252 -0.000000
-2.032408 2.232408 0.376791 128 128 255 -0.073879 0.050829 -0.995971
-4.091771 4.291771 0.639881 128 128 255 -0.071561 0.060390 -0.995606
-6.014075 6.214075 0.901669 128 128 255 -0.076454 0.069592 -0.994642
-7.679750 7.879750 1.162534 128 128 255 -0.089300 0.083610 -0.992489
-9.023040 9.223040 1.422997 128 128 255 -0.111978 0.107509 -0.987878
-10.035362 10.235362 1.683266 128 128 255 -0.155648 0.153349 -0.975837
-10.684565 10.884564 1.943420 128 128 255 -0.285778 0.281419 -0.916043
-10.872650 11.072650 2.203486 128 128 255 -0.707128 0.707085 -0.000762
-10.684834 10.884834 2.463477 128 128 255 -0.281539 0.285132 0.916207
-10.034868 10.234868 2.723397 128 128 255 -0.153978 0.154647 0.975897
-9.023511 9.223511 2.983231 128 128 255 -0.108608 0.110343 0.987942
-7.678581 7.878582 3.242918 128 128 255 -0.085405 0.086766 0.992561
-6.015028 6.215029 3.502263 128 128 255 -0.072396 0.072475 0.994739
-4.093241 4.293241 3.760761 128 128 255 -0.065091 0.064681 0.995781
-2.032281 2.232281 4.018281 128 128 255 -0.063328 0.061411 0.996101
0.087794 0.112206 4.285435 128 128 255 -0.222272 0.150210 -0.963344
2.232040 -2.032040 4.543299 128 128 255 0.063737 -0.061496 -0.996070
4.292808 -4.092808 4.808304 128 128 255 0.067578 -0.065209 -0.995581
6.216614 -6.016613 5.072077 128 128 255 0.074651 -0.072586 -0.994564
7.878642 -7.678642 5.334985 128 128 255 0.088671 -0.085762 -0.992362
9.221954 -9.021955 5.597537 128 128 255 0.112046 -0.109012 -0.987705
10.235567 -10.035567 5.859928 128 128 255 0.156117 -0.154336 -0.975606
10.888482 -10.688481 6.122222 128 128 255 0.287311 -0.282908 -0.915104
11.074930 -10.874930 6.384432 128 128 255 0.706942 -0.707271 0.000104
10.888511 -10.688511 6.646559 128 128 255 0.282783 -0.288098 0.914895
10.237393 -10.037394 6.908591 128 128 255 0.153128 -0.156524 0.975732
9.219677 -9.019677 7.170500 128 128 255 0.107428 -0.113093 0.987760
7.881530 -7.681530 7.432213 128 128 255 0.083320 -0.090326 0.992421
6.214304 -6.014304 7.693518 128 128 255 0.068629 -0.077075 0.994660
4.293007 -4.093007 7.953901 128 128 255 0.058647 -0.071927 0.995684
2.232026 -2.032026 8.212979 128 128 255 0.049070 -0.075918 0.995906
0.112206 0.087794 8.479116 128 128 255 -0.687844 -0.718902 -0.100248
-2.032244 2.232244 8.735870 128 128 255 -0.076338 0.048428 -0.995905
-4.092860 4.292860 8.999680 128 128 255 -0.073309 0.058951 -0.995565
-6.015449 6.215449 9.262177 128 128 255 -0.078029 0.068488 -0.994596
-7.678843 7.878843 9.523743 128 128 255 -0.090793 0.082640 -0.992435
-9.023064 9.223063 9.784888 128 128 255 -0.113353 0.106539 -0.987826
-10.035874 10.235875 10.045820 128 128 255 -0.157222 0.152603 -0.975702
-10.684085 10.884085 10.306610 128 128 255 -0.287698 0.281123 -0.915532
-10.872198 11.072198 10.567284 128 128 255 -0.707045 0.707162 -0.002905
-10.685110 10.885110 10.827847 128 128 255 -0.280671 0.286988 0.915894
-10.034383 10.234383 11.088301 128 128 255 -0.152468 0.156403 0.975854
-9.022177 9.222178 11.348626 128 128 255 -0.106956 0.112522 0.987876
-7.680531 7.880531 11.608760 128 128 255 -0.083183 0.089306 0.992525
-6.014371 6.214371 11.868502 128 128 255 -0.069285 0.075645 0.994725
-4.093249 4.293249 12.127346 128 128 255 -0.060506 0.069364 0.995755
-2.032578 2.232579 12.384920 128 128 255 -0.054436 0.069934 0.996065
0.087794 0.112206 12.649596 128 128 255 0.657446 0.725680 -0.202864
2.232942 -2.032942 12.904944 128 128 255 0.067777 -0.056359 -0.996107
4.291933 -4.091933 13.167407 128 128 255 0.068161 -0.063430 -0.995656
6.215873 -6.015873 13.428633 128 128 255 0.073948 -0.071848 -0.994671
7.879239 -7.679239 13.689003 128 128 255 0.087234 -0.085524 -0.992510
9.221887 -9.021887 13.949041 128 128 255 0.109941 -0.108963 -0.987947
10.237894 -10.037894 14.208961 128 128 255 0.154281 -0.155147 -0.975770
10.884079 -10.684079 14.470553 128 128 255 0.287673 -0.285740 -0.914110
11.070457 -10.870457 14.733127 128 128 255 0.707028 -0.707185 0.000482
10.883803 -10.683804 14.995674 128 128 255 0.284880 -0.287764 0.914350
10.234870 -10.034870 15.258183 128 128 255 0.155429 -0.156141 0.975429
9.222716 -9.022717 15.520622 128 128 255 0.109217 -0.112022 0.987686
7.880835 -7.680835 15.782914 128 128 255 0.085001 -0.088849 0.992411
6.214082 -6.014082 16.044846 128 128 255 0.070657 -0.075434 0.994644
4.292367 -4.092368 16.305897 128 128 255 0.061240 -0.069728 0.995685
2.232923 -2.032923 16.565685 128 128 255 0.053451 -0.071975 0.995973
0.114370 0.085630 16.832279 128 128 255 0.035672 -0.091797 0.995139
0.087794 0.112206 -16.619175 128 128 255 -0.064088 0.057586 -0.996281
-1.764764 2.501040 -16.361828 128 128 255 -0.065429 0.060825 -0.996002
-3.566755 4.817886 -16.097330 128 128 255 -0.067891 0.065374 -0.995549
-5.251351 6.976821 -15.834068 128 128 255 -0.074323 0.072876 -0.994568
-6.709872 8.827651 -15.571643 128 128 255 -0.087530 0.085869 -0.992454
-7.880654 10.388740 -15.309543 128 128 255 -0.112130 0.108856 -0.987713
-8.766315 11.503035 -15.047568 128 128 255 -0.159145 0.154939 -0.975021
-9.313041 12.230379 -14.785656 128 128 255 -0.282047 0.282565 -0.916846
-9.522165 12.467868 -14.523787 128 128 255 -0.706182 0.707995 0.007036
-9.313029 12.230364 -14.261960 128 128 255 -0.285080 0.287755 0.914290
-8.768856 11.506302 -14.000183 128 128 255 -0.154207 0.158051 0.975315
-7.880360 10.388361 -13.738482 128 128 255 -0.107106 0.111425 0.987984
-6.708208 8.825512 -13.476927 128 128 255 -0.082610 0.089826 0.992526
-5.252987 6.978925 -13.215721 128 128 255 -0.067866 0.077320 0.994694
-3.566372 4.817394 -12.955386 128 128 255 -0.058870 0.070416 0.995779
-1.764783 2.501065 -12.696325 128 128 255 -0.048227 0.073500 0.996128
0.112206 0.087794 -12.430158 128 128 255 0.661538 0.589353 0.463713
1.964468 -2.300661 -12.173281 128 128 255 0.080164 -0.048984 -0.995577
3.767548 -4.618906 -11.909297 128 128 255 0.074659 -0.059746 -0.995418
5.451536 -6.777059 -11.646596 128 128 255 0.078563 -0.069236 -0.994502
6.909648 -8.627363 -11.384769 128 128 255 0.090475 -0.083217 -0.992416
8.080115 -10.188047 -11.123304 128 128 255 0.114179 -0.106703 -0.987713
8.966090 -11.302747 -10.861996 128 128 255 0.160388 -0.152859 -0.975146
9.514466 -12.032212 -10.600777 128 128 255 0.282208 -0.280073 -0.917561
9.723982 -12.270204 -10.339623 128 128 255 0.706582 -0.707567 0.009543
9.513431 -12.030881 -10.078531 128 128 255 0.282570 -0.286174 0.915564
8.967035 -11.303961 -9.817501 128 128 255 0.153327 -0.158019 0.975459
8.081324 -10.189600 -9.556555 128 128 255 0.106673 -0.111354 0.988039
6.907861 -8.625066 -9.295758 128 128 255 0.082524 -0.089355 0.992575
5.452644 -6.778484 -9.035311 128 128 255 0.068500 -0.076473 0.994716
3.767176 -4.618428 -8.775726 128 128 255 0.060663 -0.068678 0.995793
1.964176 -2.300286 -8.517406 128 128 255 0.053565 -0.068943 0.996182
0.087794 0.112206 -8.251963 128 128 255 -0.523134 -0.513225 0.680390
-1.763980 2.500033 -7.995789 128 128 255 -0.071480 0.055502 -0.995897
-3.567371 4.818678 -7.732484 128 128 255 -0.069501 0.063521 -0.995557
-5.251472 6.976976 -7.470432 128 128 255 -0.074412 0.072177 -0.994612
-6.710411 8.828343 -7.209221 128 128 255 -0.086851 0.085814 -0.992518
-7.878090 10.385443 -6.948334 128 128 255 -0.110644 0.108869 -0.987879
-8.769053 11.506555 -6.687563 128 128 255 -0.156628 0.154687 -0.975469
-9.316936 12.235387 -6.426838 128 128 255 -0.279167 0.282876 -0.917631
-9.525667 12.472370 -6.165413 128 128 255 -0.705661 0.708534 0.004733
-9.317090 12.235585 -5.903401 128 128 255 -0.285722 0.285128 0.914912
-8.767472 11.504523 -5.641413 128 128 255 -0.155790 0.155932 0.975405
-7.879856 10.387713 -5.379476 128 128 255 -0.109428 0.110035 0.987886
-6.708007 8.825254 -5.117661 128 128 255 -0.085180 0.088022 0.992470
-5.253614 6.979732 -4.856175 128 128 255 -0.070894 0.075127 0.994651
-3.567114 4.818348 -4.595540 128 128 255 -0.062908 0.067368 0.995743
-1.763990 2.500046 -4.336164 128 128 255 -0.055709 0.067735 0.996147
0.112206 0.087794 -4.069664 128 128 255 0.532081 0.519846 0.668319
1.964193 -2.300306 -3.812443 128 128 255 0.074077 -0.053904 -0.995795
3.767554 -4.618913 -3.548106 128 128 255 0.071976 -0.061990 -0.995478
5.452312 -6.778056 -3.285044 128 128 255 0.077065 -0.070730 -0.994514
6.907634 -8.624773 -3.022854 128 128 255 0.089384 -0.084201 -0.992432
8.081593 -10.189945 -2.761021 128 128 255 0.113483 -0.107403 -0.987718
8.966253 -11.302956 -2.499349 128 128 255 0.160141 -0.153663 -0.975060
9.514281 -12.031975 -2.237769 128 128 255 0.282148 -0.280642 -0.917405
9.724463 -12.270823 -1.976264 128 128 255 0.706644 -0.707536 0.006873
9.514012 -12.031629 -1.714828 128 128 255 0.282693 -0.286082 0.915555
8.966583 -11.303381 -1.453470 128 128 255 0.153389 -0.158201 0.975420
8.081344 -10.189626 -1.192210 128 128 255 0.106587 -0.111749 0.988004
6.908550 -8.625952 -0.931119 128 128 255 0.082058 -0.089838 0.992570
5.451352 -6.776822 -0.670398 128 128 255 0.067630 -0.077237 0.994716
3.766322 -4.617329 -0.410563 128 128 255 0.059106 -0.070061 0.995790
1.964334 -2.300488 -0.152018 128 128 255 0.049762 -0.072296 0.996141
0.100000 0.100000 0.113622 128 128 255 -0.660527 -0.602415 0.448106
-1.764333 2.500488 0.369963 128 128 255 -0.076718 0.051253 -0.995735
-3.566322 4.817329 0.633401 128 128 255 -0.072490 0.061197 -0.995490
-5.251352 6.976822 0.895557 128 128 255 -0.076708 0.070447 -0.994562
-6.708550 8.825952 1.156836 128 128 255 -0.088609 0.084212 -0.992500
-7.881343 10.389626 1.417756 128 128 255 -0.112456 0.107609 -0.987813
-8.766583 11.503381 1.678524 128 128 255 -0.158655 0.153874 -0.975270
-9.314013 12.231628 1.939212 128 128 255 -0.280379 0.280800 -0.917899
-9.524464 12.470823 2.199844 128 128 255 -0.706701 0.707492 0.005262
-9.314281 12.231975 2.460430 128 128 255 -0.283458 0.283936 0.915987
-8.766253 11.502955 2.720968 128 128 255 -0.154980 0.156046 0.975516
-7.881592 10.389946 2.981442 128 128 255 -0.108883 0.109382 0.988018
-6.707633 8.824774 3.241787 128 128 255 -0.085288 0.086912 0.992558
-5.252312 6.978056 3.501806 128 128 255 -0.072243 0.073329 0.994688
-3.567554 4.818913 3.760989 128 128 255 -0.066284 0.064138 0.995737
-1.764192 2.500306 4.019049 128 128 255 -0.064859 0.060480 0.996060
0.087794 0.112206 4.285464 128 128 255 -0.110599 0.144686 0.983277
1.963990 -2.300045 4.542631 128 128 255 0.065067 -0.060552 -0.996042
3.767114 -4.618349 4.806942 128 128 255 0.067776 -0.065263 -0.995564
5.453615 -6.779731 5.070010 128 128 255 0.074354 -0.072861 -0.994567
6.908008 -8.625254 5.332232 128 128 255 0.087587 -0.085871 -0.992449
8.079856 -10.187714 5.594126 128 128 255 0.111885 -0.108548 -0.987775
8.967472 -11.304523 5.855887 128 128 255 0.158720 -0.154345 -0.975185
9.517090 -12.035585 6.117582 128 128 255 0.281019 -0.281767 -0.917407
9.725667 -12.272370 6.379229 128 128 255 0.705654 -0.708532 0.005947
9.516935 -12.035387 6.640830 128 128 255 0.284008 -0.286718 0.914949
8.969052 -11.306555 6.902377 128 128 255 0.153439 -0.157108 0.975589
8.078091 -10.185443 7.163846 128 128 255 0.107109 -0.111467 0.987979
6.910410 -8.628344 7.425167 128 128 255 0.082576 -0.089768 0.992534
5.451472 -6.776977 7.686134 128 128 255 0.067773 -0.077214 0.994708
3.767371 -4.618678 7.946232 128 128 255 0.058894 -0.070337 0.995783
1.963980 -2.300033 8.205051 128 128 255 0.048558 -0.073505 0.996112
0.112206 0.087794 8.470980 128 128 255 -0.707138 -0.630941 0.319169
-1.764176 2.500286 8.727616 128 128 255 -0.079625 0.048861 -0.995627
-3.567176 4.818429 8.991359 128 128 255 -0.074409 0.059772 -0.995435
-5.252645 6.978484 9.253821 128 128 255 -0.078430 0.069317 -0.994507
-6.707861 8.825066 9.515409 128 128 255 -0.090222 0.083206 -0.992440
-7.881324 10.389601 9.776637 128 128 255 -0.113916 0.106589 -0.987756
-8.767035 11.503961 10.037710 128 128 255 -0.160239 0.153045 -0.975141
-9.313431 12.230881 10.298697 128 128 255 -0.282137 0.280278 -0.917520
-9.523981 12.470203 10.559619 128 128 255 -0.706631 0.707576 0.003154
-9.314466 12.232212 10.820484 128 128 255 -0.282373 0.285604 0.915803
-8.766090 11.502747 11.081289 128 128 255 -0.153093 0.157407 0.975595
-7.880116 10.388047 11.342015 128 128 255 -0.106904 0.111327 0.988017
-6.709648 8.827363 11.602594 128 128 255 -0.082701 0.089085 0.992585
-5.251536 6.977059 11.862828 128 128 255 -0.068686 0.076157 0.994727
-3.567548 4.818906 12.122206 128 128 255 -0.061081 0.068309 0.995793
-1.764468 2.500661 12.380322 128 128 255 -0.054659 0.068407 0.996159
0.087794 0.112206 12.645566 128 128 255 0.590796 0.592827 0.547280
1.964783 -2.301065 12.901546 128 128 255 0.070340 -0.055940 -0.995953
3.766372 -4.617394 13.164660 128 128 255 0.068985 -0.063796 -0.995576
5.452987 -6.778925 13.426531 128 128 255 0.074128 -0.072404 -0.994617
6.908208 -8.625512 13.687564 128 128 255 0.086508 -0.085886 -0.992542
8.080359 -10.188361 13.948279 128 128 255 0.110355 -0.108904 -0.987908
8.968856 -11.306302 14.208884 128 128 255 0.157032 -0.155453 -0.975282
9.513029 -12.030364 14.470284 128 128 255 0.280932 -0.284228 -0.916674
9.722165 -12.267868 14.732154 128 128 255 0.706176 -0.708007 0.006503
9.513041 -12.030379 14.994005 128 128 255 0.285719 -0.285798 0.914704
8.966314 -11.303035 15.255830 128 128 255 0.155680 -0.156882 0.975270
8.080654 -10.188740 15.517603 128 128 255 0.108922 -0.110545 0.987884
6.909872 -8.627651 15.779252 128 128 255 0.084344 -0.088422 0.992506
5.451351 -6.776821 16.040569 128 128 255 0.069904 -0.075707 0.994677
3.766755 -4.617886 16.301037 128 128 255 0.061648 -0.068374 0.995753
1.964764 -2.301040 16.560247 128 128 255 0.053379 -0.069929 0.996123
0.114100 0.085359 16.826296 128 128 255 0.030183 -0.090063 0.995479
0.087794 0.112206 -16.619074 128 128 255 -0.057320 0.061588 -0.996454
-1.520990 2.769102 -16.362223 128 128 255 -0.062544 0.062512 -0.996083
-3.041086 5.367691 -16.098236 128 128 255 -0.066878 0.066493 -0.995543
-4.488650 7.715201 -15.835550 128 128 255 -0.072730 0.073948 -0.994606
-5.739023 9.799157 -15.573682 128 128 255 -0.085770 0.086817 -0.992525
-6.762665 11.505227 -15.312112 128 128 255 -0.108952 0.109631 -0.987983
-7.522146 12.771028 -15.050642 128 128 255 -0.157574 0.156963 -0.974953
-7.991509 13.553301 -14.789209 128 128 255 -0.289403 0.286455 -0.913340
-8.125517 13.817332 -14.527796 128 128 255 -0.708443 0.705692 0.010386
-7.990889 13.552267 -14.266396 128 128 255 -0.289053 0.289348 0.912538
-7.523760 12.773718 -14.005014 128 128 255 -0.157691 0.155583 0.975155
-6.763510 11.506635 -13.743673 128 128 255 -0.110508 0.108678 0.987916
-5.737012 9.795805 -13.482435 128 128 255 -0.087204 0.085610 0.992505
-4.490192 7.717772 -13.221498 128 128 255 -0.074372 0.073047 0.994552
-3.040755 5.367140 -12.961385 128 128 255 -0.068037 0.064552 0.995592
-1.521016 2.769144 -12.702577 128 128 255 -0.068185 0.059463 0.995899
0.112206 0.087794 -12.436642 128 128 255 -0.485755 -0.227432 -0.843989
1.720754 -2.568708 -12.179840 128 128 255 0.059465 -0.063261 -0.996224
3.241814 -5.168905 -11.915910 128 128 255 0.065544 -0.066796 -0.995612
4.688644 -7.515192 -11.653289 128 128 255 0.071904 -0.074083 -0.994657
5.938929 -9.599000 -11.391490 128 128 255 0.085212 -0.086841 -0.992571
6.962080 -11.304253 -11.129994 128 128 255 0.108501 -0.109502 -0.988047
7.722552 -12.571705 -10.868603 128 128 255 0.157093 -0.156514 -0.975103
8.193229 -13.356167 -10.607253 128 128 255 0.288590 -0.285507 -0.913894
8.327501 -13.620639 -10.345924 128 128 255 0.708954 -0.705183 0.010064
8.192204 -13.354460 -10.084611 128 128 255 0.287969 -0.287407 0.913494
7.722346 -12.571362 -9.823319 128 128 255 0.157539 -0.155143 0.975250
6.964024 -11.307491 -9.562067 128 128 255 0.110438 -0.108679 0.987923
5.936763 -9.595390 -9.300919 128 128 255 0.086976 -0.085504 0.992534
4.689976 -7.517412 -9.040070 128 128 255 0.074072 -0.073066 0.994573
3.241419 -5.168246 -8.780043 128 128 255 0.067456 -0.064648 0.995626
1.720506 -2.568295 -8.521321 128 128 255 0.066812 -0.059816 0.995971
0.087794 0.112206 -8.255468 128 128 255 0.349387 0.187812 -0.917963
-1.520324 2.767992 -7.998746 128 128 255 -0.061149 0.062653 -0.996160
-3.041747 5.368793 -7.734890 128 128 255 -0.066411 0.066420 -0.995579
-4.488598 7.715115 -7.472339 128 128 255 -0.072489 0.073830 -0.994633
-5.739204 9.799459 -7.210605 128 128 255 -0.085672 0.086651 -0.992548
-6.761048 11.502532 -6.949169 128 128 255 -0.108817 0.109173 -0.988049
-7.525373 12.776406 -6.687831 128 128 255 -0.157039 0.156377 -0.975133
-7.993582 13.556756 -6.426529 128 128 255 -0.288856 0.287110 -0.913307
-8.126852 13.819557 -6.165127 128 128 255 -0.706281 0.707915 0.004862
-7.994096 13.557612 -5.903639 128 128 255 -0.288649 0.289985 0.912464
-7.524378 12.774748 -5.642168 128 128 255 -0.156942 0.154774 0.975405
-6.761741 11.503687 -5.380733 128 128 255 -0.110431 0.108872 0.987903
-5.737705 9.796961 -5.119401 128 128 255 -0.087256 0.085616 0.992500
-4.490613 7.718472 -4.858367 128 128 255 -0.074376 0.072985 0.994556
-3.041320 5.368082 -4.598158 128 128 255 -0.068126 0.064327 0.995601
-1.520326 2.767996 -4.339256 128 128 255 -0.068619 0.058873 0.995904
0.112206 0.087794 -4.073226 128 128 255 -0.526243 -0.290794 -0.799066
1.720479 -2.568250 -3.816334 128 128 255 0.058559 -0.064175 -0.996219
3.241834 -5.168939 -3.552316 128 128 255 0.064970 -0.067283 -0.995616
4.689794 -7.517109 -3.289612 128 128 255 0.071605 -0.074563 -0.994642
5.936660 -9.595219 -3.027738 128 128 255 0.084750 -0.087192 -0.992580
6.963813 -11.307140 -2.766171 128 128 255 0.108053 -0.109793 -0.988064
7.722177 -12.571080 -2.504719 128 128 255 0.156891 -0.157068 -0.975046
8.193269 -13.356234 -2.243317 128 128 255 0.288171 -0.285815 -0.913930
8.327968 -13.621416 -1.981947 128 128 255 0.708883 -0.705296 0.006568
8.193031 -13.355837 -1.720605 128 128 255 0.288546 -0.287045 0.913425
7.722150 -12.571035 -1.459297 128 128 255 0.158163 -0.154680 0.975222
6.964026 -11.307496 -1.198042 128 128 255 0.111244 -0.108373 0.987866
5.937068 -9.595900 -0.936907 128 128 255 0.087860 -0.085032 0.992497
4.688747 -7.515364 -0.676088 128 128 255 0.075271 -0.072422 0.994530
3.240956 -5.167476 -0.416106 128 128 255 0.069331 -0.063756 0.995554
1.720675 -2.568577 -0.157446 128 128 255 0.070598 -0.058125 0.995810
0.100000 0.100000 0.108328 128 128 255 0.541383 0.280417 -0.792635
-1.520675 2.768577 0.364953 128 128 255 -0.057375 0.064299 -0.996280
-3.040956 5.367476 0.628692 128 128 255 -0.064624 0.067260 -0.995640
-4.488748 7.715364 0.891111 128 128 255 -0.071344 0.074410 -0.994672
-5.737069 9.795899 1.152693 128 128 255 -0.084534 0.086956 -0.992619
-6.764027 11.507496 1.413962 128 128 255 -0.108044 0.109559 -0.988091
-7.522150 12.771035 1.675114 128 128 255 -0.156717 0.156724 -0.975129
-7.993031 13.555837 1.936216 128 128 255 -0.287787 0.285357 -0.914194
-8.127968 13.821417 2.197288 128 128 255 -0.708304 0.705889 0.005120
-7.993269 13.556233 2.458336 128 128 255 -0.287381 0.287017 0.913802
-7.522177 12.771080 2.719356 128 128 255 -0.157026 0.154643 0.975412
-6.763813 11.507140 2.980331 128 128 255 -0.110086 0.108586 0.987973
-5.736660 9.795218 3.241198 128 128 255 -0.086638 0.085362 0.992576
-4.489794 7.717109 3.501762 128 128 255 -0.073669 0.072967 0.994610
-3.041834 5.368939 3.761503 128 128 255 -0.066895 0.064533 0.995671
-1.520479 2.768250 4.019954 128 128 255 -0.066595 0.059705 0.995992
0.087794 0.112206 4.285729 128 128 255 -0.277680 -0.191609 -0.941371
1.720326 -2.567996 4.542372 128 128 255 0.060082 -0.063401 -0.996178
3.241320 -5.168081 4.806149 128 128 255 0.065725 -0.066963 -0.995588
4.690612 -7.518472 5.068619 128 128 255 0.072059 -0.074302 -0.994629
5.937706 -9.596961 5.330267 128 128 255 0.085371 -0.087091 -0.992536
6.961741 -11.303687 5.591617 128 128 255 0.108261 -0.109503 -0.988073
7.724378 -12.574748 5.852865 128 128 255 0.156941 -0.156790 -0.975083
8.194097 -13.357613 6.114073 128 128 255 0.288484 -0.286855 -0.913505
8.326852 -13.619557 6.375263 128 128 255 0.706995 -0.707170 0.008245
8.193583 -13.356755 6.636437 128 128 255 0.289147 -0.289694 0.912399
7.725373 -12.576406 6.897593 128 128 255 0.157262 -0.154467 0.975402
6.961048 -11.302531 7.158710 128 128 255 0.110757 -0.108455 0.987912
5.939204 -9.599459 7.419723 128 128 255 0.087463 -0.085407 0.992500
4.688598 -7.515115 7.680434 128 128 255 0.074594 -0.072753 0.994557
3.241747 -5.168794 7.940326 128 128 255 0.068476 -0.064260 0.995581
1.720324 -2.567992 8.198908 128 128 255 0.069118 -0.059191 0.995851
0.112206 0.087794 8.464622 128 128 255 0.401144 0.196218 -0.894752
-1.520506 2.768295 8.721202 128 128 255 -0.058571 0.063314 -0.996273
-3.041419 5.368246 8.984913 128 128 255 -0.065172 0.066845 -0.995633
-4.489976 7.717412 9.247315 128 128 255 -0.071797 0.074160 -0.994658
-5.736763 9.795390 9.508896 128 128 255 -0.084941 0.086776 -0.992600
-6.764024 11.507492 9.770176 128 128 255 -0.108338 0.109397 -0.988077
-7.522346 12.771362 10.031352 128 128 255 -0.157007 0.156685 -0.975089
-7.992205 13.554460 10.292489 128 128 255 -0.288406 0.285418 -0.913979
-8.127501 13.820639 10.553605 128 128 255 -0.708871 0.705329 0.003451
-7.993229 13.556167 10.814707 128 128 255 -0.288061 0.287492 0.913438
-7.522552 12.771705 11.075789 128 128 255 -0.157047 0.154486 0.975433
-6.762081 11.504253 11.336833 128 128 255 -0.110388 0.108804 0.987915
-5.738929 9.799000 11.597775 128 128 255 -0.086829 0.085479 0.992549
-4.488644 7.715192 11.858417 128 128 255 -0.073775 0.073050 0.994596
-3.041814 5.368906 12.118240 128 128 255 -0.067167 0.064757 0.995638
-1.520754 2.768708 12.376758 128 128 255 -0.066369 0.060316 0.995970
0.087794 0.112206 12.642409 128 128 255 -0.191330 -0.106716 -0.975707
1.721015 -2.569144 12.898932 128 128 255 0.061666 -0.062020 -0.996168
3.240755 -5.167140 13.162586 128 128 255 0.066719 -0.066126 -0.995578
4.690192 -7.517772 13.424940 128 128 255 0.072826 -0.073649 -0.994622
5.937012 -9.595805 13.686476 128 128 255 0.085806 -0.086402 -0.992558
6.963510 -11.306634 13.947718 128 128 255 0.108958 -0.109002 -0.988052
7.723760 -12.573718 14.208862 128 128 255 0.157537 -0.156748 -0.974993
8.190889 -13.352267 14.470105 128 128 255 0.289618 -0.286959 -0.913113
8.325517 -13.617332 14.731413 128 128 255 0.707900 -0.706287 0.005978
8.191509 -13.353300 14.992710 128 128 255 0.288162 -0.288825 0.912986
7.722146 -12.571028 15.253993 128 128 255 0.157076 -0.155367 0.975289
6.962665 -11.305227 15.515240 128 128 255 0.110262 -0.109154 0.987891
5.939023 -9.599157 15.776387 128 128 255 0.086776 -0.085693 0.992536
4.688650 -7.515202 16.037235 128 128 255 0.073850 -0.073151 0.994583
3.241086 -5.167691 16.297264 128 128 255 0.067474 -0.064773 0.995616
1.720990 -2.569102 16.555988 128 128 255 0.067341 -0.060059 0.995921
0.113829 0.085088 16.821558 128 128 255 0.061249 -0.064347 0.996046
0.087794 0.112206 -16.618982 128 128 255 -0.057467 0.061429 -0.996456
-1.252799 3.037101 -16.361279 128 128 255 -0.060955 0.063402 -0.996125
-2.515401 5.892940 -16.096491 128 128 255 -0.065476 0.067602 -0.995562
-3.726022 8.478191 -15.833121 128 128 255 -0.071624 0.074988 -0.994609
-4.768055 10.770664 -15.570567 128 128 255 -0.083760 0.087519 -0.992635
-5.595731 12.669666 -15.308308 128 128 255 -0.107409 0.110589 -0.988045
