ply
format ascii 1.0
element vertex 692
property float x
property float y
property float z
property uchar red
property uchar green
property uchar blue
property float nx
property float ny
property float nz
end_header
0.878018 1.018022 -0.547981 128 128 255 -0.722956 -0.499428 0.477396
0.933349 1.043967 -0.431424 128 128 255 -0.748250 -0.509501 0.424890
0.994022 1.046956 -0.314675 128 128 255 -0.775813 -0.509228 0.372560
1.058089 1.026893 -0.201480 128 128 255 -0.804760 -0.498620 0.322086
1.123497 0.984422 -0.095469 128 128 255 -0.834164 -0.478015 0.275086
1.188146 0.920905 -0.000042 128 128 255 -0.863081 -0.448075 0.233067
1.249965 0.838379 0.081740 128 128 255 -0.890584 -0.409760 0.197378
1.306969 0.739491 0.147254 128 128 255 -0.915790 -0.364299 0.169163
1.357330 0.627413 0.194398 128 128 255 -0.937891 -0.313150 0.149326
1.399434 0.505740 0.221661 128 128 255 -0.956178 -0.257953 0.138505
1.431929 0.378374 0.228168 128 128 255 -0.970065 -0.200480 0.137047
1.453774 0.249401 0.213710 128 128 255 -0.979106 -0.142573 0.144997
1.464268 0.122957 0.178751 128 128 255 -0.983011 -0.086090 0.162102
1.463073 0.003098 0.124412 128 128 255 -0.981656 -0.032842 0.187812
1.450230 -0.106332 0.052437 128 128 255 -0.975083 0.015462 0.221303
1.426148 -0.201823 -0.034867 128 128 255 -0.963503 0.057274 0.261501
1.391602 -0.280312 -0.134698 128 128 255 -0.947287 0.091252 0.307116
1.347698 -0.339281 -0.243856 128 128 255 -0.926957 0.116306 0.356685
1.295846 -0.376839 -0.358839 128 128 255 -0.903163 0.131634 0.408619
1.237707 -0.391782 -0.475958 128 128 255 -0.876669 0.136742 0.461251
1.175148 -0.383631 -0.591458 128 128 255 -0.848326 0.131468 0.512893
1.110174 -0.352646 -0.701633 128 128 255 -0.819041 0.115980 0.561891
1.044869 -0.299821 -0.802951 128 128 255 -0.789754 0.090776 0.606670
0.981329 -0.226851 -0.892160 128 128 255 -0.761405 0.056663 0.645796
0.921591 -0.136077 -0.966401 128 128 255 -0.734903 0.014736 0.678012
0.867571 -0.030409 -1.023291 128 128 255 -0.711097 -0.033660 0.702287
0.821002 0.086762 -1.061007 128 128 255 -0.690752 -0.086973 0.717842
0.783377 0.211680 -1.078337 128 128 255 -0.674520 -0.143494 0.724177
0.755904 0.340336 -1.074727 128 128 255 -0.662922 -0.201408 0.721089
0.739463 0.468605 -1.050292 128 128 255 -0.656329 -0.258860 0.708678
0.734582 0.592373 -1.005816 128 128 255 -0.654953 -0.314005 0.687341
0.741417 0.707669 -0.942726 128 128 255 -0.658839 -0.365076 0.657762
0.759750 0.810796 -0.863045 128 128 255 -0.667861 -0.410433 0.620892
0.788991 0.898445 -0.769328 128 128 255 -0.681730 -0.448623 0.577911
0.828204 0.967807 -0.664582 128 128 255 -0.700002 -0.478421 0.530199
0.876130 1.016655 -0.552167 128 128 255 -0.722090 -0.498870 0.479286
0.931233 1.043423 -0.435687 128 128 255 -0.747285 -0.509315 0.426806
0.991745 1.047252 -0.318879 128 128 255 -0.774781 -0.509420 0.374440
1.055724 1.028021 -0.205490 128 128 255 -0.803694 -0.499184 0.323869
1.121120 0.986345 -0.099157 128 128 255 -0.833098 -0.478932 0.276715
1.185834 0.923561 -0.003289 128 128 255 -0.862049 -0.449317 0.234491
1.247790 0.841683 0.079038 128 128 255 -0.889619 -0.411286 0.198550
1.305003 0.743337 0.145183 128 128 255 -0.914923 -0.366060 0.170046
1.355635 0.631678 0.193025 128 128 255 -0.937150 -0.315090 0.149892
1.398065 0.510287 0.221030 128 128 255 -0.955587 -0.260010 0.138736
1.430930 0.383057 0.228299 128 128 255 -0.969643 -0.202588 0.136934
1.453176 0.254070 0.214599 128 128 255 -0.978866 -0.144664 0.144546
1.464090 0.127462 0.180370 128 128 255 -0.982961 -0.088097 0.161325
1.463322 0.007294 0.126709 128 128 255 -0.981797 -0.034701 0.186735
1.450897 -0.102578 0.055337 128 128 255 -0.975411 0.013812 0.219961
1.427213 -0.198633 -0.031456 128 128 255 -0.964007 0.055884 0.259936
1.393029 -0.277787 -0.130886 128 128 255 -0.947952 0.090167 0.305379
1.349442 -0.337503 -0.239764 128 128 255 -0.927761 0.115562 0.354832
1.297851 -0.375865 -0.354599 128 128 255 -0.904080 0.131253 0.406708
1.239910 -0.391643 -0.471707 128 128 255 -0.877670 0.136738 0.459345
1.177477 -0.384331 -0.587331 128 128 255 -0.849378 0.131840 0.511053
1.112554 -0.354163 -0.697763 128 128 255 -0.820111 0.116717 0.560174
1.047225 -0.302106 -0.799461 128 128 255 -0.790808 0.091854 0.605133
0.983584 -0.229832 -0.889164 128 128 255 -0.762408 0.058048 0.644487
0.923673 -0.139656 -0.963994 128 128 255 -0.735824 0.016382 0.676975
0.869414 -0.034473 -1.021550 128 128 255 -0.711906 -0.031805 0.701554
0.822546 0.082344 -1.059987 128 128 255 -0.691423 -0.084968 0.717436
0.784573 0.207049 -1.078073 128 128 255 -0.675032 -0.141403 0.724111
0.756714 0.335642 -1.075226 128 128 255 -0.663257 -0.199300 0.721366
0.739860 0.463997 -1.051538 128 128 255 -0.656478 -0.256801 0.709288
0.734554 0.587999 -1.007770 128 128 255 -0.654911 -0.312061 0.688266
0.740965 0.703670 -0.945324 128 128 255 -0.658606 -0.363310 0.658972
0.758888 0.807300 -0.866204 128 128 255 -0.667446 -0.408902 0.622347
0.787747 0.895564 -0.772947 128 128 255 -0.681146 -0.447375 0.579565
0.826618 0.965633 -0.668545 128 128 255 -0.699267 -0.477496 0.531999
0.874253 1.015258 -0.556346 128 128 255 -0.721228 -0.498299 0.481174
0.929124 1.042848 -0.439949 128 128 255 -0.746324 -0.509115 0.428722
0.989472 1.047519 -0.323088 128 128 255 -0.773751 -0.509599 0.376322
1.053361 1.029119 -0.209510 128 128 255 -0.802629 -0.499734 0.325657
1.118742 0.988239 -0.102858 128 128 255 -0.832031 -0.479837 0.278352
1.183517 0.926191 -0.006554 128 128 255 -0.861015 -0.450547 0.235924
1.245610 0.844965 0.076314 128 128 255 -0.888651 -0.412802 0.199733
1.303028 0.747166 0.143088 128 128 255 -0.914053 -0.367814 0.170941
1.353929 0.635930 0.191626 128 128 255 -0.920792 -0.332067 0.204629
0.721503 -0.547313 -1.101589 128 128 255 -0.579307 0.222002 0.784295
0.629776 -0.398468 -1.211474 128 128 255 -0.578077 0.153753 0.801366
0.547744 -0.227542 -1.293319 128 128 255 -0.539628 0.071622 0.838852
0.478038 -0.040018 -1.344499 128 128 255 -0.507150 -0.018121 0.861667
0.422894 0.158089 -1.363373 128 128 255 -0.481687 -0.112598 0.869079
0.384081 0.360425 -1.349335 128 128 255 -0.464055 -0.208778 0.860851
0.362843 0.560501 -1.302836 128 128 255 -0.454819 -0.303575 0.837247
0.359862 0.751899 -1.225366 128 128 255 -0.454275 -0.393951 0.799022
0.375233 0.928480 -1.119411 128 128 255 -0.462442 -0.477005 0.747405
0.408464 1.084580 -0.988370 128 128 255 -0.479056 -0.550075 0.684049
0.458488 1.215193 -0.836444 128 128 255 -0.503586 -0.610816 0.610987
0.523701 1.316129 -0.668508 128 128 255 -0.535244 -0.657280 0.530563
0.602012 1.384151 -0.489947 128 128 255 -0.573015 -0.687976 0.445357
0.690908 1.417077 -0.306488 128 128 255 -0.615687 -0.701921 0.358100
0.787538 1.413851 -0.124017 128 128 255 -0.661893 -0.698667 0.271592
0.888803 1.374576 0.051614 128 128 255 -0.710149 -0.678319 0.188608
0.991456 1.300513 0.214772 128 128 255 -0.758908 -0.641528 0.111808
1.092202 1.194036 0.360225 128 128 255 -0.806606 -0.589475 0.043657
1.187812 1.058561 0.483305 128 128 255 -0.851713 -0.523830 -0.013659
1.275218 0.898433 0.580067 128 128 255 -0.892783 -0.446698 -0.058303
1.351617 0.718788 0.647406 128 128 255 -0.928498 -0.360553 -0.088842
1.414558 0.525389 0.683162 128 128 255 -0.957712 -0.268159 -0.104297
1.462023 0.324437 0.686189 128 128 255 -0.979490 -0.172478 -0.104172
1.492489 0.122380 0.656389 128 128 255 -0.993131 -0.076579 -0.088471
1.504980 -0.074303 0.594718 128 128 255 -0.998198 0.016461 -0.057698
1.499094 -0.259304 0.503155 128 128 255 -0.994530 0.103659 -0.012840
1.475020 -0.426687 0.384636 128 128 255 -0.982243 0.182217 0.044665
1.433530 -0.571085 0.242962 128 128 255 -0.961733 0.249616 0.112971
1.375956 -0.687866 0.082678 128 128 255 -0.933655 0.303694 0.189889
1.304143 -0.773284 -0.091075 128 128 255 -0.898912 0.342717 0.272951
1.220396 -0.824600 -0.272725 128 128 255 -0.858618 0.365432 0.359493
1.127400 -0.840168 -0.456444 128 128 255 -0.814064 0.371112 0.446739
1.028138 -0.819488 -0.636341 128 128 255 -0.766680 0.359574 0.531890
0.925794 -0.763224 -0.806645 128 128 255 -0.717987 0.331189 0.612217
0.823650 -0.673180 -0.961895 128 128 255 -0.669544 0.286866 0.685141
0.724983 -0.552244 -1.097109 128 128 255 -0.622908 0.228028 0.748325
0.632957 -0.404296 -1.207952 128 128 255 -0.579572 0.156561 0.799741
0.550525 -0.234081 -1.290868 128 128 255 -0.540927 0.074757 0.837740
0.480329 -0.047058 -1.343198 128 128 255 -0.508214 -0.014758 0.861105
0.424622 0.150775 -1.363263 128 128 255 -0.482480 -0.109115 0.869084
0.385190 0.353071 -1.350420 128 128 255 -0.464551 -0.205287 0.861423
0.363297 0.553342 -1.305081 128 128 255 -0.455003 -0.300189 0.838367
0.359648 0.745165 -1.228699 128 128 255 -0.454142 -0.390777 0.800655
0.374357 0.922387 -1.123725 128 128 255 -0.461994 -0.474146 0.749498
0.406954 1.079324 -0.993526 128 128 255 -0.478310 -0.547622 0.686535
0.456393 1.210942 -0.842278 128 128 255 -0.502564 -0.608847 0.613787
0.521087 1.313020 -0.674832 128 128 255 -0.533979 -0.655859 0.533587
0.598964 1.382283 -0.496558 128 128 255 -0.571548 -0.687150 0.448506
0.687523 1.416510 -0.313175 128 128 255 -0.614066 -0.701715 0.361276
0.783925 1.414603 -0.130565 128 128 255 -0.660168 -0.699087 0.274691
0.885078 1.376624 0.045415 128 128 255 -0.708376 -0.679352 0.191531
0.987738 1.303790 0.209122 128 128 255 -0.757144 -0.643141 0.114463
1.088611 1.198438 0.355303 128 128 255 -0.804908 -0.591617 0.045957
1.184462 1.063946 0.479271 128 128 255 -0.850136 -0.526431 -0.011788
1.272217 0.904628 0.577049 128 128 255 -0.891376 -0.449676 -0.056920
1.349062 0.725596 0.645501 128 128 255 -0.927307 -0.363812 -0.087992
1.412530 0.532589 0.682432 128 128 255 -0.956776 -0.271593 -0.104007
1.460588 0.331800 0.686656 128 128 255 -0.978837 -0.175978 -0.104451
1.491693 0.129669 0.658039 128 128 255 -0.992783 -0.080033 -0.089311
1.504847 -0.067321 0.597498 128 128 255 -0.998167 0.013164 -0.059071
1.499629 -0.252853 0.506976 128 128 255 -0.994816 0.100624 -0.014702
1.476206 -0.420975 0.389375 128 128 255 -0.982837 0.179543 0.042373
1.435330 -0.566294 0.248467 128 128 255 -0.962615 0.247387 0.110323
1.378311 -0.684150 0.088773 128 128 255 -0.934799 0.301983 0.186970
1.306978 -0.770763 -0.084586 128 128 255 -0.900280 0.341578 0.269854
1.223619 -0.823354 -0.266050 128 128 255 -0.860165 0.364902 0.356318
1.130909 -0.840237 -0.449798 128 128 255 -0.815742 0.371208 0.443587
1.031820 -0.820870 -0.629936 128 128 255 -0.768435 0.360293 0.528863
0.929530 -0.765875 -0.800687 128 128 255 -0.719762 0.332507 0.609411
0.827322 -0.677014 -0.956574 128 128 255 -0.671283 0.288741 0.682648
0.728472 -0.557139 -1.092597 128 128 255 -0.624554 0.230400 0.746223
0.636151 -0.410095 -1.204393 128 128 255 -0.581073 0.159354 0.798098
0.553321 -0.240597 -1.288377 128 128 255 -0.542235 0.077882 0.836609
0.482639 -0.054083 -1.341854 128 128 255 -0.509286 -0.011402 0.860522
0.426371 0.143466 -1.363109 128 128 255 -0.483283 -0.105635 0.869068
0.386322 0.345714 -1.351462 128 128 255 -0.465059 -0.201795 0.861974
0.363776 0.546172 -1.307284 128 128 255 -0.455199 -0.296797 0.839467
0.359458 0.738412 -1.231994 128 128 255 -0.454020 -0.387594 0.802270
0.373504 0.916268 -1.128006 128 128 255 -0.461558 -0.471274 0.751575
0.405466 1.074035 -0.998655 128 128 255 -0.477574 -0.545152 0.689008
0.454317 1.206653 -0.848091 128 128 255 -0.501551 -0.606860 0.616577
0.518491 1.309867 -0.681142 128 128 255 -0.532723 -0.654418 0.536603
0.595929 1.380369 -0.503163 128 128 255 -0.570088 -0.686301 0.451654
0.684148 1.415896 -0.319863 128 128 255 -0.612449 -0.701485 0.364452
0.780319 1.415308 -0.137122 128 128 255 -0.658446 -0.699485 0.277795
0.881355 1.378626 0.039200 128 128 255 -0.706605 -0.680363 0.194463
0.984018 1.307024 0.203448 128 128 255 -0.755380 -0.644734 0.117128
1.085013 1.202801 0.350352 128 128 255 -0.803207 -0.593740 0.048271
1.181102 1.069298 0.475202 128 128 255 -0.848553 -0.529017 -0.009899
1.269202 0.910798 0.573992 128 128 255 -0.889963 -0.452641 -0.055518
1.346489 0.732384 0.643555 128 128 255 -0.926108 -0.367061 -0.087121
1.410482 0.539780 0.681658 128 128 255 -0.955829 -0.275023 -0.103695
1.459130 0.339162 0.687080 128 128 255 -0.978174 -0.179478 -0.104709
1.490872 0.136965 0.659647 128 128 255 -0.992424 -0.083491 -0.090130
1.504690 -0.060324 0.600239 128 128 255 -0.998124 0.009859 -0.060425
1.500140 -0.246379 0.510761 128 128 255 -0.995090 0.097578 -0.016547
1.477370 -0.415232 0.394083 128 128 255 -0.983420 0.176853 0.040096
1.437108 -0.561467 0.253948 128 128 255 -0.963488 0.245141 0.107687
1.380647 -0.680394 0.094850 128 128 255 -0.935933 0.300252 0.184059
1.309797 -0.768197 -0.078108 128 128 255 -0.901640 0.340417 0.266762
1.226830 -0.822061 -0.259378 128 128 255 -0.861707 0.364349 0.353144
1.134409 -0.840259 -0.443146 128 128 255 -0.817416 0.371281 0.440433
1.035497 -0.822205 -0.623518 128 128 255 -0.770188 0.360989 0.525830
0.933267 -0.768481 -0.794709 128 128 255 -0.721537 0.333804 0.606597
0.830998 -0.680808 -0.951227 128 128 255 -0.673024 0.290597 0.680141
0.731969 -0.561999 -1.088053 128 128 255 -0.626204 0.232756 0.744105
0.639358 -0.415864 -1.200797 128 128 255 -0.582580 0.162134 0.796438
0.556135 -0.247091 -1.285845 128 128 255 -0.543551 0.080998 0.835459
0.484968 -0.061093 -1.340467 128 128 255 -0.510368 -0.008052 0.859918
0.428141 0.136164 -1.362912 128 128 255 -0.484096 -0.102157 0.869031
0.387477 0.338354 -1.352460 128 128 255 -0.465578 -0.198301 0.862505
0.364279 0.538991 -1.309446 128 128 255 -0.455407 -0.293399 0.840548
0.359292 0.731640 -1.235251 128 128 255 -0.453909 -0.384401 0.803867
0.372676 0.910122 -1.132253 128 128 255 -0.461134 -0.468388 0.753637
0.404001 1.068712 -1.003756 128 128 255 -0.476848 -0.542667 0.691469
0.452262 1.202324 -0.853881 128 128 255 -0.500548 -0.604854 0.619357
0.515912 1.306672 -0.687437 128 128 255 -0.531475 -0.652956 0.539614
0.592910 1.378408 -0.509761 128 128 255 -0.568635 -0.685430 0.454798
0.680785 1.415233 -0.326552 128 128 255 -0.610837 -0.701233 0.367629
0.776718 1.415965 -0.143687 128 128 255 -0.656727 -0.699859 0.280904
0.877634 1.380581 0.032969 128 128 255 -0.704834 -0.681353 0.197403
0.980295 1.310215 0.197751 128 128 255 -0.753614 -0.646307 0.119805
1.081409 1.207125 0.345372 128 128 255 -0.801503 -0.595846 0.050599
1.177731 1.074617 0.471098 128 128 255 -0.846965 -0.531588 -0.007995
1.266173 0.916941 0.570897 128 128 255 -0.888542 -0.455594 -0.054098
1.343899 0.739154 0.641566 128 128 255 -0.924900 -0.370302 -0.086231
1.408414 0.546960 0.680841 128 128 255 -0.954873 -0.278448 -0.103364
1.457650 0.346521 0.687460 128 128 255 -0.977500 -0.182978 -0.104947
1.490028 0.144268 0.661213 128 128 255 -0.992054 -0.086952 -0.090929
1.504508 -0.053312 0.602939 128 128 255 -0.998070 0.006547 -0.061760
1.500628 -0.239883 0.514510 128 128 255 -0.995353 0.094521 -0.018376
1.478510 -0.409460 0.398760 128 128 255 -0.983992 0.174150 0.037833
1.438864 -0.556604 0.259403 128 128 255 -0.964351 0.242878 0.105062
1.382963 -0.676596 0.100908 128 128 255 -0.937059 0.298501 0.181157
1.312599 -0.765586 -0.071641 128 128 255 -0.902992 0.339235 0.263675
1.230029 -0.820721 -0.252710 128 128 255 -0.863243 0.363774 0.349971
1.137901 -0.840232 -0.436490 128 128 255 -0.819087 0.371331 0.437276
1.039170 -0.823493 -0.617088 128 128 255 -0.771939 0.361662 0.522791
0.937004 -0.771042 -0.788711 128 128 255 -0.723312 0.335079 0.603772
0.834678 -0.684560 -0.945854 128 128 255 -0.674767 0.292434 0.677622
0.735475 -0.566822 -1.083476 128 128 255 -0.627859 0.235095 0.741973
0.642577 -0.421603 -1.197165 128 128 255 -0.584094 0.164900 0.794759
0.558964 -0.253562 -1.283272 128 128 255 -0.544874 0.084102 0.834289
0.487316 -0.068088 -1.339037 128 128 255 -0.511459 -0.004709 0.859295
0.429934 0.128869 -1.362671 128 128 255 -0.484920 -0.098683 0.868973
0.388655 0.330992 -1.353415 128 128 255 -0.466107 -0.194806 0.863015
0.364806 0.531800 -1.311568 128 128 255 -0.455626 -0.289996 0.841610
0.359151 0.724849 -1.238469 128 128 255 -0.453810 -0.381199 0.805446
0.371871 0.903950 -1.136466 128 128 255 -0.460720 -0.465490 0.755683
0.402558 1.063356 -1.008828 128 128 255 -0.476133 -0.540165 0.693915
0.450227 1.197956 -0.859650 128 128 255 -0.499555 -0.602830 0.622126
0.513351 1.303432 -0.693717 128 128 255 -0.530235 -0.651474 0.542617
0.589904 1.376401 -0.516352 128 128 255 -0.567188 -0.684536 0.457939
0.677431 1.414523 -0.333242 128 128 255 -0.609229 -0.700958 0.370807
0.773125 1.416575 -0.150260 128 128 255 -0.655011 -0.700211 0.284016
0.873916 1.382490 0.026723 128 128 255 -0.703064 -0.682320 0.200350
0.976571 1.313363 0.192031 128 128 255 -0.751847 -0.647859 0.122493
1.077798 1.211411 0.340363 128 128 255 -0.799796 -0.597933 0.052942
1.174350 1.079903 0.466960 128 128 255 -0.845372 -0.534143 -0.006073
1.263130 0.923057 0.567762 128 128 255 -0.887115 -0.458535 -0.052659
1.341291 0.745905 0.639537 128 128 255 -0.923684 -0.373535 -0.085321
1.406325 0.554128 0.679981 128 128 255 -0.953907 -0.281869 -0.103012
1.456148 0.353878 0.687797 128 128 255 -0.976815 -0.186476 -0.105164
1.489160 0.151577 0.662736 128 128 255 -0.991673 -0.090417 -0.091708
1.504303 -0.046286 0.605600 128 128 255 -0.998003 0.003227 -0.063076
1.501091 -0.233364 0.518222 128 128 255 -0.995605 0.091453 -0.020187
1.479627 -0.403658 0.403406 128 128 255 -0.984553 0.171432 0.035585
1.440600 -0.551705 0.264832 128 128 255 -0.965203 0.240597 0.102449
1.385261 -0.672756 0.106947 128 128 255 -0.938176 0.296730 0.178263
1.315385 -0.762930 -0.065185 128 128 255 -0.904337 0.338032 0.260593
1.233215 -0.819333 -0.246045 128 128 255 -0.864773 0.363177 0.346800
1.141384 -0.840157 -0.429830 128 128 255 -0.820753 0.371358 0.434117
1.042839 -0.824734 -0.610646 128 128 255 -0.773688 0.362314 0.519746
0.940740 -0.773558 -0.782694 128 128 255 -0.725088 0.336334 0.600938
0.838362 -0.688271 -0.940455 128 128 255 -0.676512 0.294251 0.675091
0.738989 -0.571608 -1.078869 128 128 255 -0.629518 0.237417 0.739825
0.645809 -0.427312 -1.193496 128 128 255 -0.585613 0.167652 0.793064
0.561809 -0.260010 -1.280660 128 128 255 -0.546205 0.087196 0.833101
0.489684 -0.075069 -1.337565 128 128 255 -0.512559 -0.001372 0.858651
0.431747 0.121580 -1.362387 128 128 255 -0.485753 -0.095210 0.868895
0.389857 0.323629 -1.354328 128 128 255 -0.466648 -0.191310 0.863505
0.365357 0.524598 -1.313647 128 128 255 -0.455856 -0.286587 0.842652
0.359034 0.718040 -1.241650 128 128 255 -0.453723 -0.377988 0.807007
0.371089 0.897751 -1.140645 128 128 255 -0.460318 -0.462579 0.757713
0.401137 1.057968 -1.013872 128 128 255 -0.475429 -0.537648 0.696349
0.448213 1.193550 -0.865397 128 128 255 -0.498571 -0.600787 0.624886
0.510808 1.300150 -0.699983 128 128 255 -0.529003 -0.649970 0.545614
0.586913 1.374349 -0.522934 128 128 255 -0.565748 -0.683621 0.461077
0.674089 1.413765 -0.339931 128 128 255 -0.607627 -0.700660 0.373985
0.769538 1.417136 -0.156842 128 128 255 -0.653298 -0.700540 0.287133
0.870199 1.384353 0.020460 128 128 255 -0.701295 -0.683266 0.203306
0.972844 1.316467 0.186289 128 128 255 -0.750079 -0.649391 0.125192
1.074181 1.215657 0.335325 128 128 255 -0.798085 -0.600001 0.055298
1.170958 1.085155 0.462788 128 128 255 -0.843774 -0.536682 -0.004135
1.260073 0.929147 0.564590 128 128 255 -0.885680 -0.461464 -0.051202
1.338666 0.752637 0.637465 128 128 255 -0.922459 -0.376759 -0.084391
1.404217 0.561286 0.679077 128 128 255 -0.952931 -0.285284 -0.102639
1.454623 0.361232 0.688091 128 128 255 -0.976119 -0.189974 -0.105360
1.488268 0.158892 0.664216 128 128 255 -0.991280 -0.093885 -0.092467
1.504072 -0.039245 0.608220 128 128 255 -0.997926 -0.000100 -0.064374
1.501529 -0.226823 0.521899 128 128 255 -0.995845 0.088375 -0.021981
1.480720 -0.397826 0.408020 128 128 255 -0.985103 0.168699 0.033351
1.442313 -0.546770 0.270237 128 128 255 -0.966046 0.238299 0.099848
1.387539 -0.668876 0.112968 128 128 255 -0.939283 0.294940 0.175377
1.318156 -0.760229 -0.058741 128 128 255 -0.905675 0.336807 0.257516
1.236388 -0.817899 -0.239384 128 128 255 -0.866298 0.362556 0.343630
1.144858 -0.840035 -0.423166 128 128 255 -0.822415 0.371362 0.430956
1.046503 -0.825927 -0.604193 128 128 255 -0.775435 0.362942 0.516695
0.944476 -0.776029 -0.776658 128 128 255 -0.726864 0.337567 0.598095
0.842051 -0.691940 -0.935030 128 128 255 -0.678259 0.296049 0.672547
0.742512 -0.576358 -1.074229 128 128 255 -0.631181 0.239721 0.737661
0.649052 -0.432990 -1.189790 128 128 255 -0.587138 0.170390 0.791351
0.564669 -0.266435 -1.278007 128 128 255 -0.547544 0.090279 0.831893
0.492069 -0.082034 -1.336051 128 128 255 -0.513668 0.001957 0.857987
0.433582 0.114299 -1.362059 128 128 255 -0.486597 -0.091741 0.868796
0.391082 0.316264 -1.355197 128 128 255 -0.467200 -0.187812 0.863974
0.365933 0.517386 -1.315685 128 128 255 -0.456098 -0.283174 0.843675
0.358941 0.711213 -1.244792 128 128 255 -0.453647 -0.374767 0.808550
0.370332 0.891527 -1.144790 128 128 255 -0.459927 -0.459655 0.759726
0.399739 1.052547 -1.018887 128 128 255 -0.474735 -0.535114 0.698770
0.446220 1.189106 -0.871121 128 128 255 -0.497597 -0.598725 0.627635
0.508282 1.296825 -0.706233 128 128 255 -0.527780 -0.648446 0.548604
0.583937 1.372249 -0.529510 128 128 255 -0.564315 -0.682684 0.464211
0.670757 1.412959 -0.346620 128 128 255 -0.606030 -0.700339 0.377164
0.765958 1.417650 -0.163431 128 128 255 -0.651588 -0.700847 0.290254
0.866486 1.386169 0.014183 128 128 255 -0.699527 -0.684189 0.206268
0.969116 1.319528 0.180524 128 128 255 -0.748310 -0.650902 0.127902
1.070558 1.219864 0.330258 128 128 255 -0.796372 -0.602052 0.057668
1.167556 1.090373 0.458582 128 128 255 -0.842171 -0.539206 -0.002181
1.257001 0.935209 0.561379 128 128 255 -0.884239 -0.464380 -0.049726
1.336023 0.759348 0.635353 128 128 255 -0.921226 -0.379974 -0.083441
1.402088 0.568432 0.678131 128 128 255 -0.951946 -0.288695 -0.102245
1.453076 0.368583 0.688340 128 128 255 -0.975413 -0.193471 -0.105535
1.487352 0.166212 0.665655 128 128 255 -0.990876 -0.097356 -0.093206
1.503818 -0.032190 0.610801 128 128 255 -0.997837 -0.003433 -0.065652
1.501944 -0.220260 0.525539 128 128 255 -0.996073 0.085285 -0.023758
1.481791 -0.391966 0.412602 128 128 255 -0.985642 0.165953 0.031132
1.444005 -0.541799 0.275615 128 128 255 -0.966878 0.235983 0.097259
1.389798 -0.664956 0.118970 128 128 255 -0.940382 0.293130 0.172501
1.320909 -0.757484 -0.052309 128 128 255 -0.907004 0.335561 0.254445
1.239548 -0.816417 -0.232727 128 128 255 -0.867816 0.361914 0.340461
1.148323 -0.839864 -0.416498 128 128 255 -0.824073 0.371344 0.427793
1.050162 -0.827073 -0.597728 128 128 255 -0.777180 0.363549 0.513638
0.948212 -0.778455 -0.770604 128 128 255 -0.728639 0.338778 0.595243
0.845743 -0.695568 -0.929580 128 128 255 -0.680009 0.297827 0.669990
0.746042 -0.581072 -1.069558 128 128 255 -0.632848 0.242009 0.735483
0.652308 -0.438638 -1.186049 128 128 255 -0.588669 0.173113 0.789620
0.567545 -0.272836 -1.275315 128 128 255 -0.548890 0.093351 0.830665
0.494474 -0.088983 -1.334494 128 128 255 -0.514786 0.005280 0.857302
0.435438 0.107024 -1.361687 128 128 255 -0.487452 -0.088275 0.868676
0.392329 0.308898 -1.356022 128 128 255 -0.467763 -0.184314 0.864423
0.366532 0.510165 -1.317682 128 128 255 -0.456351 -0.279755 0.844678
0.358873 0.704367 -1.247895 128 128 255 -0.453583 -0.371538 0.810075
0.369598 0.885278 -1.148900 128 128 255 -0.459547 -0.456719 0.761724
0.398364 1.047093 -1.023873 128 128 255 -0.474052 -0.532566 0.701176
0.444246 1.184623 -0.876823 128 128 255 -0.496633 -0.596645 0.630373
0.505775 1.293457 -0.712467 128 128 255 -0.526565 -0.646902 0.551586
0.580976 1.370104 -0.536076 128 128 255 -0.562888 -0.681725 0.467342
0.667437 1.412106 -0.353309 128 128 255 -0.604438 -0.699996 0.380342
0.762385 1.418115 -0.170027 128 128 255 -0.649881 -0.701130 0.293378
0.862775 1.387939 0.007891 128 128 255 -0.697760 -0.685091 0.209239
0.965387 1.322545 0.174738 128 128 255 -0.746540 -0.652392 0.130623
1.066929 1.224031 0.325163 128 128 255 -0.794655 -0.604083 0.060052
1.164145 1.095557 0.454342 128 128 255 -0.840563 -0.541713 -0.000211
1.253916 0.941244 0.558130 128 128 255 -0.882791 -0.467283 -0.048232
1.333364 0.766040 0.633199 128 128 255 -0.919985 -0.383179 -0.082472
1.399939 0.575566 0.677141 128 128 255 -0.950951 -0.292100 -0.101831
1.451507 0.375931 0.688547 128 128 255 -0.974697 -0.196967 -0.105690
1.486414 0.173538 0.667050 128 128 255 -0.990460 -0.100830 -0.093924
1.503539 -0.025121 0.613341 128 128 255 -0.997736 -0.006774 -0.066912
1.502334 -0.213675 0.529142 128 128 255 -0.996290 0.082184 -0.025518
1.482838 -0.386076 0.417153 128 128 255 -0.986170 0.163192 0.028928
1.445675 -0.536794 0.280967 128 128 255 -0.967700 0.233651 0.094682
1.392038 -0.660994 0.124952 128 128 255 -0.941471 0.291301 0.169633
1.323646 -0.754694 -0.045889 128 128 255 -0.908327 0.334293 0.251378
1.242695 -0.814888 -0.226075 128 128 255 -0.869328 0.361249 0.337295
1.151779 -0.839645 -0.409827 128 128 255 -0.825728 0.371302 0.424628
1.053816 -0.828171 -0.591252 128 128 255 -0.778923 0.364132 0.510575
0.951947 -0.780835 -0.764531 128 128 255 -0.730415 0.339968 0.592381
0.849439 -0.699154 -0.924105 128 128 255 -0.681760 0.299585 0.667422
0.749581 -0.585748 -1.064857 128 128 255 -0.634519 0.244279 0.733290
0.655575 -0.444255 -1.182271 128 128 255 -0.590206 0.175823 0.787872
0.570437 -0.279213 -1.272583 128 128 255 -0.550244 0.096412 0.829419
0.496897 -0.095915 -1.332894 128 128 255 -0.515913 0.008595 0.856598
0.437314 0.099758 -1.361272 128 128 255 -0.488316 -0.084813 0.868536
0.393600 0.301532 -1.356805 128 128 255 -0.468337 -0.180815 0.864851
0.367155 0.502934 -1.319637 128 128 255 -0.456616 -0.276332 0.845661
0.358829 0.697504 -1.250960 128 128 255 -0.453531 -0.368300 0.811582
0.368889 0.879003 -1.152977 128 128 255 -0.459179 -0.453771 0.763706
0.397011 1.041607 -1.028830 128 128 255 -0.473380 -0.530001 0.703570
0.442294 1.180103 -0.882502 128 128 255 -0.495678 -0.594547 0.633102
0.503286 1.290047 -0.718685 128 128 255 -0.525358 -0.645337 0.554561
0.578029 1.367913 -0.542635 128 128 255 -0.561469 -0.680744 0.470469
0.664128 1.411205 -0.359997 128 128 255 -0.602851 -0.699630 0.383521
0.758819 1.418533 -0.176631 128 128 255 -0.648177 -0.701391 0.296507
0.859067 1.389662 0.001584 128 128 255 -0.695995 -0.685971 0.212216
0.961656 1.325518 0.168930 128 128 255 -0.744769 -0.653862 0.133354
1.063294 1.228159 0.320040 128 128 255 -0.792936 -0.606096 0.062449
1.160723 1.100707 0.450068 128 128 255 -0.838950 -0.544205 0.001776
1.250817 0.947251 0.554843 128 128 255 -0.881337 -0.470173 -0.046720
1.330687 0.772712 0.631003 128 128 255 -0.905437 -0.423912 -0.021958
0.362361 -0.906622 -1.220312 128 128 255 -0.395696 0.375035 0.838316
0.238401 -0.705472 -1.368810 128 128 255 -0.392945 0.296215 0.870547
0.127543 -0.474483 -1.479416 128 128 255 -0.341244 0.186534 0.921281
0.033343 -0.221064 -1.548581 128 128 255 -0.297501 0.066554 0.952399
-0.041179 0.046658 -1.574087 128 128 255 -0.263118 -0.059875 0.962904
-0.093631 0.320094 -1.555116 128 128 255 -0.239199 -0.188699 0.952458
-0.122332 0.590476 -1.492277 128 128 255 -0.226510 -0.315786 0.921397
-0.126360 0.849131 -1.387585 128 128 255 -0.225459 -0.437059 0.870717
-0.105587 1.087762 -1.244398 128 128 255 -0.236079 -0.548630 0.802042
-0.060679 1.298715 -1.067308 128 128 255 -0.258030 -0.646918 0.717577
0.006923 1.475225 -0.861996 128 128 255 -0.290608 -0.728773 0.620030
0.095052 1.611630 -0.635047 128 128 255 -0.332767 -0.791567 0.512530
0.200881 1.703555 -0.393740 128 128 255 -0.383156 -0.833288 0.398525
0.321015 1.748051 -0.145815 128 128 255 -0.440158 -0.852598 0.281671
0.451601 1.743691 0.100776 128 128 255 -0.501945 -0.848875 0.165717
0.588450 1.690616 0.338124 128 128 255 -0.566535 -0.822241 0.054381
0.727174 1.590526 0.558616 128 128 255 -0.631857 -0.773549 -0.048765
0.863323 1.446634 0.755179 128 128 255 -0.695815 -0.704362 -0.140412
0.992530 1.263553 0.921510 128 128 255 -0.756358 -0.616898 -0.217623
1.110650 1.047157 1.052274 128 128 255 -0.811544 -0.513962 -0.277919
1.213895 0.804385 1.143275 128 128 255 -0.859604 -0.398857 -0.319367
1.298954 0.543025 1.191596 128 128 255 -0.898994 -0.275274 -0.340637
1.363098 0.271460 1.195686 128 128 255 -0.928453 -0.147176 -0.341048
1.404270 -0.001600 1.155415 128 128 255 -0.947035 -0.018674 -0.320587
1.421150 -0.267397 1.072073 128 128 255 -0.954144 0.106112 -0.279908
1.413195 -0.517406 0.948335 128 128 255 -0.949553 0.223180 -0.220318
1.380662 -0.743607 0.788169 128 128 255 -0.933408 0.328774 -0.143727
1.324593 -0.938746 0.596711 128 128 255 -0.906227 0.419507 -0.052593
1.246787 -1.096564 0.380104 128 128 255 -0.868883 0.492470 0.050163
1.149740 -1.211998 0.145294 128 128 255 -0.822572 0.545322 0.161243
1.036564 -1.281346 -0.100187 128 128 255 -0.768781 0.576368 0.277086
0.910889 -1.302384 -0.348465 128 128 255 -0.709234 0.584612 0.393975
0.776747 -1.274438 -0.591577 128 128 255 -0.645842 0.569789 0.508162
0.638439 -1.198402 -0.821726 128 128 255 -0.580637 0.532376 0.615984
0.500402 -1.076717 -1.031530 128 128 255 -0.515712 0.473572 0.713982
0.367064 -0.913285 -1.214258 128 128 255 -0.453149 0.395263 0.799014
0.242700 -0.713349 -1.364051 128 128 255 -0.394954 0.299961 0.868352
0.131301 -0.483320 -1.476104 128 128 255 -0.342993 0.190723 0.919772
0.036439 -0.230577 -1.546822 128 128 255 -0.298934 0.071052 0.951625
-0.038844 0.036773 -1.573938 128 128 255 -0.264190 -0.055212 0.962889
-0.092132 0.310156 -1.556582 128 128 255 -0.239875 -0.184022 0.953203
-0.121717 0.580802 -1.495310 128 128 255 -0.226769 -0.311244 0.922878
-0.126650 0.840031 -1.392089 128 128 255 -0.225292 -0.432798 0.872886
-0.106771 1.079529 -1.250227 128 128 255 -0.235492 -0.544786 0.804830
-0.062720 1.291613 -1.074277 128 128 255 -0.257041 -0.643616 0.720894
0.004091 1.469481 -0.869880 128 128 255 -0.289249 -0.726117 0.623770
0.091520 1.607429 -0.643594 128 128 255 -0.331081 -0.789644 0.516573
0.196761 1.701031 -0.402675 128 128 255 -0.381198 -0.832158 0.402741
0.316440 1.747285 -0.154852 128 128 255 -0.437991 -0.852297 0.285925
0.446718 1.744708 0.091927 128 128 255 -0.499638 -0.849415 0.169873
0.583416 1.693383 0.329747 128 128 255 -0.564162 -0.823603 0.058306
0.722150 1.594955 0.550979 128 128 255 -0.629494 -0.775690 -0.045198
0.858470 1.452582 0.748528 128 128 255 -0.693538 -0.707212 -0.137317
0.988003 1.270830 0.916058 128 128 255 -0.754240 -0.620366 -0.215099
1.106595 1.055529 1.048195 128 128 255 -0.809653 -0.517938 -0.276047
1.210442 0.813585 1.140701 128 128 255 -0.858000 -0.403213 -0.318207
1.296214 0.552756 1.190609 128 128 255 -0.897730 -0.279869 -0.340227
1.361159 0.281411 1.196318 128 128 255 -0.927568 -0.151865 -0.341401
1.403193 0.008251 1.157645 128 128 255 -0.946558 -0.023305 -0.321690
1.420970 -0.257962 1.075830 128 128 255 -0.954091 0.101688 -0.281728
1.413919 -0.508689 0.953498 128 128 255 -0.949924 0.219104 -0.222795
1.382265 -0.735888 0.794573 128 128 255 -0.934192 0.325177 -0.146782
1.327025 -0.932272 0.604151 128 128 255 -0.907400 0.416504 -0.056128
1.249969 -1.091543 0.388340 128 128 255 -0.870405 0.490158 0.046261
1.153571 -1.208591 0.154063 128 128 255 -0.824396 0.543774 0.157100
1.040920 -1.279663 -0.091167 128 128 255 -0.770848 0.575635 0.272834
0.915631 -1.302478 -0.339483 128 128 255 -0.711478 0.584716 0.389751
0.781722 -1.276306 -0.582921 128 128 255 -0.648190 0.570729 0.504101
0.643489 -1.201985 -0.813674 128 128 255 -0.583015 0.534120 0.612216
0.505364 -1.081899 -1.024339 128 128 255 -0.518043 0.476064 0.710629
0.371778 -0.919901 -1.208160 128 128 255 -0.455358 0.398424 0.796183
0.247017 -0.721185 -1.359241 128 128 255 -0.396970 0.303690 0.866133
0.135081 -0.492126 -1.472737 128 128 255 -0.344753 0.194899 0.918237
0.039561 -0.240071 -1.545006 128 128 255 -0.300380 0.075542 0.950823
-0.036480 0.026897 -1.573730 128 128 255 -0.265276 -0.050553 0.962846
-0.090602 0.300213 -1.557990 128 128 255 -0.240566 -0.179342 0.953920
-0.121070 0.571112 -1.498288 128 128 255 -0.227043 -0.306694 0.924332
-0.126906 0.830905 -1.396541 128 128 255 -0.225140 -0.428525 0.875031
-0.107924 1.071259 -1.256012 128 128 255 -0.234919 -0.540925 0.807597
-0.064731 1.284465 -1.081208 128 128 255 -0.256066 -0.640292 0.724194
0.001287 1.463684 -0.877735 128 128 255 -0.287902 -0.723436 0.627497
0.088011 1.603168 -0.652121 128 128 255 -0.329407 -0.787692 0.520607
0.192661 1.698444 -0.411601 128 128 255 -0.379249 -0.830999 0.406954
0.311880 1.746455 -0.163890 128 128 255 -0.435830 -0.851967 0.290181
0.441844 1.745661 0.083066 128 128 255 -0.497334 -0.849924 0.174035
0.578385 1.696088 0.321348 128 128 255 -0.561790 -0.824935 0.062241
0.717122 1.599326 0.543311 128 128 255 -0.627129 -0.777803 -0.041616
0.853607 1.458479 0.741838 128 128 255 -0.691256 -0.710038 -0.134203
0.983462 1.278063 0.910559 128 128 255 -0.752115 -0.623815 -0.212553
1.102521 1.063867 1.044064 128 128 255 -0.807752 -0.521898 -0.274151
1.206966 0.822759 1.138071 128 128 255 -0.856385 -0.407557 -0.317021
1.293446 0.562474 1.189564 128 128 255 -0.896452 -0.284459 -0.339790
1.359189 0.291359 1.196891 128 128 255 -0.926669 -0.156552 -0.341726
1.402085 0.018111 1.159818 128 128 255 -0.946066 -0.027940 -0.322767
1.420758 -0.248506 1.079534 128 128 255 -0.954021 0.097254 -0.283522
1.414610 -0.499940 0.958613 128 128 255 -0.950280 0.215012 -0.225250
1.383837 -0.728128 0.800935 128 128 255 -0.934962 0.321560 -0.149818
1.329428 -0.925749 0.611557 128 128 255 -0.908558 0.413478 -0.059647
1.253126 -1.086466 0.396552 128 128 255 -0.871916 0.487819 0.042370
1.157380 -1.205123 0.162817 128 128 255 -0.826210 0.542198 0.152963
1.045259 -1.277915 -0.082150 128 128 255 -0.772907 0.574871 0.268584
0.920361 -1.302507 -0.330494 128 128 255 -0.713716 0.584791 0.385524
0.786692 -1.278110 -0.574248 128 128 255 -0.650536 0.571638 0.500032
0.648538 -1.205507 -0.805595 128 128 255 -0.585394 0.535836 0.608436
0.510332 -1.087026 -1.017113 128 128 255 -0.520377 0.478531 0.707259
0.376505 -0.926467 -1.202019 128 128 255 -0.457573 0.401563 0.793331
0.251350 -0.728981 -1.354382 128 128 255 -0.398996 0.307399 0.863891
0.138882 -0.500902 -1.469315 128 128 255 -0.346523 0.199061 0.916677
0.042708 -0.249545 -1.543131 128 128 255 -0.301839 0.080022 0.949995
-0.034087 0.017029 -1.573464 128 128 255 -0.266376 -0.045898 0.962776
-0.089041 0.290267 -1.559339 128 128 255 -0.241272 -0.174661 0.954611
-0.120391 0.561408 -1.501211 128 128 255 -0.227333 -0.302138 0.925761
-0.127130 0.821753 -1.400943 128 128 255 -0.225004 -0.424238 0.877152
-0.109044 1.062953 -1.261751 128 128 255 -0.234361 -0.537047 0.810342
-0.066711 1.277272 -1.088101 128 128 255 -0.255105 -0.636946 0.727476
-0.001491 1.457834 -0.885561 128 128 255 -0.286568 -0.720730 0.631210
0.084526 1.598849 -0.660628 128 128 255 -0.327743 -0.785713 0.524633
0.188580 1.695794 -0.420517 128 128 255 -0.377309 -0.829810 0.411162
0.307334 1.745560 -0.172929 128 128 255 -0.433675 -0.851606 0.294437
0.436979 1.746549 0.074194 128 128 255 -0.495034 -0.850403 0.178203
0.573356 1.698731 0.312927 128 128 255 -0.559419 -0.826239 0.066187
0.712092 1.603639 0.535613 128 128 255 -0.624763 -0.779889 -0.038019
0.848736 1.464323 0.735108 128 128 255 -0.688970 -0.712840 -0.131071
0.978907 1.285251 0.905014 128 128 255 -0.749983 -0.627242 -0.209984
1.098427 1.072168 1.039881 128 128 255 -0.805843 -0.525841 -0.272229
1.203465 0.831908 1.135384 128 128 255 -0.854758 -0.411890 -0.315809
1.290651 0.572176 1.188460 128 128 255 -0.895161 -0.289042 -0.339325
1.357188 0.301304 1.197405 128 128 255 -0.925755 -0.161239 -0.342023
1.400944 0.027980 1.161934 128 128 255 -0.945558 -0.032580 -0.323817
1.420513 -0.239030 1.083183 128 128 255 -0.953937 0.092809 -0.285291
1.415268 -0.491161 0.963680 128 128 255 -0.950621 0.210906 -0.227681
1.385378 -0.720327 0.807256 128 128 255 -0.935717 0.317924 -0.152834
1.331802 -0.919177 0.618929 128 128 255 -0.909703 0.410428 -0.063151
1.256257 -1.081333 0.404739 128 128 255 -0.873415 0.485454 0.038491
1.161167 -1.201595 0.171557 128 128 255 -0.828014 0.540593 0.148833
1.049582 -1.276104 -0.073139 128 128 255 -0.774959 0.574078 0.264335
0.925080 -1.302471 -0.321499 128 128 255 -0.715950 0.584835 0.381293
0.791656 -1.279851 -0.565559 128 128 255 -0.652880 0.572518 0.495955
0.653588 -1.208968 -0.797489 128 128 255 -0.587772 0.537522 0.604643
0.515305 -1.092097 -1.009852 128 128 255 -0.522714 0.480971 0.703872
0.381243 -0.932985 -1.195835 128 128 255 -0.459794 0.404678 0.790459
0.255701 -0.736737 -1.349473 128 128 255 -0.401029 0.311090 0.861626
0.142706 -0.509647 -1.465839 128 128 255 -0.348303 0.203208 0.915091
0.045882 -0.258998 -1.541199 128 128 255 -0.303309 0.084494 0.949139
-0.031665 0.007169 -1.573138 128 128 255 -0.267490 -0.041246 0.962678
-0.087449 0.280319 -1.560630 128 128 255 -0.241993 -0.169978 0.955273
-0.119678 0.551689 -1.504077 128 128 255 -0.227637 -0.297574 0.927163
-0.127321 0.812576 -1.405292 128 128 255 -0.224883 -0.419940 0.879249
-0.110132 1.054612 -1.267445 128 128 255 -0.233819 -0.533152 0.813067
-0.068661 1.270034 -1.094955 128 128 255 -0.254158 -0.633579 0.730740
-0.004240 1.451932 -0.893357 128 128 255 -0.285247 -0.718000 0.634910
0.081065 1.594472 -0.669116 128 128 255 -0.326091 -0.783706 0.528649
0.184519 1.693082 -0.429424 128 128 255 -0.375378 -0.828591 0.415366
0.302802 1.744600 -0.181969 128 128 255 -0.431527 -0.851214 0.298695
0.432122 1.747372 0.065311 128 128 255 -0.492739 -0.850851 0.182376
0.568331 1.701311 0.304485 128 128 255 -0.557049 -0.827512 0.070143
0.707059 1.607893 0.527883 128 128 255 -0.622395 -0.781947 -0.034407
0.843857 1.470114 0.728338 128 128 255 -0.686680 -0.715617 -0.127919
0.974337 1.292394 0.899421 128 128 255 -0.747844 -0.630648 -0.207394
1.094314 1.080434 1.035645 128 128 255 -0.803924 -0.529768 -0.270283
1.199941 0.841031 1.132641 128 128 255 -0.853121 -0.416211 -0.314569
1.287828 0.581864 1.187297 128 128 255 -0.893857 -0.293619 -0.338832
1.355158 0.311246 1.197860 128 128 255 -0.924827 -0.165925 -0.342293
1.399770 0.037857 1.163992 128 128 255 -0.945036 -0.037224 -0.324841
1.420234 -0.229534 1.086779 128 128 255 -0.953836 0.088355 -0.287036
1.415894 -0.482351 0.968697 128 128 255 -0.950946 0.206786 -0.230090
1.386888 -0.712486 0.813534 128 128 255 -0.936457 0.314268 -0.155831
1.334146 -0.912556 0.626267 128 128 255 -0.910835 0.407356 -0.066639
1.259362 -1.076145 0.412901 128 128 255 -0.874901 0.483062 0.034624
1.164932 -1.198005 0.180281 128 128 255 -0.829808 0.538959 0.144710
1.053887 -1.274229 -0.064132 128 128 255 -0.777003 0.573255 0.260089
0.929787 -1.302370 -0.312499 128 128 255 -0.718178 0.584848 0.377059
0.796614 -1.281527 -0.556853 128 128 255 -0.655221 0.573367 0.491870
0.658637 -1.212368 -0.789358 128 128 255 -0.590150 0.539181 0.600838
0.520284 -1.097112 -1.002556 128 128 255 -0.525054 0.483386 0.700469
0.385992 -0.939454 -1.189608 128 128 255 -0.462020 0.407771 0.787566
0.260068 -0.744452 -1.344515 128 128 255 -0.403070 0.314762 0.859337
0.146550 -0.518361 -1.462308 128 128 255 -0.350094 0.207342 0.913479
0.049081 -0.268431 -1.539210 128 128 255 -0.304792 0.088956 0.948256
-0.029215 -0.002681 -1.572754 128 128 255 -0.268617 -0.036598 0.962552
-0.085825 0.270368 -1.561863 128 128 255 -0.242729 -0.165294 0.955908
-0.118933 0.541957 -1.506887 128 128 255 -0.227958 -0.293003 0.928539
-0.127479 0.803374 -1.409590 128 128 255 -0.224778 -0.415629 0.881321
-0.111187 1.046236 -1.273092 128 128 255 -0.233292 -0.529240 0.815770
-0.070581 1.262752 -1.101771 128 128 255 -0.253225 -0.630191 0.733987
-0.006962 1.445978 -0.901123 128 128 255 -0.283940 -0.715244 0.638596
0.077628 1.590037 -0.677583 128 128 255 -0.324449 -0.781671 0.532656
0.180477 1.690308 -0.438320 128 128 255 -0.373456 -0.827343 0.419565
0.298285 1.743576 -0.191009 128 128 255 -0.429386 -0.850792 0.302952
0.427275 1.748131 0.056417 128 128 255 -0.490447 -0.851269 0.186555
0.563309 1.703828 0.296023 128 128 255 -0.554680 -0.828757 0.074109
0.702023 1.612088 0.520123 128 128 255 -0.620025 -0.783978 -0.030781
0.838969 1.475852 0.721530 128 128 255 -0.684386 -0.718369 -0.124749
0.969754 1.299492 0.893783 128 128 255 -0.745698 -0.634034 -0.204782
1.090183 1.088663 1.031358 128 128 255 -0.801995 -0.533678 -0.268313
1.196393 0.850128 1.129842 128 128 255 -0.851472 -0.420520 -0.313304
1.284979 0.591537 1.186076 128 128 255 -0.892541 -0.298189 -0.338311
1.353098 0.321185 1.198257 128 128 255 -0.923885 -0.170609 -0.342534
1.398565 0.047743 1.165993 128 128 255 -0.944498 -0.041872 -0.325837
1.419923 -0.220019 1.090320 128 128 255 -0.953721 0.083892 -0.288754
1.416487 -0.473512 0.973665 128 128 255 -0.951256 0.202651 -0.232476
1.388366 -0.704605 0.819770 128 128 255 -0.937183 0.310594 -0.158807
1.336462 -0.905887 0.633570 128 128 255 -0.911953 0.404260 -0.070111
1.262441 -1.070902 0.421038 128 128 255 -0.876376 0.480644 0.030768
1.168676 -1.194356 0.188990 128 128 255 -0.831592 0.537297 0.140594
1.058175 -1.272290 -0.055130 128 128 255 -0.779038 0.572401 0.255844
0.934482 -1.302204 -0.303493 128 128 255 -0.720400 0.584831 0.372823
0.801565 -1.283140 -0.548132 128 128 255 -0.657559 0.574187 0.487777
0.663686 -1.215707 -0.781201 128 128 255 -0.592529 0.540811 0.597020
0.525269 -1.102070 -0.995225 128 128 255 -0.527397 0.485774 0.697048
0.390752 -0.945873 -1.183338 128 128 255 -0.464252 0.410841 0.784653
0.264451 -0.752126 -1.339507 128 128 255 -0.405119 0.318414 0.857024
0.150416 -0.527043 -1.458724 128 128 255 -0.351895 0.211460 0.911841
0.052305 -0.277844 -1.537163 128 128 255 -0.306287 0.093408 0.947345
-0.026735 -0.012521 -1.572310 128 128 255 -0.269758 -0.031955 0.962398
-0.084170 0.260415 -1.563037 128 128 255 -0.243479 -0.160608 0.956516
-0.118156 0.532211 -1.509642 128 128 255 -0.228293 -0.288425 0.929889
-0.127604 0.794148 -1.413836 128 128 255 -0.224688 -0.411307 0.883370
-0.112211 1.037824 -1.278694 128 128 255 -0.232779 -0.525311 0.818451
-0.072470 1.255426 -1.108549 128 128 255 -0.252307 -0.626782 0.737215
-0.009657 1.439972 -0.908859 128 128 255 -0.282645 -0.712464 0.642267
0.074215 1.585543 -0.686029 128 128 255 -0.322819 -0.779609 0.536653
0.176455 1.687471 -0.447205 128 128 255 -0.371543 -0.826065 0.423760
0.293783 1.742487 -0.200049 128 128 255 -0.427252 -0.850340 0.307210
0.422437 1.748825 0.047513 128 128 255 -0.488160 -0.851656 0.190739
0.558290 1.706282 0.287540 128 128 255 -0.552313 -0.829971 0.078085
0.696985 1.616224 0.512333 128 128 255 -0.617655 -0.785981 -0.027140
0.834073 1.481538 0.714683 128 128 255 -0.682087 -0.721096 -0.121560
0.965156 1.306544 0.888099 128 128 255 -0.743546 -0.637398 -0.202148
1.086032 1.096856 1.027019 128 128 255 -0.800058 -0.537571 -0.266317
1.192822 0.859198 1.126987 128 128 255 -0.849812 -0.424816 -0.312011
1.282102 0.601194 1.184797 128 128 255 -0.891211 -0.302752 -0.337764
1.351007 0.331119 1.198594 128 128 255 -0.922928 -0.175292 -0.342748
1.397328 0.057636 1.167937 128 128 255 -0.943946 -0.046525 -0.326806
1.419580 -0.210485 1.093808 128 128 255 -0.953589 0.079419 -0.290447
1.417047 -0.464642 0.978584 128 128 255 -0.951550 0.198501 -0.234839
1.389812 -0.696685 0.825963 128 128 255 -0.937894 0.306901 -0.161764
1.338748 -0.899170 0.640838 128 128 255 -0.913057 0.401141 -0.073567
1.265494 -1.065603 0.429148 128 128 255 -0.877838 0.478200 0.026923
1.172397 -1.190646 0.197683 128 128 255 -0.833365 0.535606 0.136485
1.062445 -1.270288 -0.046134 128 128 255 -0.781066 0.571517 0.251602
0.939165 -1.301974 -0.294482 128 128 255 -0.722617 0.584783 0.368583
0.806510 -1.284688 -0.539396 128 128 255 -0.659894 0.574976 0.483677
0.668735 -1.218985 -0.773019 128 128 255 -0.594907 0.542412 0.593190
0.530259 -1.106973 -0.987860 128 128 255 -0.529742 0.488135 0.693612
0.395524 -0.952242 -1.177026 128 128 255 -0.466489 0.413887 0.781720
0.268851 -0.759758 -1.334451 128 128 255 -0.407176 0.322048 0.854689
0.154303 -0.535693 -1.455085 128 128 255 -0.353706 0.215564 0.910178
0.055554 -0.287234 -1.535059 128 128 255 -0.307794 0.097851 0.946408
-0.024227 -0.022351 -1.571808 128 128 255 -0.270912 -0.027315 0.962216
-0.082484 0.250461 -1.564153 128 128 255 -0.244244 -0.155921 0.957096
-0.117346 0.522452 -1.512340 128 128 255 -0.228644 -0.283841 0.931212
-0.127696 0.784897 -1.418030 128 128 255 -0.224614 -0.406972 0.885394
-0.113202 1.029379 -1.284249 128 128 255 -0.232282 -0.521366 0.821111
-0.074329 1.248055 -1.115287 128 128 255 -0.251403 -0.623351 0.740425
-0.012323 1.433914 -0.916564 128 128 255 -0.281363 -0.709659 0.645925
0.070827 1.580992 -0.694453 128 128 255 -0.321201 -0.777520 0.540641
0.172453 1.684573 -0.456080 128 128 255 -0.369639 -0.824758 0.427950
0.289296 1.741333 -0.209089 128 128 255 -0.425124 -0.849857 0.311467
0.417609 1.749454 0.038598 128 128 255 -0.485877 -0.852013 0.194928
0.553276 1.708674 0.279036 128 128 255 -0.549948 -0.831157 0.082071
0.691945 1.620301 0.504513 128 128 255 -0.615283 -0.787957 -0.023485
0.829169 1.487170 0.707798 128 128 255 -0.679785 -0.723799 -0.118353
0.960546 1.313550 0.882369 128 128 255 -0.741387 -0.640741 -0.199492
1.081863 1.105011 1.022628 128 128 255 -0.798112 -0.541447 -0.264298
1.189228 0.868242 1.124076 128 128 255 -0.848141 -0.429101 -0.310693
1.279198 0.610835 1.183459 128 128 255 -0.889869 -0.307308 -0.337188
1.348887 0.341049 1.198873 128 128 255 -0.921957 -0.179973 -0.342935
1.396059 0.067535 1.169823 128 128 255 -0.943378 -0.051181 -0.327748
1.419203 -0.200932 1.097240 128 128 255 -0.953443 0.074938 -0.292115
1.417575 -0.455744 0.983454 128 128 255 -0.951829 0.194337 -0.237179
1.391227 -0.688726 0.832113 128 128 255 -0.938590 0.303189 -0.164701
1.341005 -0.892405 0.648071 128 128 255 -0.914148 0.398000 -0.077007
1.268520 -1.060250 0.437233 128 128 255 -0.879288 0.475730 0.023091
1.176096 -1.186876 0.206359 128 128 255 -0.835129 0.533887 0.132383
1.066698 -1.268221 -0.037144 128 128 255 -0.783086 0.570604 0.247362
0.943835 -1.301678 -0.285467 128 128 255 -0.724828 0.584704 0.364342
0.811448 -1.286173 -0.530644 128 128 255 -0.662226 0.575735 0.479569
0.673782 -1.222202 -0.764813 128 128 255 -0.597285 0.543984 0.589348
0.535253 -1.111818 -0.980461 128 128 255 -0.532090 0.490471 0.690159
0.400305 -0.958562 -1.170672 128 128 255 -0.468731 0.416910 0.778767
0.273266 -0.767348 -1.329346 128 128 255 -0.409241 0.325662 0.852330
0.158211 -0.544311 -1.451393 128 128 255 -0.355527 0.219654 0.908489
0.058829 -0.296603 -1.532898 128 128 255 -0.309313 0.102284 0.945444
-0.021691 -0.032171 -1.571247 128 128 255 -0.272080 -0.022680 0.962007
-0.080767 0.240506 -1.565210 128 128 255 -0.245024 -0.151233 0.957649
-0.116504 0.512680 -1.514982 128 128 255 -0.229011 -0.279251 0.932509
-0.127756 0.775622 -1.422172 128 128 255 -0.224555 -0.402627 0.887393
-0.114161 1.020898 -1.289757 128 128 255 -0.231800 -0.517404 0.823749
-0.076157 1.240642 -1.121986 128 128 255 -0.250513 -0.619901 0.743617
-0.014961 1.427804 -0.924238 128 128 255 -0.280094 -0.706830 0.649568
0.067463 1.576383 -0.702857 128 128 255 -0.319593 -0.775403 0.544619
0.168471 1.681612 -0.464943 128 128 255 -0.367745 -0.823421 0.432136
0.284824 1.740116 -0.218127 128 128 255 -0.423004 -0.849344 0.315726
0.412790 1.750018 0.029674 128 128 255 -0.483598 -0.852340 0.199122
0.548265 1.711002 0.270513 128 128 255 -0.547584 -0.832312 0.086067
0.686903 1.624319 0.496664 128 128 255 -0.612910 -0.789904 -0.019815
0.824257 1.492748 0.700874 128 128 255 -0.677479 -0.726476 -0.115128
0.955922 1.320510 0.876594 128 128 255 -0.739222 -0.644062 -0.196814
1.077675 1.113129 1.018186 128 128 255 -0.796157 -0.545305 -0.262254
1.185611 0.877258 1.121109 128 128 255 -0.835708 -0.490337 -0.247308
-0.125676 -1.267236 -1.240123 128 128 255 0.211828 0.661585 0.719329
-0.278601 -1.019086 -1.423319 128 128 255 0.117212 0.553672 0.824445
-0.415362 -0.734125 -1.559769 128 128 255 0.187204 0.407138 0.893976
-0.531573 -0.421491 -1.645095 128 128 255 0.246613 0.246500 0.937241
-0.623507 -0.091214 -1.676561 128 128 255 0.293531 0.076910 0.952851
-0.688216 0.246115 -1.653158 128 128 255 0.326455 -0.096192 0.940305
-0.723623 0.579674 -1.575635 128 128 255 0.344328 -0.267255 0.900007
-0.728592 0.898766 -1.446481 128 128 255 0.346578 -0.430790 0.833249
-0.702966 1.193156 -1.269836 128 128 255 0.333131 -0.581554 0.742171
-0.647565 1.453401 -1.051368 128 128 255 0.304420 -0.714711 0.629696
-0.564166 1.671155 -0.798082 128 128 255 0.261365 -0.825989 0.499430
