ply
format ascii 1.0
element vertex 697
property float x
property float y
property float z
property uchar red
property uchar green
property uchar blue
property float nx
property float ny
property float nz
end_header
0.457845 0.078807 -0.086907 128 128 255 0.095063 0.281814 0.954748
0.502694 0.069504 -0.088407 128 128 255 0.066689 0.202017 0.977109
0.550268 0.058582 -0.089131 128 128 255 0.042049 0.150608 0.987699
0.600472 0.046085 -0.089077 128 128 255 0.020741 0.115897 0.993045
0.653192 0.032062 -0.088250 128 128 255 0.002160 0.091440 0.995808
0.708291 0.016569 -0.086655 128 128 255 -0.014223 0.073572 0.997188
0.765615 -0.000333 -0.084302 128 128 255 -0.028833 0.060116 0.997775
0.824987 -0.018578 -0.081204 128 128 255 -0.042005 0.049722 0.997879
0.886217 -0.038090 -0.077378 128 128 255 -0.054006 0.041518 0.997677
0.949092 -0.058794 -0.072842 128 128 255 -0.065053 0.034924 0.997271
1.013388 -0.080606 -0.067620 128 128 255 -0.075325 0.029540 0.996721
1.078862 -0.103439 -0.061735 128 128 255 -0.084973 0.025083 0.996067
1.145261 -0.127201 -0.055217 128 128 255 -0.094129 0.021350 0.995331
1.212318 -0.151797 -0.048096 128 128 255 -0.102906 0.018190 0.994525
1.279757 -0.177130 -0.040405 128 128 255 -0.111411 0.015492 0.993654
1.347292 -0.203099 -0.032179 128 128 255 -0.119739 0.013167 0.992718
1.414632 -0.229600 -0.023456 128 128 255 -0.127985 0.011150 0.991713
1.481480 -0.256529 -0.014275 128 128 255 -0.136244 0.009388 0.990631
1.547535 -0.283780 -0.004678 128 128 255 -0.144613 0.007839 0.989457
1.612494 -0.311246 0.005294 128 128 255 -0.153197 0.006469 0.988174
1.676054 -0.338820 0.015595 128 128 255 -0.162115 0.005253 0.986758
1.737911 -0.366393 0.026180 128 128 255 -0.171502 0.004167 0.985175
1.797764 -0.393860 0.037004 128 128 255 -0.181522 0.003193 0.983382
1.855317 -0.421112 0.048019 128 128 255 -0.192374 0.002316 0.981319
1.910276 -0.448043 0.059177 128 128 255 -0.204311 0.001524 0.978905
1.962357 -0.474550 0.070431 128 128 255 -0.217661 0.000807 0.976024
2.011279 -0.500527 0.081733 128 128 255 -0.232860 0.000157 0.972510
2.056776 -0.525873 0.093036 128 128 255 -0.250496 -0.000433 0.968118
2.098551 -0.550464 0.104280 128 128 255 -0.260240 -0.000814 0.965544
-1.898607 -0.520926 0.104326 128 128 255 -0.260973 -0.001394 0.965345
-1.856765 -0.543677 0.115599 128 128 255 -0.250974 -0.001733 0.967992
-1.811234 -0.565550 0.126910 128 128 255 -0.233577 -0.002194 0.972336
-1.762271 -0.586460 0.138212 128 128 255 -0.218613 -0.002629 0.975808
-1.710145 -0.606325 0.149456 128 128 255 -0.205497 -0.003040 0.978653
-1.655136 -0.625066 0.160595 128 128 255 -0.193800 -0.003427 0.981035
-1.597531 -0.642610 0.171582 128 128 255 -0.183200 -0.003791 0.983068
-1.537627 -0.658887 0.182368 128 128 255 -0.173450 -0.004135 0.984834
-1.475721 -0.673834 0.192909 128 128 255 -0.164357 -0.004458 0.986391
-1.412119 -0.687391 0.203156 128 128 255 -0.155762 -0.004763 0.987783
-1.347125 -0.699502 0.213066 128 128 255 -0.147535 -0.005049 0.989044
-1.281045 -0.710120 0.222595 128 128 255 -0.139565 -0.005319 0.990199
-1.214182 -0.719202 0.231701 128 128 255 -0.131753 -0.005573 0.991267
-1.146840 -0.726709 0.240342 128 128 255 -0.124011 -0.005811 0.992264
-1.079315 -0.732611 0.248480 128 128 255 -0.116256 -0.006037 0.993201
-1.011897 -0.736884 0.256077 128 128 255 -0.108408 -0.006249 0.994087
-0.944872 -0.739509 0.263099 128 128 255 -0.100387 -0.006449 0.994928
-0.878513 -0.740476 0.269513 128 128 255 -0.092112 -0.006639 0.995727
-0.813085 -0.739779 0.275289 128 128 255 -0.083495 -0.006818 0.996485
-0.748839 -0.737420 0.280399 128 128 255 -0.074444 -0.006987 0.997201
-0.686015 -0.733409 0.284819 128 128 255 -0.064857 -0.007146 0.997869
-0.624836 -0.727762 0.288527 128 128 255 -0.054620 -0.007297 0.998481
-0.565512 -0.720500 0.291504 128 128 255 -0.043601 -0.007438 0.999021
-0.508233 -0.711653 0.293734 128 128 255 -0.031653 -0.007570 0.999470
-0.453172 -0.701255 0.295205 128 128 255 -0.018601 -0.007692 0.999797
-0.400485 -0.689350 0.295907 128 128 255 -0.004243 -0.007802 0.999961
-0.350307 -0.675983 0.295834 128 128 255 0.011661 -0.007901 0.999901
-0.302752 -0.661208 0.294985 128 128 255 0.029397 -0.007987 0.999536
-0.257917 -0.645084 0.293358 128 128 255 0.049306 -0.008058 0.998751
-0.215875 -0.627676 0.290960 128 128 255 0.071793 -0.008110 0.997387
-0.176678 -0.609052 0.287796 128 128 255 0.097348 -0.008142 0.995217
-0.140360 -0.589287 0.283878 128 128 255 0.126555 -0.008149 0.991926
-0.106932 -0.568458 0.279220 128 128 255 0.160102 -0.008126 0.987067
-0.076384 -0.546648 0.273839 128 128 255 0.198788 -0.008065 0.980009
-0.048686 -0.523944 0.267756 128 128 255 0.243512 -0.007959 0.969865
-0.023788 -0.500436 0.260995 128 128 255 0.295218 -0.007794 0.955398
-0.001621 -0.476216 0.253583 128 128 255 0.354774 -0.007556 0.934922
0.017903 -0.451381 0.245548 128 128 255 0.422734 -0.007228 0.906225
0.034891 -0.426028 0.236924 128 128 255 0.498936 -0.006789 0.866612
0.049466 -0.400258 0.227745 128 128 255 0.581946 -0.006222 0.813204
0.061769 -0.374173 0.218048 128 128 255 0.668497 -0.005520 0.743694
0.071955 -0.347876 0.207874 128 128 255 0.753360 -0.004694 0.657591
0.080192 -0.321471 0.197265 128 128 255 0.830172 -0.003786 0.557494
0.086665 -0.295062 0.186263 128 128 255 0.893297 -0.002863 0.449458
0.091567 -0.268754 0.174916 128 128 255 0.939800 -0.002003 0.341719
0.095102 -0.242651 0.163269 128 128 255 0.970186 -0.001272 0.242359
0.097485 -0.216855 0.151371 128 128 255 0.987538 -0.000710 0.157382
0.098937 -0.191470 0.139272 128 128 255 0.995928 -0.000328 0.090157
0.099684 -0.166594 0.127023 128 128 255 0.999118 -0.000109 0.041984
0.099961 -0.142327 0.114674 128 128 255 0.999915 -0.000018 0.013042
0.100000 -0.118764 0.102278 128 128 255 0.999995 0.000002 0.003190
0.100039 -0.095999 0.089886 128 128 255 0.999922 0.000040 0.012456
0.100316 -0.074120 0.077549 128 128 255 0.999150 0.000231 0.041220
0.101063 -0.053214 0.065320 128 128 255 0.995934 0.000786 0.090087
0.102514 -0.033363 0.053250 128 128 255 0.987212 0.002035 0.159402
0.104896 -0.014646 0.041388 128 128 255 0.968660 0.004472 0.248350
0.108430 0.002864 0.029786 128 128 255 0.935302 0.008806 0.353740
0.113330 0.019098 0.018490 128 128 255 0.883011 0.016014 0.469079
0.119799 0.033992 0.007547 128 128 255 0.810590 0.027419 0.584972
0.128033 0.047489 -0.002997 128 128 255 0.721060 0.044928 0.691414
0.138213 0.059534 -0.013100 128 128 255 0.620721 0.071655 0.780750
0.150510 0.070081 -0.022720 128 128 255 0.516254 0.113360 0.848900
0.165078 0.079088 -0.031819 128 128 255 0.411688 0.181551 0.893058
0.182058 0.086520 -0.040357 128 128 255 0.306046 0.299815 0.903574
0.201573 0.092346 -0.048301 128 128 255 0.191614 0.508677 0.839364
0.223732 0.096545 -0.055618 128 128 255 0.066682 0.801708 0.593984
0.248621 0.099099 -0.062277 128 128 255 -0.009348 0.975900 0.218018
0.276311 0.099999 -0.068254 128 128 255 0.007318 0.998608 0.052228
0.306853 0.099239 -0.073525 128 128 255 0.075726 0.978630 0.191180
0.340278 0.096824 -0.078069 128 128 255 0.138111 0.837807 0.528209
0.376595 0.092763 -0.081869 128 128 255 0.145691 0.590606 0.793700
0.415794 0.087071 -0.084912 128 128 255 0.120468 0.391684 0.912179
0.457845 0.079770 -0.087188 128 128 255 0.090141 0.267587 0.959308
0.502694 0.070890 -0.088690 128 128 255 0.062521 0.191386 0.979522
0.550268 0.060465 -0.089413 128 128 255 0.038552 0.142530 0.989039
0.600472 0.048536 -0.089358 128 128 255 0.017791 0.109617 0.993815
0.653192 0.035151 -0.088527 128 128 255 -0.000352 0.086456 0.996256
0.708291 0.020361 -0.086928 128 128 255 -0.016384 0.069547 0.997444
0.765615 0.004227 -0.084570 128 128 255 -0.030708 0.056818 0.997912
0.824987 -0.013188 -0.081466 128 128 255 -0.043645 0.046987 0.997941
0.886217 -0.031814 -0.077632 128 128 255 -0.055452 0.039230 0.997690
0.949093 -0.051576 -0.073088 128 128 255 -0.066336 0.032994 0.997252
1.013389 -0.072397 -0.067856 128 128 255 -0.076471 0.027903 0.996681
1.078864 -0.094192 -0.061962 128 128 255 -0.086003 0.023690 0.996013
1.145263 -0.116874 -0.055433 128 128 255 -0.095058 0.020160 0.995268
1.212321 -0.140353 -0.048300 128 128 255 -0.103749 0.017173 0.994455
1.279761 -0.164534 -0.040596 128 128 255 -0.112178 0.014621 0.993581
1.347298 -0.189323 -0.032356 128 128 255 -0.120440 0.012424 0.992643
1.414640 -0.214620 -0.023619 128 128 255 -0.128629 0.010517 0.991637
1.481489 -0.240325 -0.014423 128 128 255 -0.136837 0.008852 0.990554
1.547546 -0.266338 -0.004810 128 128 255 -0.145161 0.007388 0.989380
1.612507 -0.292556 0.005177 128 128 255 -0.153707 0.006094 0.988098
1.676069 -0.318877 0.015495 128 128 255 -0.162590 0.004944 0.986681
1.737927 -0.345198 0.026096 128 128 255 -0.171947 0.003918 0.985098
1.797782 -0.371416 0.036937 128 128 255 -0.181940 0.002998 0.983305
1.855335 -0.397430 0.047968 128 128 255 -0.192770 0.002170 0.981242
1.910295 -0.423138 0.059144 128 128 255 -0.204688 0.001423 0.978826
1.962375 -0.448439 0.070415 128 128 255 -0.218022 0.000746 0.975944
2.011298 -0.473235 0.081734 128 128 255 -0.233208 0.000132 0.972427
2.056794 -0.497429 0.093054 128 128 255 -0.250833 -0.000424 0.968030
2.098567 -0.520903 0.104314 128 128 255 -0.260574 -0.000783 0.965453
-1.898623 -0.491363 0.104358 128 128 255 -0.261264 -0.001338 0.965266
-1.856784 -0.513032 0.115648 128 128 255 -0.251247 -0.001658 0.967922
-1.811256 -0.533865 0.126975 128 128 255 -0.233813 -0.002093 0.972279
-1.762297 -0.553781 0.138292 128 128 255 -0.218822 -0.002503 0.975762
-1.710174 -0.572701 0.149552 128 128 255 -0.205682 -0.002890 0.978615
-1.655169 -0.590552 0.160706 128 128 255 -0.193965 -0.003254 0.981003
-1.597568 -0.607263 0.171708 128 128 255 -0.183350 -0.003598 0.983041
-1.537667 -0.622768 0.182509 128 128 255 -0.173587 -0.003921 0.984811
-1.475764 -0.637005 0.193064 128 128 255 -0.164483 -0.004226 0.986371
-1.412164 -0.649918 0.203325 128 128 255 -0.155880 -0.004512 0.987766
-1.347172 -0.661456 0.213249 128 128 255 -0.147647 -0.004782 0.989029
-1.281093 -0.671570 0.222790 128 128 255 -0.139671 -0.005035 0.990185
-1.214231 -0.680221 0.231908 128 128 255 -0.131856 -0.005274 0.991255
-1.146888 -0.687372 0.240560 128 128 255 -0.124113 -0.005499 0.992253
-1.079361 -0.692994 0.248709 128 128 255 -0.116358 -0.005711 0.993191
-1.011942 -0.697064 0.256316 128 128 255 -0.108511 -0.005911 0.994078
-0.944914 -0.699565 0.263347 128 128 255 -0.100492 -0.006100 0.994919
-0.878552 -0.700485 0.269769 128 128 255 -0.092221 -0.006278 0.995719
-0.813120 -0.699820 0.275552 128 128 255 -0.083609 -0.006447 0.996478
-0.748870 -0.697572 0.280668 128 128 255 -0.074564 -0.006607 0.997194
-0.686042 -0.693751 0.285094 128 128 255 -0.064984 -0.006758 0.997863
-0.624860 -0.688370 0.288806 128 128 255 -0.054755 -0.006901 0.998476
-0.565531 -0.681451 0.291786 128 128 255 -0.043746 -0.007036 0.999018
-0.508248 -0.673022 0.294018 128 128 255 -0.031808 -0.007161 0.999468
-0.453184 -0.663117 0.295490 128 128 255 -0.018767 -0.007278 0.999797
-0.400494 -0.651775 0.296192 128 128 255 -0.004421 -0.007385 0.999963
-0.350313 -0.639042 0.296119 128 128 255 0.011471 -0.007481 0.999906
-0.302757 -0.624968 0.295267 128 128 255 0.029194 -0.007564 0.999545
-0.257920 -0.609609 0.293637 128 128 255 0.049088 -0.007633 0.998765
-0.215876 -0.593027 0.291234 128 128 255 0.071562 -0.007686 0.997407
-0.176678 -0.575288 0.288065 128 128 255 0.097104 -0.007719 0.995244
-0.140360 -0.556461 0.284140 128 128 255 0.126296 -0.007728 0.991962
-0.106931 -0.536623 0.279475 128 128 255 0.159831 -0.007709 0.987114
-0.076382 -0.515850 0.274086 128 128 255 0.198509 -0.007656 0.980069
-0.048684 -0.494226 0.267994 128 128 255 0.243228 -0.007558 0.969940
-0.023787 -0.471836 0.261222 128 128 255 0.294934 -0.007406 0.955489
-0.001620 -0.448769 0.253798 128 128 255 0.354499 -0.007185 0.935029
0.017904 -0.425116 0.245752 128 128 255 0.422480 -0.006878 0.906346
0.034892 -0.400970 0.237114 128 128 255 0.498720 -0.006466 0.866739
0.049467 -0.376427 0.227922 128 128 255 0.581780 -0.005932 0.813324
0.061770 -0.351584 0.218211 128 128 255 0.668393 -0.005269 0.743790
0.071955 -0.326540 0.208022 128 128 255 0.753318 -0.004487 0.657641
0.080193 -0.301392 0.197397 128 128 255 0.830179 -0.003626 0.557486
0.086665 -0.276241 0.186380 128 128 255 0.893332 -0.002748 0.449390
0.091567 -0.251187 0.175015 128 128 255 0.939841 -0.001928 0.341608
0.095102 -0.226327 0.163352 128 128 255 0.970218 -0.001229 0.242231
0.097485 -0.201761 0.151437 128 128 255 0.987556 -0.000691 0.157263
0.098937 -0.177585 0.139321 128 128 255 0.995936 -0.000322 0.090066
0.099684 -0.153895 0.127054 128 128 255 0.999121 -0.000109 0.041930
0.099961 -0.130784 0.114687 128 128 255 0.999915 -0.000020 0.013022
0.100000 -0.108344 0.102273 128 128 255 0.999995 0.000001 0.003183
0.100039 -0.086663 0.089862 128 128 255 0.999923 0.000035 0.012427
0.100316 -0.065826 0.077508 128 128 255 0.999155 0.000207 0.041106
0.101063 -0.045916 0.065261 128 128 255 0.995960 0.000716 0.089791
0.102514 -0.027011 0.053174 128 128 255 0.987311 0.001868 0.158786
0.104896 -0.009186 0.041295 128 128 255 0.968946 0.004122 0.247239
0.108430 0.007490 0.029676 128 128 255 0.935980 0.008143 0.351960
0.113330 0.022951 0.018364 128 128 255 0.884386 0.014844 0.466520
0.119799 0.037136 0.007406 128 128 255 0.813028 0.025464 0.581668
0.128033 0.049989 -0.003153 128 128 255 0.724903 0.041799 0.687582
0.138213 0.061461 -0.013271 128 128 255 0.626232 0.066787 0.776771
0.150510 0.071506 -0.022905 128 128 255 0.523668 0.105863 0.845320
0.165078 0.080084 -0.032016 128 128 255 0.421346 0.169983 0.890827
0.182058 0.087162 -0.040566 128 128 255 0.318569 0.282045 0.904967
0.201573 0.092711 -0.048520 128 128 255 0.207472 0.484136 0.850040
0.223732 0.096710 -0.055846 128 128 255 0.081984 0.782810 0.616837
0.248621 0.099142 -0.062515 128 128 255 -0.002747 0.972931 0.231079
0.276311 0.099999 -0.068499 128 128 255 0.008071 0.998426 0.055508
0.306853 0.099275 -0.073776 128 128 255 0.074991 0.976374 0.202657
0.340278 0.096975 -0.078325 128 128 255 0.135838 0.823173 0.551303
0.376595 0.093107 -0.082130 128 128 255 0.140873 0.568080 0.810827
0.415794 0.087686 -0.085176 128 128 255 0.115160 0.372366 0.920914
0.457845 0.080734 -0.087454 128 128 255 0.085422 0.253139 0.963651
0.502694 0.072276 -0.088956 128 128 255 0.058544 0.180669 0.981800
0.550268 0.062348 -0.089679 128 128 255 0.035223 0.134412 0.990299
0.600472 0.050987 -0.089622 128 128 255 0.014986 0.103321 0.994535
0.653192 0.038239 -0.088789 128 128 255 -0.002739 0.081464 0.996673
0.708291 0.024154 -0.087186 128 128 255 -0.018435 0.065517 0.997681
0.765614 0.008788 -0.084823 128 128 255 -0.032487 0.053516 0.998038
0.824987 -0.007798 -0.081713 128 128 255 -0.045202 0.044250 0.997997
0.886217 -0.025537 -0.077872 128 128 255 -0.056824 0.036940 0.997701
0.949093 -0.044359 -0.073321 128 128 255 -0.067554 0.031064 0.997232
1.013390 -0.064188 -0.068080 128 128 255 -0.077558 0.026267 0.996642
1.078865 -0.084945 -0.062176 128 128 255 -0.086978 0.022297 0.995961
1.145266 -0.106547 -0.055636 128 128 255 -0.095938 0.018971 0.995206
1.212325 -0.128908 -0.048491 128 128 255 -0.104547 0.016156 0.994389
1.279765 -0.151938 -0.040775 128 128 255 -0.112904 0.013753 0.993511
1.347304 -0.175547 -0.032523 128 128 255 -0.121104 0.011682 0.992571
1.414647 -0.199640 -0.023772 128 128 255 -0.129238 0.009885 0.991564
1.481499 -0.224122 -0.014562 128 128 255 -0.137398 0.008316 0.990481
1.547557 -0.248896 -0.004934 128 128 255 -0.145680 0.006938 0.989307
1.612520 -0.273866 0.005068 128 128 255 -0.154188 0.005719 0.988025
1.676083 -0.298934 0.015400 128 128 255 -0.163039 0.004637 0.986609
1.737943 -0.324002 0.026018 128 128 255 -0.172367 0.003671 0.985026
1.797799 -0.348973 0.036874 128 128 255 -0.182335 0.002805 0.983232
1.855353 -0.373748 0.047922 128 128 255 -0.193143 0.002026 0.981168
1.910313 -0.398232 0.059113 128 128 255 -0.205043 0.001322 0.978752
1.962394 -0.422328 0.070400 128 128 255 -0.218361 0.000686 0.975868
2.011316 -0.445944 0.081735 128 128 255 -0.233535 0.000109 0.972349
2.056811 -0.468985 0.093071 128 128 255 -0.251150 -0.000414 0.967948
2.098583 -0.491341 0.104347 128 128 255 -0.260890 -0.000752 0.965368
-1.898639 -0.461799 0.104390 128 128 255 -0.261536 -0.001281 0.965193
-1.856803 -0.482386 0.115694 128 128 255 -0.251502 -0.001581 0.967856
-1.811278 -0.502179 0.127036 128 128 255 -0.234035 -0.001989 0.972226
-1.762322 -0.521100 0.138368 128 128 255 -0.219016 -0.002375 0.975718
-1.710203 -0.539076 0.149643 128 128 255 -0.205855 -0.002738 0.978579
-1.655201 -0.556036 0.160811 128 128 255 -0.194120 -0.003080 0.980973
-1.597604 -0.571914 0.171827 128 128 255 -0.183489 -0.003402 0.983016
-1.537705 -0.586645 0.182642 128 128 255 -0.173715 -0.003705 0.984789
-1.475806 -0.600173 0.193210 128 128 255 -0.164601 -0.003991 0.986352
-1.412208 -0.612443 0.203485 128 128 255 -0.155990 -0.004259 0.987749
-1.347217 -0.623405 0.213421 128 128 255 -0.147751 -0.004512 0.989014
-1.281139 -0.633016 0.222975 128 128 255 -0.139771 -0.004750 0.990173
-1.214277 -0.641236 0.232103 128 128 255 -0.131953 -0.004974 0.991243
-1.146934 -0.648031 0.240767 128 128 255 -0.124208 -0.005184 0.992243
-1.079406 -0.653373 0.248925 128 128 255 -0.116453 -0.005383 0.993182
-1.011984 -0.657240 0.256541 128 128 255 -0.108607 -0.005570 0.994069
-0.944953 -0.659615 0.263581 128 128 255 -0.100591 -0.005748 0.994911
-0.878588 -0.660489 0.270010 128 128 255 -0.092323 -0.005915 0.995712
-0.813152 -0.659856 0.275800 128 128 255 -0.083716 -0.006075 0.996471
-0.748899 -0.657719 0.280923 128 128 255 -0.074678 -0.006225 0.997188
-0.686067 -0.654087 0.285353 128 128 255 -0.065105 -0.006368 0.997858
-0.624880 -0.648973 0.289069 128 128 255 -0.054884 -0.006504 0.998472
-0.565548 -0.642398 0.292052 128 128 255 -0.043884 -0.006632 0.999015
-0.508262 -0.634388 0.294287 128 128 255 -0.031955 -0.006751 0.999466
-0.453195 -0.624975 0.295760 128 128 255 -0.018925 -0.006863 0.999797
-0.400502 -0.614197 0.296462 128 128 255 -0.004591 -0.006965 0.999965
-0.350318 -0.602098 0.296387 128 128 255 0.011289 -0.007058 0.999911
-0.302760 -0.588725 0.295533 128 128 255 0.028999 -0.007139 0.999554
-0.257921 -0.574132 0.293901 128 128 255 0.048879 -0.007207 0.998779
-0.215876 -0.558376 0.291494 128 128 255 0.071340 -0.007259 0.997426
-0.176678 -0.541522 0.288319 128 128 255 0.096868 -0.007294 0.995270
-0.140358 -0.523635 0.284389 128 128 255 0.126048 -0.007306 0.991997
-0.106929 -0.504786 0.279716 128 128 255 0.159570 -0.007291 0.987160
-0.076380 -0.485051 0.274319 128 128 255 0.198238 -0.007244 0.980127
-0.048682 -0.464507 0.268218 128 128 255 0.242951 -0.007156 0.970012
-0.023785 -0.443236 0.261437 128 128 255 0.294658 -0.007017 0.955577
-0.001618 -0.421321 0.254003 128 128 255 0.354232 -0.006812 0.935133
0.017906 -0.398850 0.245945 128 128 255 0.422233 -0.006527 0.906464
0.034893 -0.375912 0.237296 128 128 255 0.498506 -0.006142 0.866865
0.049468 -0.352596 0.228090 128 128 255 0.581615 -0.005641 0.813445
0.061771 -0.328996 0.218366 128 128 255 0.668285 -0.005017 0.743888
0.071956 -0.305204 0.208163 128 128 255 0.753270 -0.004280 0.657697
0.080193 -0.281314 0.197524 128 128 255 0.830180 -0.003466 0.557485
0.086666 -0.257421 0.186491 128 128 255 0.893361 -0.002633 0.449331
0.091567 -0.233620 0.175111 128 128 255 0.939877 -0.001854 0.341507
0.095102 -0.210004 0.163432 128 128 255 0.970247 -0.001188 0.242112
0.097485 -0.186667 0.151501 128 128 255 0.987574 -0.000672 0.157153
0.098937 -0.163700 0.139368 128 128 255 0.995943 -0.000317 0.089982
0.099684 -0.141196 0.127084 128 128 255 0.999123 -0.000110 0.041881
0.099961 -0.119241 0.114701 128 128 255 0.999915 -0.000021 0.013002
0.100000 -0.097923 0.102270 128 128 255 0.999995 0.000000 0.003177
0.100039 -0.077327 0.089843 128 128 255 0.999923 0.000030 0.012400
0.100316 -0.057533 0.077471 128 128 255 0.999159 0.000183 0.040999
0.101063 -0.038619 0.065208 128 128 255 0.995986 0.000645 0.089512
0.102514 -0.020660 0.053104 128 128 255 0.987405 0.001700 0.158207
0.104896 -0.003726 0.041209 128 128 255 0.969212 0.003774 0.246198
0.108430 0.012116 0.029574 128 128 255 0.936611 0.007485 0.350291
0.113330 0.026803 0.018247 128 128 255 0.885667 0.013684 0.464119
0.119799 0.040279 0.007274 128 128 255 0.815296 0.023531 0.578567
0.128033 0.052490 -0.003299 128 128 255 0.728478 0.038706 0.683975
0.138213 0.063388 -0.013430 128 128 255 0.631363 0.061973 0.773007
0.150510 0.072930 -0.023077 128 128 255 0.530579 0.098440 0.841900
0.165078 0.081080 -0.032200 128 128 255 0.430386 0.158467 0.888626
0.182058 0.087803 -0.040761 128 128 255 0.330392 0.264137 0.906131
0.201573 0.093075 -0.048726 128 128 255 0.222815 0.458569 0.860272
0.223732 0.096874 -0.056061 128 128 255 0.097683 0.761488 0.640776
0.248621 0.099185 -0.062737 128 128 255 0.004285 0.969327 0.245737
0.276311 0.099999 -0.068729 128 128 255 0.008909 0.998206 0.059214
0.306853 0.099312 -0.074012 128 128 255 0.074455 0.973645 0.215573
0.340278 0.097127 -0.078566 128 128 255 0.133704 0.806455 0.575980
0.376595 0.093452 -0.082375 128 128 255 0.136154 0.544042 0.827938
0.415794 0.088302 -0.085424 128 128 255 0.110042 0.352484 0.929326
0.457845 0.081697 -0.087704 128 128 255 0.080916 0.238495 0.967767
0.502694 0.073662 -0.089206 128 128 255 0.054764 0.169877 0.983942
0.550268 0.064230 -0.089929 128 128 255 0.032064 0.126262 0.991479
0.600472 0.053437 -0.089871 128 128 255 0.012328 0.097009 0.995207
0.653192 0.041327 -0.089035 128 128 255 -0.004998 0.076466 0.997060
0.708291 0.027946 -0.087429 128 128 255 -0.020376 0.061485 0.997900
0.765614 0.013348 -0.085061 128 128 255 -0.034170 0.050215 0.998154
0.824987 -0.002408 -0.081945 128 128 255 -0.046674 0.041514 0.998047
0.886217 -0.019260 -0.078098 128 128 255 -0.058122 0.034650 0.997708
0.949094 -0.037141 -0.073539 128 128 255 -0.068705 0.029134 0.997212
1.013390 -0.055978 -0.068290 128 128 255 -0.078586 0.024631 0.996603
1.078867 -0.075698 -0.062376 128 128 255 -0.087901 0.020904 0.995910
1.145268 -0.096220 -0.055827 128 128 255 -0.096770 0.017783 0.995148
1.212327 -0.117463 -0.048671 128 128 255 -0.105300 0.015141 0.994325
1.279770 -0.139342 -0.040944 128 128 255 -0.113590 0.012884 0.993444
1.347309 -0.161771 -0.032679 128 128 255 -0.121730 0.010941 0.992503
1.414654 -0.184659 -0.023915 128 128 255 -0.129813 0.009255 0.991495
1.481507 -0.207917 -0.014692 128 128 255 -0.137927 0.007783 0.990412
1.547567 -0.231454 -0.005051 128 128 255 -0.146169 0.006489 0.989238
1.612532 -0.255176 0.004965 128 128 255 -0.154642 0.005346 0.987956
1.676096 -0.278991 0.015312 128 128 255 -0.163461 0.004330 0.986540
1.737958 -0.302806 0.025944 128 128 255 -0.172763 0.003424 0.984958
1.797815 -0.326528 0.036815 128 128 255 -0.182707 0.002612 0.983164
1.855370 -0.350065 0.047878 128 128 255 -0.193495 0.001882 0.981100
1.910331 -0.373325 0.059085 128 128 255 -0.205376 0.001223 0.978682
1.962411 -0.396216 0.070387 128 128 255 -0.218680 0.000626 0.975796
2.011333 -0.418651 0.081737 128 128 255 -0.233842 0.000086 0.972275
2.056828 -0.440541 0.093087 128 128 255 -0.251448 -0.000404 0.967871
2.098599 -0.461778 0.104379 128 128 255 -0.261185 -0.000720 0.965288
-1.898654 -0.432235 0.104420 128 128 255 -0.261790 -0.001222 0.965124
-1.856821 -0.451739 0.115738 128 128 255 -0.251740 -0.001503 0.967794
-1.811300 -0.470491 0.127094 128 128 255 -0.234242 -0.001884 0.972176
-1.762346 -0.488418 0.138440 128 128 255 -0.219198 -0.002244 0.975678
-1.710231 -0.505450 0.149728 128 128 255 -0.206015 -0.002584 0.978545
-1.655232 -0.521519 0.160911 128 128 255 -0.194264 -0.002903 0.980945
-1.597638 -0.536563 0.171940 128 128 255 -0.183619 -0.003204 0.982992
-1.537743 -0.550521 0.182768 128 128 255 -0.173834 -0.003488 0.984769
-1.475846 -0.563339 0.193348 128 128 255 -0.164711 -0.003754 0.986335
-1.412250 -0.574965 0.203635 128 128 255 -0.156092 -0.004005 0.987734
-1.347261 -0.585352 0.213583 128 128 255 -0.147847 -0.004241 0.989001
-1.281184 -0.594459 0.223148 128 128 255 -0.139863 -0.004463 0.990161
-1.214322 -0.602247 0.232287 128 128 255 -0.132043 -0.004671 0.991233
-1.146978 -0.608686 0.240961 128 128 255 -0.124297 -0.004868 0.992233
-1.079448 -0.613747 0.249128 128 128 255 -0.116541 -0.005053 0.993173
-1.012024 -0.617411 0.256753 128 128 255 -0.108697 -0.005229 0.994061
-0.944991 -0.619661 0.263801 128 128 255 -0.100684 -0.005394 0.994904
-0.878622 -0.620488 0.270238 128 128 255 -0.092419 -0.005551 0.995705
-0.813183 -0.619888 0.276034 128 128 255 -0.083818 -0.005700 0.996465
-0.748926 -0.617862 0.281162 128 128 255 -0.074785 -0.005842 0.997183
-0.686089 -0.614419 0.285597 128 128 255 -0.065219 -0.005977 0.997853
-0.624899 -0.609572 0.289317 128 128 255 -0.055006 -0.006105 0.998467
-0.565563 -0.603340 0.292303 128 128 255 -0.044014 -0.006226 0.999012
-0.508273 -0.595749 0.294539 128 128 255 -0.032096 -0.006340 0.999465
-0.453203 -0.586829 0.296013 128 128 255 -0.019077 -0.006446 0.999797
-0.400508 -0.576616 0.296716 128 128 255 -0.004753 -0.006544 0.999967
-0.350322 -0.565151 0.296640 128 128 255 0.011114 -0.006633 0.999916
-0.302762 -0.552479 0.295785 128 128 255 0.028812 -0.006712 0.999562
-0.257921 -0.538651 0.294149 128 128 255 0.048680 -0.006778 0.998791
-0.215875 -0.523723 0.291738 128 128 255 0.071126 -0.006830 0.997444
-0.176676 -0.507754 0.288559 128 128 255 0.096641 -0.006866 0.995296
-0.140356 -0.490807 0.284623 128 128 255 0.125808 -0.006881 0.992031
-0.106927 -0.472949 0.279944 128 128 255 0.159319 -0.006871 0.987203
-0.076378 -0.454251 0.274540 128 128 255 0.197977 -0.006831 0.980183
-0.048680 -0.434787 0.268431 128 128 255 0.242684 -0.006752 0.970082
-0.023782 -0.414635 0.261641 128 128 255 0.294390 -0.006626 0.955662
-0.001616 -0.393874 0.254197 128 128 255 0.353970 -0.006438 0.935234
0.017907 -0.372585 0.246128 128 128 255 0.421990 -0.006174 0.906579
0.034895 -0.350854 0.237467 128 128 255 0.498295 -0.005817 0.866988
0.049469 -0.328766 0.228250 128 128 255 0.581449 -0.005350 0.813565
0.061771 -0.306408 0.218514 128 128 255 0.668176 -0.004766 0.743988
0.071956 -0.283868 0.208298 128 128 255 0.753218 -0.004073 0.657759
0.080194 -0.261237 0.197644 128 128 255 0.830175 -0.003305 0.557493
0.086666 -0.238602 0.186598 128 128 255 0.893385 -0.002519 0.449285
0.091567 -0.216054 0.175204 128 128 255 0.939910 -0.001780 0.341419
0.095102 -0.193682 0.163509 128 128 255 0.970274 -0.001147 0.242005
0.097485 -0.171573 0.151563 128 128 255 0.987590 -0.000654 0.157050
0.098937 -0.149816 0.139415 128 128 255 0.995950 -0.000312 0.089903
0.099684 -0.128497 0.127116 128 128 255 0.999125 -0.000111 0.041834
0.099961 -0.107698 0.114717 128 128 255 0.999916 -0.000022 0.012985
0.100000 -0.087503 0.102269 128 128 255 0.999995 -0.000000 0.003172
0.100039 -0.067991 0.089826 128 128 255 0.999923 0.000024 0.012374
0.100316 -0.049240 0.077439 128 128 255 0.999163 0.000160 0.040899
0.101063 -0.031322 0.065160 128 128 255 0.996009 0.000575 0.089252
0.102514 -0.014308 0.053040 128 128 255 0.987491 0.001532 0.157665
0.104896 0.001734 0.041131 128 128 255 0.969460 0.003427 0.245224
0.108430 0.016742 0.029481 128 128 255 0.937197 0.006833 0.348734
0.113329 0.030656 0.018139 128 128 255 0.886854 0.012536 0.461879
0.119799 0.043422 0.007152 128 128 255 0.817398 0.021620 0.575667
0.128032 0.054990 -0.003435 128 128 255 0.731792 0.035654 0.680595
0.138213 0.065315 -0.013579 128 128 255 0.636127 0.057212 0.769461
0.150509 0.074355 -0.023238 128 128 255 0.537008 0.091081 0.838646
0.165078 0.082075 -0.032372 128 128 255 0.438817 0.147009 0.886469
0.182058 0.088445 -0.040944 128 128 255 0.341504 0.246125 0.907082
0.201574 0.093440 -0.048918 128 128 255 0.237581 0.432015 0.870010
0.223732 0.097039 -0.056261 128 128 255 0.113745 0.737467 0.665736
0.248621 0.099228 -0.062946 128 128 255 0.011830 0.964911 0.262312
0.276311 0.099999 -0.068944 128 128 255 0.009852 0.997936 0.063454
0.306853 0.099348 -0.074233 128 128 255 0.074155 0.970318 0.230181
0.340278 0.097278 -0.078792 128 128 255 0.131720 0.787326 0.602302
0.376595 0.093797 -0.082604 128 128 255 0.131548 0.518456 0.844925
0.415794 0.088918 -0.085656 128 128 255 0.105129 0.332062 0.937381
0.457845 0.082660 -0.087937 128 128 255 0.076630 0.223669 0.971648
0.502694 0.075049 -0.089441 128 128 255 0.051183 0.159019 0.985948
0.550268 0.066113 -0.090163 128 128 255 0.029080 0.118091 0.992577
0.600472 0.055888 -0.090104 128 128 255 0.009819 0.090686 0.995831
0.653192 0.044415 -0.089266 128 128 255 -0.007130 0.071463 0.997418
0.708291 0.031738 -0.087656 128 128 255 -0.022206 0.057451 0.998101
0.765614 0.017909 -0.085284 128 128 255 -0.035758 0.046913 0.998259
0.824987 0.002982 -0.082163 128 128 255 -0.048062 0.038780 0.998091
0.886217 -0.012983 -0.078310 128 128 255 -0.059344 0.032363 0.997713
0.949094 -0.029923 -0.073743 128 128 255 -0.069790 0.027207 0.997191
1.013391 -0.047769 -0.068486 128 128 255 -0.079554 0.022997 0.996565
1.078868 -0.066451 -0.062564 128 128 255 -0.088769 0.019513 0.995861
1.145270 -0.085893 -0.056005 128 128 255 -0.097553 0.016596 0.995092
1.212330 -0.106018 -0.048839 128 128 255 -0.106010 0.014127 0.994265
1.279774 -0.126746 -0.041101 128 128 255 -0.114235 0.012017 0.993381
1.347314 -0.147994 -0.032825 128 128 255 -0.122320 0.010201 0.992438
1.414661 -0.169678 -0.024050 128 128 255 -0.130353 0.008626 0.991430
1.481515 -0.191713 -0.014814 128 128 255 -0.138425 0.007250 0.990346
1.547577 -0.214011 -0.005160 128 128 255 -0.146629 0.006042 0.989173
1.612543 -0.236485 0.004869 128 128 255 -0.155068 0.004974 0.987891
1.676109 -0.259047 0.015230 128 128 255 -0.163858 0.004026 0.986476
1.737972 -0.281609 0.025876 128 128 255 -0.173133 0.003179 0.984893
1.797830 -0.304083 0.036761 128 128 255 -0.183056 0.002421 0.983100
1.855386 -0.326381 0.047838 128 128 255 -0.193823 0.001739 0.981035
1.910348 -0.348417 0.059059 128 128 255 -0.205688 0.001124 0.978617
1.962428 -0.370104 0.070375 128 128 255 -0.218978 0.000568 0.975730
2.011350 -0.391358 0.081740 128 128 255 -0.234128 0.000064 0.972206
2.056844 -0.412095 0.093104 128 128 255 -0.251726 -0.000392 0.967799
2.098614 -0.432215 0.104409 128 128 255 -0.261462 -0.000688 0.965213
-1.898669 -0.402670 0.104449 128 128 255 -0.262025 -0.001160 0.965060
-1.856839 -0.421092 0.115780 128 128 255 -0.251960 -0.001423 0.967736
-1.811320 -0.438803 0.127149 128 128 255 -0.234434 -0.001778 0.972130
-1.762370 -0.455736 0.138508 128 128 255 -0.219366 -0.002112 0.975640
-1.710258 -0.471822 0.149809 128 128 255 -0.206164 -0.002428 0.978514
-1.655262 -0.487000 0.161004 128 128 255 -0.194397 -0.002725 0.980919
-1.597672 -0.501210 0.172045 128 128 255 -0.183740 -0.003005 0.982970
-1.537779 -0.514395 0.182886 128 128 255 -0.173943 -0.003268 0.984750
-1.475885 -0.526502 0.193478 128 128 255 -0.164812 -0.003516 0.986319
-1.412291 -0.537484 0.203776 128 128 255 -0.156187 -0.003749 0.987720
-1.347303 -0.547296 0.213735 128 128 255 -0.147936 -0.003968 0.988989
-1.281226 -0.555898 0.223310 128 128 255 -0.139949 -0.004174 0.990150
-1.214364 -0.563255 0.232460 128 128 255 -0.132126 -0.004368 0.991223
-1.147019 -0.569336 0.241142 128 128 255 -0.124379 -0.004550 0.992224
-1.079488 -0.574118 0.249319 128 128 255 -0.116624 -0.004722 0.993165
-1.012062 -0.577578 0.256952 128 128 255 -0.108781 -0.004885 0.994054
-0.945026 -0.579703 0.264007 128 128 255 -0.100770 -0.005040 0.994897
-0.878654 -0.580483 0.270451 128 128 255 -0.092509 -0.005186 0.995698
-0.813211 -0.579915 0.276253 128 128 255 -0.083912 -0.005325 0.996459
-0.748950 -0.578000 0.281386 128 128 255 -0.074885 -0.005458 0.997177
-0.686110 -0.574746 0.285826 128 128 255 -0.065326 -0.005584 0.997848
-0.624916 -0.570166 0.289549 128 128 255 -0.055121 -0.005704 0.998463
-0.565576 -0.564279 0.292538 128 128 255 -0.044138 -0.005818 0.999008
-0.508283 -0.557107 0.294776 128 128 255 -0.032229 -0.005926 0.999463
-0.453210 -0.548680 0.296251 128 128 255 -0.019220 -0.006027 0.999797
-0.400512 -0.539032 0.296954 128 128 255 -0.004908 -0.006121 0.999969
-0.350324 -0.528201 0.296878 128 128 255 0.010948 -0.006207 0.999921
-0.302762 -0.516231 0.296020 128 128 255 0.028633 -0.006283 0.999570
-0.257920 -0.503169 0.294382 128 128 255 0.048488 -0.006348 0.998804
-0.215873 -0.489069 0.291968 128 128 255 0.070922 -0.006400 0.997461
-0.176673 -0.473985 0.288785 128 128 255 0.096424 -0.006436 0.995320
-0.140353 -0.457977 0.284843 128 128 255 0.125578 -0.006454 0.992063
-0.106924 -0.441111 0.280158 128 128 255 0.159077 -0.006448 0.987245
-0.076375 -0.423451 0.274747 128 128 255 0.197725 -0.006415 0.980237
-0.048677 -0.405068 0.268631 128 128 255 0.242425 -0.006346 0.970149
-0.023780 -0.386035 0.261832 128 128 255 0.294130 -0.006232 0.955745
-0.001614 -0.366426 0.254379 128 128 255 0.353716 -0.006062 0.935333
0.017909 -0.346321 0.246301 128 128 255 0.421752 -0.005819 0.906693
0.034896 -0.325797 0.237630 128 128 255 0.498085 -0.005489 0.867111
0.049471 -0.304936 0.228401 128 128 255 0.581282 -0.005056 0.813686
0.061772 -0.283820 0.218653 128 128 255 0.668062 -0.004513 0.744092
0.071957 -0.262534 0.208425 128 128 255 0.753159 -0.003865 0.657827
0.080194 -0.241160 0.197759 128 128 255 0.830164 -0.003145 0.557511
0.086666 -0.219783 0.186700 128 128 255 0.893403 -0.002405 0.449250
0.091567 -0.198489 0.175292 128 128 255 0.939937 -0.001707 0.341343
0.095102 -0.177360 0.163584 128 128 255 0.970298 -0.001106 0.241911
0.097485 -0.156481 0.151624 128 128 255 0.987605 -0.000636 0.156959
0.098937 -0.135933 0.139461 128 128 255 0.995957 -0.000308 0.089831
0.099684 -0.115798 0.127148 128 128 255 0.999126 -0.000112 0.041790
0.099961 -0.096156 0.114734 128 128 255 0.999916 -0.000024 0.012968
0.100000 -0.077084 0.102272 128 128 255 0.999995 -0.000001 0.003167
0.100039 -0.058656 0.089814 128 128 255 0.999924 0.000019 0.012351
0.100316 -0.040947 0.077412 128 128 255 0.999167 0.000136 0.040805
0.101063 -0.024025 0.065118 128 128 255 0.996031 0.000504 0.089010
0.102514 -0.007957 0.052984 128 128 255 0.987572 0.001365 0.157162
0.104896 0.007194 0.041059 128 128 255 0.969690 0.003082 0.244318
0.108430 0.021368 0.029395 128 128 255 0.937740 0.006183 0.347282
0.113329 0.034509 0.018040 128 128 255 0.887953 0.011399 0.459793
0.119799 0.046566 0.007039 128 128 255 0.819342 0.019730 0.572965
0.128032 0.057491 -0.003560 128 128 255 0.734855 0.032637 0.677439
0.138213 0.067242 -0.013716 128 128 255 0.640530 0.052511 0.766136
0.150509 0.075780 -0.023386 128 128 255 0.542961 0.083799 0.835566
0.165078 0.083071 -0.032531 128 128 255 0.446647 0.135624 0.884371
0.182058 0.089087 -0.041113 128 128 255 0.351897 0.228046 0.907835
0.201574 0.093804 -0.049096 128 128 255 0.251700 0.404542 0.879200
0.223732 0.097203 -0.056448 128 128 255 0.130119 0.710442 0.691622
0.248621 0.099271 -0.063139 128 128 255 0.019971 0.959471 0.281097
0.276311 0.099999 -0.069144 128 128 255 0.010921 0.997603 0.068328
0.306853 0.099384 -0.074438 128 128 255 0.074135 0.966223 0.246814
0.340278 0.097429 -0.079002 128 128 255 0.129892 0.765409 0.630299
0.376595 0.094141 -0.082818 128 128 255 0.127072 0.491309 0.861666
0.415795 0.089533 -0.085872 128 128 255 0.100435 0.311137 0.945043
0.457845 0.083624 -0.088155 128 128 255 0.072571 0.208683 0.975287
0.502694 0.076435 -0.089660 128 128 255 0.047805 0.148104 0.987816
0.550268 0.067995 -0.090381 128 128 255 0.026270 0.109896 0.993596
0.600472 0.058339 -0.090321 128 128 255 0.007459 0.084359 0.996408
0.653192 0.047503 -0.089480 128 128 255 -0.009134 0.066459 0.997747
0.708291 0.035531 -0.087867 128 128 255 -0.023926 0.053418 0.998286
0.765614 0.022470 -0.085491 128 128 255 -0.037248 0.043613 0.998354
0.824987 0.008372 -0.082366 128 128 255 -0.049365 0.036046 0.998130
0.886217 -0.006706 -0.078507 128 128 255 -0.060492 0.030077 0.997715
0.949094 -0.022705 -0.073934 128 128 255 -0.070808 0.025280 0.997170
1.013392 -0.039560 -0.068669 128 128 255 -0.080462 0.021365 0.996529
1.078869 -0.057204 -0.062739 128 128 255 -0.089584 0.018124 0.995814
1.145271 -0.075566 -0.056171 128 128 255 -0.098288 0.015410 0.995039
1.212333 -0.094573 -0.048996 128 128 255 -0.106675 0.013114 0.994207
1.279777 -0.114150 -0.041247 128 128 255 -0.114840 0.011153 0.993321
1.347319 -0.134218 -0.032961 128 128 255 -0.122872 0.009463 0.992377
1.414667 -0.154698 -0.024174 128 128 255 -0.130859 0.007998 0.991369
1.481523 -0.175508 -0.014927 128 128 255 -0.138890 0.006719 0.990285
1.547587 -0.196568 -0.005261 128 128 255 -0.147059 0.005595 0.989112
1.612554 -0.217794 0.004781 128 128 255 -0.155466 0.004602 0.987830
1.676122 -0.239103 0.015154 128 128 255 -0.164229 0.003721 0.986415
1.737986 -0.260411 0.025813 128 128 255 -0.173480 0.002935 0.984833
1.797845 -0.281637 0.036711 128 128 255 -0.183381 0.002231 0.983039
1.855402 -0.302697 0.047801 128 128 255 -0.194130 0.001598 0.980974
1.910364 -0.323509 0.059035 128 128 255 -0.205979 0.001027 0.978556
1.962445 -0.343991 0.070365 128 128 255 -0.219256 0.000510 0.975667
2.011366 -0.364064 0.081742 128 128 255 -0.234395 0.000043 0.972142
2.056860 -0.383650 0.093119 128 128 255 -0.251984 -0.000380 0.967731
2.098629 -0.402651 0.104437 128 128 255 -0.261719 -0.000655 0.965144
-1.898684 -0.373105 0.104476 128 128 255 -0.262242 -0.001097 0.965001
-1.856856 -0.390443 0.115819 128 128 255 -0.252165 -0.001341 0.967683
-1.811340 -0.407114 0.127200 128 128 255 -0.234611 -0.001669 0.972088
-1.762393 -0.423052 0.138571 128 128 255 -0.219521 -0.001979 0.975606
-1.710284 -0.438193 0.149884 128 128 255 -0.206302 -0.002270 0.978486
-1.655292 -0.452480 0.161091 128 128 255 -0.194519 -0.002545 0.980895
-1.597703 -0.465855 0.172144 128 128 255 -0.183850 -0.002804 0.982950
-1.537814 -0.478266 0.182995 128 128 255 -0.174044 -0.003047 0.984733
-1.475922 -0.489663 0.193599 128 128 255 -0.164905 -0.003276 0.986304
-1.412330 -0.500000 0.203907 128 128 255 -0.156273 -0.003491 0.987708
-1.347343 -0.509236 0.213876 128 128 255 -0.148018 -0.003693 0.988978
-1.281266 -0.517334 0.223462 128 128 255 -0.140027 -0.003883 0.990140
-1.214404 -0.524259 0.232620 128 128 255 -0.132202 -0.004062 0.991214
-1.147058 -0.529984 0.241312 128 128 255 -0.124454 -0.004231 0.992216
-1.079526 -0.534484 0.249496 128 128 255 -0.116700 -0.004390 0.993158
-1.012097 -0.537741 0.257137 128 128 255 -0.108858 -0.004540 0.994047
-0.945058 -0.539740 0.264199 128 128 255 -0.100850 -0.004683 0.994891
-0.878683 -0.540474 0.270649 128 128 255 -0.092593 -0.004819 0.995692
-0.813236 -0.539938 0.276457 128 128 255 -0.084001 -0.004948 0.996453
-0.748972 -0.538134 0.281595 128 128 255 -0.074979 -0.005071 0.997172
-0.686128 -0.535070 0.286039 128 128 255 -0.065427 -0.005189 0.997844
-0.624930 -0.530757 0.289766 128 128 255 -0.055229 -0.005302 0.998460
-0.565587 -0.525214 0.292757 128 128 255 -0.044255 -0.005409 0.999006
-0.508291 -0.518461 0.294997 128 128 255 -0.032355 -0.005511 0.999461
-0.453215 -0.510528 0.296473 128 128 255 -0.019356 -0.005607 0.999797
-0.400515 -0.501445 0.297176 128 128 255 -0.005054 -0.005696 0.999971
-0.350325 -0.491249 0.297099 128 128 255 0.010790 -0.005778 0.999925
-0.302761 -0.479981 0.296240 128 128 255 0.028464 -0.005852 0.999578
-0.257918 -0.467686 0.294600 128 128 255 0.048306 -0.005915 0.998815
-0.215870 -0.454413 0.292183 128 128 255 0.070727 -0.005967 0.997478
-0.176670 -0.440215 0.288995 128 128 255 0.096216 -0.006004 0.995342
-0.140350 -0.425148 0.285049 128 128 255 0.125357 -0.006025 0.992093
-0.106920 -0.409272 0.280359 128 128 255 0.158845 -0.006024 0.987285
-0.076372 -0.392650 0.274942 128 128 255 0.197482 -0.005997 0.980288
-0.048674 -0.375348 0.268818 128 128 255 0.242175 -0.005937 0.970214
-0.023777 -0.357434 0.262012 128 128 255 0.293877 -0.005836 0.955826
-0.001612 -0.338979 0.254550 128 128 255 0.353468 -0.005683 0.935429
0.017911 -0.320056 0.246463 128 128 255 0.421517 -0.005462 0.906804
0.034898 -0.300740 0.237782 128 128 255 0.497877 -0.005160 0.867232
0.049472 -0.281107 0.228544 128 128 255 0.581113 -0.004761 0.813809
0.061773 -0.261234 0.218785 128 128 255 0.667943 -0.004258 0.744200
0.071958 -0.241200 0.208546 128 128 255 0.753094 -0.003656 0.657902
0.080195 -0.221084 0.197869 128 128 255 0.830145 -0.002985 0.557539
0.086666 -0.200965 0.186797 128 128 255 0.893414 -0.002291 0.449228
0.091568 -0.180924 0.175377 128 128 255 0.939960 -0.001635 0.341280
0.095103 -0.161039 0.163656 128 128 255 0.970319 -0.001067 0.241827
0.097485 -0.141388 0.151683 128 128 255 0.987618 -0.000619 0.156876
0.098937 -0.122050 0.139507 128 128 255 0.995963 -0.000304 0.089766
0.099684 -0.103100 0.127180 128 128 255 0.999128 -0.000113 0.041751
0.099961 -0.084614 0.114752 128 128 255 0.999916 -0.000025 0.012952
0.100000 -0.066664 0.102276 128 128 255 0.999995 -0.000002 0.003163
0.100039 -0.049321 0.089805 128 128 255 0.999924 0.000014 0.012329
0.100316 -0.032654 0.077389 128 128 255 0.999171 0.000111 0.040719
0.101063 -0.016728 0.065081 128 128 255 0.996051 0.000432 0.088784
0.102514 -0.001605 0.052933 128 128 255 0.987646 0.001197 0.156695
0.104896 0.012654 0.040995 128 128 255 0.969902 0.002739 0.243480
0.108430 0.025993 0.029318 128 128 255 0.938241 0.005540 0.345939
0.113329 0.038361 0.017949 128 128 255 0.888965 0.010274 0.457860
0.119799 0.049709 0.006937 128 128 255 0.821131 0.017864 0.570460
0.128032 0.059992 -0.003675 128 128 255 0.737674 0.029659 0.674506
0.138213 0.069169 -0.013842 128 128 255 0.644583 0.047870 0.763034
0.150509 0.077205 -0.023523 128 128 255 0.548448 0.076602 0.832669
0.165078 0.084067 -0.032678 128 128 255 0.453883 0.124327 0.882345
0.182058 0.089729 -0.041269 128 128 255 0.361561 0.209942 0.908404
0.201574 0.094169 -0.049261 128 128 255 0.265106 0.376230 0.887790
0.223732 0.097368 -0.056620 128 128 255 0.146725 0.680118 0.718269
0.248621 0.099314 -0.063319 128 128 255 0.028839 0.952687 0.302583
0.276311 0.099999 -0.069329 128 128 255 0.012145 0.997184 0.073997
0.306853 0.099420 -0.074628 128 128 255 0.074452 0.961130 0.265868
0.340278 0.097580 -0.079196 128 128 255 0.128225 0.740281 0.659956
0.376595 0.094486 -0.083016 128 128 255 0.122741 0.462576 0.878042
0.415795 0.090149 -0.086073 128 128 255 0.095974 0.289745 0.952280
0.457845 0.084587 -0.088357 128 128 255 0.068747 0.193556 0.978678
0.502694 0.077821 -0.089862 128 128 255 0.044635 0.137147 0.989545
0.550268 0.069878 -0.090584 128 128 255 0.023637 0.101689 0.994535
0.600472 0.060789 -0.090522 128 128 255 0.005251 0.078029 0.996937
0.653192 0.050591 -0.089679 128 128 255 -0.011009 0.061457 0.998049
0.708291 0.039323 -0.088064 128 128 255 -0.025534 0.049389 0.998453
0.765614 0.027030 -0.085684 128 128 255 -0.038642 0.040317 0.998439
0.824987 0.013762 -0.082554 128 128 255 -0.050583 0.033316 0.998164
0.886218 -0.000430 -0.078689 128 128 255 -0.061565 0.027794 0.997716
0.949095 -0.015487 -0.074110 128 128 255 -0.071759 0.023357 0.997148
1.013392 -0.031351 -0.068839 128 128 255 -0.081311 0.019735 0.996493
1.078870 -0.047957 -0.062901 128 128 255 -0.090345 0.016738 0.995770
1.145273 -0.065239 -0.056325 128 128 255 -0.098974 0.014227 0.994988
1.212336 -0.083128 -0.049141 128 128 255 -0.107296 0.012102 0.994153
1.279781 -0.101553 -0.041383 128 128 255 -0.115405 0.010289 0.993265
1.347324 -0.120441 -0.033087 128 128 255 -0.123388 0.008727 0.992320
1.414673 -0.139716 -0.024290 128 128 255 -0.131331 0.007372 0.991311
1.481531 -0.159303 -0.015032 128 128 255 -0.139324 0.006189 0.990227
1.547596 -0.179124 -0.005354 128 128 255 -0.147459 0.005151 0.989055
1.612564 -0.199102 0.004699 128 128 255 -0.155837 0.004233 0.987774
1.676133 -0.219158 0.015084 128 128 255 -0.164574 0.003418 0.986359
1.737999 -0.239213 0.025755 128 128 255 -0.173802 0.002692 0.984777
1.797859 -0.259191 0.036665 128 128 255 -0.183683 0.002041 0.982983
1.855417 -0.279012 0.047767 128 128 255 -0.194415 0.001457 0.980918
1.910379 -0.298600 0.059013 128 128 255 -0.206249 0.000930 0.978499
1.962460 -0.317877 0.070356 128 128 255 -0.219513 0.000453 0.975610
2.011381 -0.336770 0.081745 128 128 255 -0.234641 0.000022 0.972082
2.056875 -0.355203 0.093135 128 128 255 -0.252222 -0.000368 0.967669
2.098644 -0.373087 0.104465 128 128 255 -0.261957 -0.000621 0.965079
-1.898698 -0.343539 0.104502 128 128 255 -0.262441 -0.001033 0.964948
-1.856873 -0.359795 0.115856 128 128 255 -0.252352 -0.001258 0.967635
-1.811359 -0.375424 0.127248 128 128 255 -0.234773 -0.001559 0.972049
-1.762415 -0.390367 0.138630 128 128 255 -0.219663 -0.001843 0.975574
-1.710309 -0.404563 0.149954 128 128 255 -0.206427 -0.002111 0.978460
-1.655319 -0.417958 0.161172 128 128 255 -0.194631 -0.002363 0.980874
-1.597734 -0.430499 0.172235 128 128 255 -0.183951 -0.002601 0.982932
-1.537847 -0.442135 0.183097 128 128 255 -0.174136 -0.002824 0.984718
-1.475957 -0.452821 0.193711 128 128 255 -0.164989 -0.003034 0.986291
-1.412367 -0.462514 0.204029 128 128 255 -0.156352 -0.003232 0.987696
-1.347381 -0.471174 0.214008 128 128 255 -0.148093 -0.003417 0.988968
-1.281305 -0.478766 0.223602 128 128 255 -0.140099 -0.003592 0.990131
-1.214442 -0.485260 0.232769 128 128 255 -0.132272 -0.003756 0.991206
-1.147095 -0.490627 0.241469 128 128 255 -0.124523 -0.003910 0.992209
-1.079561 -0.494846 0.249661 128 128 255 -0.116769 -0.004056 0.993151
-1.012130 -0.497899 0.257309 128 128 255 -0.108929 -0.004195 0.994041
-0.945088 -0.499774 0.264377 128 128 255 -0.100924 -0.004325 0.994885
-0.878710 -0.500460 0.270833 128 128 255 -0.092670 -0.004451 0.995687
-0.813260 -0.499957 0.276646 128 128 255 -0.084082 -0.004570 0.996448
-0.748991 -0.498264 0.281789 128 128 255 -0.075067 -0.004684 0.997167
-0.686144 -0.495390 0.286236 128 128 255 -0.065521 -0.004793 0.997840
-0.624943 -0.491345 0.289966 128 128 255 -0.055330 -0.004898 0.998456
-0.565597 -0.486146 0.292960 128 128 255 -0.044364 -0.004998 0.999003
-0.508297 -0.479813 0.295202 128 128 255 -0.032473 -0.005094 0.999460
-0.453219 -0.472374 0.296679 128 128 255 -0.019484 -0.005184 0.999797
-0.400516 -0.463856 0.297382 128 128 255 -0.005193 -0.005269 0.999973
-0.350324 -0.454295 0.297305 128 128 255 0.010641 -0.005348 0.999929
-0.302759 -0.443729 0.296445 128 128 255 0.028302 -0.005418 0.999585
-0.257915 -0.432201 0.294802 128 128 255 0.048133 -0.005480 0.998826
-0.215867 -0.419756 0.292382 128 128 255 0.070541 -0.005531 0.997494
-0.176666 -0.406444 0.289191 128 128 255 0.096017 -0.005570 0.995364
-0.140346 -0.392318 0.285241 128 128 255 0.125146 -0.005593 0.992123
-0.106916 -0.377434 0.280546 128 128 255 0.158621 -0.005596 0.987324
-0.076368 -0.361850 0.275122 128 128 255 0.197248 -0.005576 0.980338
-0.048671 -0.345629 0.268992 128 128 255 0.241934 -0.005526 0.970277
-0.023774 -0.328835 0.262179 128 128 255 0.293631 -0.005438 0.955903
-0.001609 -0.311533 0.254710 128 128 255 0.353225 -0.005301 0.935523
0.017913 -0.293793 0.246615 128 128 255 0.421287 -0.005103 0.906913
0.034899 -0.275684 0.237925 128 128 255 0.497670 -0.004828 0.867353
0.049473 -0.257278 0.228678 128 128 255 0.580943 -0.004464 0.813932
0.061774 -0.238648 0.218909 128 128 255 0.667820 -0.004002 0.744312
0.071958 -0.219866 0.208660 128 128 255 0.753023 -0.003447 0.657985
0.080195 -0.201008 0.197972 128 128 255 0.830119 -0.002823 0.557579
0.086667 -0.182148 0.186890 128 128 255 0.893419 -0.002177 0.449220
0.091568 -0.163360 0.175458 128 128 255 0.939978 -0.001562 0.341232
0.095103 -0.144718 0.163726 128 128 255 0.970336 -0.001027 0.241756
0.097485 -0.126297 0.151741 128 128 255 0.987630 -0.000603 0.156804
0.098937 -0.108168 0.139553 128 128 255 0.995968 -0.000300 0.089708
0.099684 -0.090403 0.127213 128 128 255 0.999130 -0.000115 0.041715
0.099961 -0.073073 0.114773 128 128 255 0.999916 -0.000027 0.012938
0.100000 -0.056245 0.102284 128 128 255 0.999995 -0.000003 0.003158
0.100039 -0.039987 0.089799 128 128 255 0.999924 0.000008 0.012309
0.100316 -0.024361 0.077371 128 128 255 0.999174 0.000087 0.040639
0.101063 -0.009431 0.065050 128 128 255 0.996069 0.000361 0.088577
0.102514 0.004746 0.052889 128 128 255 0.987715 0.001029 0.156263
0.104896 0.018113 0.040939 128 128 255 0.970097 0.002397 0.242705
0.108430 0.030619 0.029249 128 128 255 0.938699 0.004903 0.344703
0.113329 0.042214 0.017868 128 128 255 0.889891 0.009162 0.456080
0.119799 0.052852 0.006844 128 128 255 0.822769 0.016022 0.568150
0.128032 0.062492 -0.003779 128 128 255 0.740256 0.026722 0.671794
0.138213 0.071096 -0.013957 128 128 255 0.648298 0.043290 0.760155
0.150509 0.078629 -0.023649 128 128 255 0.553480 0.069491 0.829958
