ply
format ascii 1.0
element vertex 692
property float x
property float y
property float z
property uchar red
property uchar green
property uchar blue
property float nx
property float ny
property float nz
end_header
0.056988 -0.261591 0.958085 128 128 255 0.309778 -0.858532 0.408609
0.100000 -0.261543 0.933722 128 128 255 0.252794 -0.868429 0.426529
0.143012 -0.261591 0.907140 128 128 255 0.374228 -0.825947 0.421622
0.161768 -0.261734 0.878527 128 128 255 0.596714 -0.704731 0.383778
0.180555 -0.261970 0.848096 128 128 255 0.635297 -0.667307 0.388715
0.199389 -0.262298 0.816088 128 128 255 0.671804 -0.626570 0.395081
0.218284 -0.262714 0.782767 128 128 255 0.705952 -0.582490 0.402910
0.237253 -0.263215 0.748412 128 128 255 0.969236 0.195655 -0.149337
0.207765 -0.263797 0.713321 128 128 255 0.961299 0.234126 -0.145220
0.226921 -0.264456 0.677796 128 128 255 0.752116 -0.466127 0.465883
0.246185 -0.265187 0.649613 128 128 255 0.151334 -0.687179 0.710551
0.265568 -0.265984 0.666540 128 128 255 -0.524519 -0.628937 0.573863
0.285077 -0.266844 0.683460 128 128 255 -0.500442 -0.670273 0.547989
0.304720 -0.267761 0.700241 128 128 255 -0.475123 -0.706423 0.524619
0.324504 -0.268731 0.716748 128 128 255 -0.220748 -0.804884 0.550847
0.392976 -0.269749 0.732844 128 128 255 -0.209220 -0.819572 0.533412
0.413055 -0.270811 0.748394 128 128 255 -0.394765 -0.790105 0.468928
0.433286 -0.271913 0.763260 128 128 255 -0.367096 -0.811413 0.454808
0.453674 -0.273051 0.777312 128 128 255 -0.339134 -0.830060 0.442707
0.474221 -0.274221 0.790419 128 128 255 -0.310917 -0.846325 0.432510
0.494928 -0.275419 0.802459 128 128 255 -0.881352 0.414970 -0.225872
0.467252 -0.276644 0.813317 128 128 255 -0.876133 0.420581 -0.235590
0.488283 -0.277891 0.822885 128 128 255 -0.224774 -0.882830 0.412418
0.509476 -0.279157 0.831068 128 128 255 0.271682 -0.956549 0.105842
0.530832 -0.280441 0.837782 128 128 255 -0.037354 -0.996343 -0.076841
0.552350 -0.281739 0.842954 128 128 255 -0.041394 -0.996299 -0.075337
0.574030 -0.283050 0.846527 128 128 255 -0.021565 -0.999599 0.018377
0.644414 -0.284370 0.848459 128 128 255 -0.022821 -0.986475 -0.162316
0.666412 -0.285699 0.848720 128 128 255 -0.052165 -0.995958 -0.073121
0.688568 -0.287033 0.847301 128 128 255 -0.055385 -0.995783 -0.073136
0.710878 -0.288372 0.844206 128 128 255 -0.058460 -0.995577 -0.073545
0.733342 -0.289714 0.839454 128 128 255 -0.283660 0.302999 -0.909796
0.707412 -0.291056 0.833084 128 128 255 -0.264919 0.419805 0.868091
0.730174 -0.292398 0.825147 128 128 255 -0.067074 -0.994736 -0.077468
0.753082 -0.293738 0.815713 128 128 255 -0.069846 -0.994355 -0.079867
0.776132 -0.295074 0.804865 128 128 255 -0.072634 -0.993902 -0.082968
0.799321 -0.296406 0.792700 128 128 255 -0.075496 -0.993351 -0.086920
0.822646 -0.297731 0.779329 128 128 255 -0.038936 -0.998466 0.039375
0.894649 -0.299050 0.764876 128 128 255 0.181221 -0.927720 -0.326336
0.918236 -0.251816 0.749474 128 128 255 0.328363 -0.881730 -0.338718
0.941949 -0.253117 0.733268 128 128 255 -0.180368 -0.976532 -0.117701
0.965784 -0.254408 0.716411 128 128 255 -0.198100 -0.971310 -0.131581
0.989737 -0.255688 0.699061 128 128 255 -0.437865 -0.001348 0.899040
0.965260 -0.256956 0.681385 128 128 255 -0.403306 0.230710 -0.885504
0.989438 -0.258211 0.663550 128 128 255 0.383545 -0.904852 -0.184758
1.013724 -0.259453 0.683152 128 128 255 0.330005 -0.929880 -0.162542
1.038112 -0.260682 0.717676 128 128 255 0.191704 -0.971320 -0.140668
1.062601 -0.261895 0.751812 128 128 255 0.076158 -0.945439 -0.316774
1.135729 -0.263094 0.785300 128 128 255 0.065559 -0.994636 0.080003
1.160405 -0.264278 0.817886 128 128 255 0.097391 -0.990728 -0.094727
1.185171 -0.265446 0.849324 128 128 255 0.076285 -0.993431 -0.085298
1.210021 -0.266597 0.879376 128 128 255 0.058300 -0.995276 -0.077635
1.234954 -0.267733 0.907816 128 128 255 0.161487 -0.216720 0.962785
1.211422 -0.268853 0.934431 128 128 255 0.111322 -0.277157 -0.954354
1.236512 -0.269956 0.959020 128 128 255 0.016913 -0.997944 -0.061820
1.261675 -0.271043 0.981401 128 128 255 0.005960 -0.998286 -0.058216
1.286910 -0.272115 1.001406 128 128 255 0.137868 -0.974390 0.177642
1.312215 -0.273170 1.018885 128 128 255 -0.186543 -0.833095 0.520726
1.386133 -0.274210 1.033711 128 128 255 -0.154125 -0.842363 0.516401
1.408181 -0.274182 1.045960 128 128 255 -0.245123 -0.828833 0.502941
1.429132 -0.273820 1.055401 128 128 255 -0.178006 -0.842250 0.508850
1.450019 -0.273452 1.061905 128 128 255 -0.144127 -0.849520 0.507487
-1.250381 -0.251459 0.779170 128 128 255 0.862697 -0.249614 -0.439825
-1.229487 -0.251807 0.818466 128 128 255 0.524311 -0.814562 -0.248165
-1.208530 -0.252148 0.856910 128 128 255 0.408854 -0.873124 -0.265504
-1.185125 -0.251771 0.894392 128 128 255 0.146397 -0.863388 -0.482834
-1.111192 -0.250779 0.930659 128 128 255 -0.516149 -0.762282 0.390534
-1.085871 -0.298316 0.965359 128 128 255 -0.742604 -0.606647 0.283758
-1.060620 -0.297294 0.998267 128 128 255 0.175259 -0.976961 -0.121783
-1.035441 -0.296256 1.029170 128 128 255 0.160709 -0.980619 -0.112066
-1.010336 -0.295202 1.057866 128 128 255 0.358825 0.081150 -0.929870
-1.033852 -0.294132 1.084172 128 128 255 0.369746 0.034898 0.928477
-1.008903 -0.293047 1.107919 128 128 255 0.128899 -0.987059 -0.095391
-0.984036 -0.291945 1.128958 128 128 255 0.120410 -0.988405 -0.092509
-0.959255 -0.290829 1.147161 128 128 255 0.112430 -0.989523 -0.090570
-0.934564 -0.289697 1.162417 128 128 255 0.052703 -0.996864 0.059031
-0.861420 -0.288550 1.174640 128 128 255 0.047293 -0.973383 -0.224250
-0.836917 -0.287388 1.183764 128 128 255 0.089521 -0.991968 -0.089365
-0.812515 -0.286213 1.189750 128 128 255 0.081687 -0.992555 -0.090341
-0.788216 -0.285023 1.192578 128 128 255 0.073506 -0.993043 -0.091995
-0.764024 -0.283821 1.192254 128 128 255 0.221674 -0.066038 -0.972882
-0.788489 -0.282606 1.188809 128 128 255 0.190108 0.087722 0.977836
-0.764524 -0.281379 1.182295 128 128 255 0.045277 -0.993807 -0.101474
-0.740679 -0.280142 1.172789 128 128 255 0.033989 -0.993739 -0.106430
-0.716956 -0.278894 1.160391 128 128 255 0.021340 -0.993420 -0.112526
-0.693360 -0.277637 1.145222 128 128 255 0.039506 -0.805115 0.591802
-0.621350 -0.276372 1.127425 128 128 255 0.276685 -0.710349 0.647187
-0.598018 -0.275099 1.107162 128 128 255 0.561710 -0.594710 0.575154
-0.574823 -0.273820 1.084616 128 128 255 0.612517 -0.546619 0.570991
-0.551769 -0.272536 1.059983 128 128 255 0.658173 -0.495223 0.567065
-0.528858 -0.271248 1.033481 128 128 255 0.698553 -0.441045 0.563475
-0.506094 -0.269957 1.005336 128 128 255 0.996348 -0.065691 -0.054543
-0.532024 -0.268665 0.975790 128 128 255 0.998173 0.004551 -0.060253
-0.509562 -0.267373 0.945093 128 128 255 0.787492 -0.266673 0.555645
-0.487254 -0.266083 0.913504 128 128 255 0.806398 -0.206094 0.554300
-0.465103 -0.264795 0.881289 128 128 255 0.819985 -0.144964 0.553724
-0.443111 -0.263513 0.848715 128 128 255 0.320362 -0.089286 0.943078
-0.372736 -0.262238 0.849199 128 128 255 -0.272906 -0.075432 0.959079
-0.351067 -0.260971 0.874485 128 128 255 -0.750706 -0.110035 0.651409
-0.329561 -0.259714 0.899458 128 128 255 -0.733412 -0.207186 0.647442
-0.308220 -0.258471 0.923902 128 128 255 -0.706178 -0.302259 0.640275
-0.287044 -0.257242 0.947604 128 128 255 -0.669646 -0.393200 0.630054
-0.266033 -0.256031 0.970350 128 128 255 -0.961824 0.226593 -0.153461
-0.293732 -0.254841 0.991936 128 128 255 -0.966234 0.186732 -0.177547
-0.273051 -0.253674 1.012158 128 128 255 -0.516013 -0.625551 0.585164
-0.252533 -0.252533 1.030823 128 128 255 -0.454847 -0.686502 0.567300
-0.232178 -0.251422 1.047743 128 128 255 -0.390995 -0.738785 0.548926
-0.211983 -0.250345 1.062740 128 128 255 -0.325594 -0.782647 0.530521
-0.191946 -0.249304 1.075645 128 128 255 -0.118993 -0.845315 0.520849
-0.123517 -0.248305 1.086301 128 128 255 -0.088126 -0.860014 0.502603
-0.103783 -0.247351 1.094559 128 128 255 -0.128277 -0.868607 0.478610
-0.084194 -0.246447 1.100286 128 128 255 -0.063907 -0.883967 0.463161
-0.064743 -0.245598 1.103362 128 128 255 -0.000754 -0.893605 0.448854
-0.045424 -0.244809 1.103679 128 128 255 0.061023 -0.897997 0.435749
-0.026228 -0.244085 1.101149 128 128 255 0.121320 -0.897557 0.423878
-0.007146 -0.243430 1.095701 128 128 255 0.565542 0.743668 -0.356539
-0.036712 -0.242851 1.087285 128 128 255 0.656454 0.683785 -0.318601
-0.017825 -0.242351 1.075875 128 128 255 0.292707 -0.870451 0.395775
0.000983 -0.241936 1.061470 128 128 255 0.346472 -0.853641 0.388915
0.019727 -0.241608 1.044100 128 128 255 0.398430 -0.833263 0.383310
0.038422 -0.241372 1.023826 128 128 255 0.448478 -0.809476 0.378966
0.057083 -0.241229 1.000744 128 128 255 0.329012 -0.850236 0.410913
0.100000 -0.241181 0.974986 128 128 255 0.270019 -0.862134 0.428737
0.142917 -0.241229 0.946720 128 128 255 0.398841 -0.815131 0.420104
0.161578 -0.241372 0.916150 128 128 255 0.626936 -0.683158 0.374496
0.180273 -0.241608 0.883512 128 128 255 0.665366 -0.644488 0.376728
0.199017 -0.241936 0.849073 128 128 255 0.701006 -0.603247 0.380373
0.217825 -0.242351 0.813127 128 128 255 0.733695 -0.559551 0.385480
0.236712 -0.242851 0.775987 128 128 255 0.971844 0.189303 -0.140298
0.207146 -0.243430 0.737983 128 128 255 0.965167 0.223329 -0.136295
0.226228 -0.244085 0.699453 128 128 255 0.775424 -0.451862 0.441066
0.245424 -0.244809 0.668999 128 128 255 0.147980 -0.698400 0.700243
0.264743 -0.245598 0.688397 128 128 255 -0.570602 -0.612720 0.546798
0.284194 -0.246447 0.707745 128 128 255 -0.547055 -0.650507 0.526850
0.303783 -0.247351 0.726896 128 128 255 -0.521868 -0.684608 0.508887
0.323517 -0.248305 0.745700 128 128 255 -0.249101 -0.795799 0.551954
0.391946 -0.249304 0.764004 128 128 255 -0.235927 -0.810371 0.536318
0.411983 -0.250345 0.781654 128 128 255 -0.438686 -0.768236 0.466228
0.432178 -0.251422 0.798498 128 128 255 -0.408917 -0.790770 0.455489
0.452533 -0.252533 0.814386 128 128 255 -0.378292 -0.810961 0.446360
0.473051 -0.253674 0.829173 128 128 255 -0.346872 -0.828951 0.438772
0.493732 -0.254841 0.842720 128 128 255 -0.905558 0.366243 -0.214078
0.466033 -0.256031 0.854896 128 128 255 -0.895617 0.384565 -0.223561
0.487044 -0.257242 0.865582 128 128 255 -0.248245 -0.870635 0.424698
0.508220 -0.258471 0.874669 128 128 255 -0.213983 -0.880611 0.422771
0.529561 -0.259714 0.882063 128 128 255 -0.179038 -0.888652 0.422187
0.551067 -0.260971 0.887681 128 128 255 -0.143407 -0.894738 0.422940
0.572736 -0.262238 0.891461 128 128 255 -0.051109 -0.901380 0.430001
0.643111 -0.263513 0.893354 128 128 255 -0.033132 -0.903118 0.428113
0.665103 -0.264795 0.893330 128 128 255 -0.032267 -0.900661 0.433322
0.687254 -0.266083 0.891375 128 128 255 0.006250 -0.898182 0.439580
0.709562 -0.267373 0.887497 128 128 255 0.045526 -0.893221 0.447307
0.732024 -0.268665 0.881720 128 128 255 0.777688 0.532273 -0.334495
0.706094 -0.269957 0.874085 128 128 255 0.786666 0.579096 -0.214019
0.728858 -0.271248 0.864653 128 128 255 0.167914 -0.861116 0.479879
0.751769 -0.272536 0.853504 128 128 255 0.210137 -0.843641 0.494077
0.774823 -0.273820 0.840730 128 128 255 0.252942 -0.822118 0.510041
0.798018 -0.275099 0.826444 128 128 255 0.296174 -0.796054 0.527805
0.821350 -0.276372 0.810771 128 128 255 0.174729 -0.799456 0.574753
0.893360 -0.277637 0.793850 128 128 255 0.195389 -0.783026 0.590502
0.916956 -0.278894 0.775835 128 128 255 0.445888 -0.872855 0.198263
0.940679 -0.280142 0.756888 128 128 255 -0.108830 -0.985940 -0.126799
0.964524 -0.281379 0.737182 128 128 255 -0.117233 -0.982956 -0.141614
0.988489 -0.282606 0.716898 128 128 255 -0.254253 0.017180 -0.966985
0.964024 -0.283821 0.696223 128 128 255 -0.230502 0.251578 0.939988
0.988216 -0.285023 0.675349 128 128 255 -0.490429 -0.852540 -0.180705
1.012515 -0.286213 0.695860 128 128 255 -0.060929 -0.982231 -0.177513
1.036917 -0.287388 0.732861 128 128 255 0.136003 -0.979620 -0.147814
1.061420 -0.288550 0.769422 128 128 255 0.058047 -0.994562 0.086466
1.134564 -0.289697 0.805260 128 128 255 0.046554 -0.951078 -0.305425
1.159255 -0.290829 0.840099 128 128 255 0.074830 -0.992091 -0.100775
1.184036 -0.291945 0.873671 128 128 255 0.061214 -0.993964 -0.091039
1.208903 -0.293047 0.905719 128 128 255 0.049703 -0.995301 -0.083101
1.233852 -0.294132 0.935997 128 128 255 0.138004 -0.219911 -0.965709
1.210336 -0.295202 0.964274 128 128 255 0.115840 -0.271205 0.955526
1.235441 -0.296256 0.990332 128 128 255 0.023904 -0.997491 -0.066642
1.260620 -0.297294 1.013975 128 128 255 0.017366 -0.997870 -0.062884
1.285871 -0.298316 1.035020 128 128 255 0.619702 -0.754712 -0.215357
1.311191 -0.250779 1.053308 128 128 255 0.362779 -0.894715 -0.260533
1.385125 -0.251771 1.068700 128 128 255 -0.004376 -0.997958 0.063719
1.408530 -0.252148 1.081193 128 128 255 0.019062 -0.998128 -0.058106
1.429487 -0.251807 1.090702 128 128 255 0.022404 -0.997537 -0.066472
1.450381 -0.251459 1.097016 128 128 255 -0.035979 -0.985128 0.168013
-1.250721 -0.277992 0.783571 128 128 255 -0.837979 -0.375615 0.395859
-1.229821 -0.278319 0.825081 128 128 255 0.450573 -0.852389 -0.265361
-1.208858 -0.278641 0.865713 128 128 255 0.358412 -0.921920 -0.146986
-1.184164 -0.277926 0.905415 128 128 255 0.143858 -0.966950 0.210504
-1.110216 -0.276983 0.943766 128 128 255 0.118057 -0.882531 -0.455194
-1.084881 -0.276026 0.980468 128 128 255 -0.777594 -0.419216 0.468621
-1.059615 -0.275054 1.015276 128 128 255 -0.736926 -0.374456 0.562781
-1.034420 -0.274066 1.047960 128 128 255 -0.699533 -0.427058 0.572953
-1.009300 -0.273064 1.078304 128 128 255 -0.999243 0.026842 0.028170
-1.032800 -0.272046 1.106108 128 128 255 -0.999482 0.019352 0.025727
-1.007835 -0.271012 1.131191 128 128 255 -0.548519 -0.577094 0.605053
-0.982953 -0.269964 1.153391 128 128 255 -0.484688 -0.621763 0.615214
-0.958157 -0.268901 1.172568 128 128 255 -0.414305 -0.662105 0.624474
-0.933451 -0.267822 1.188604 128 128 255 -0.177318 -0.731075 0.658853
-0.860293 -0.266730 1.201405 128 128 255 -0.130803 -0.749107 0.649406
-0.835776 -0.265623 1.210900 128 128 255 -0.170453 -0.746674 0.642980
-0.811359 -0.264502 1.217045 128 128 255 -0.081944 -0.759752 0.645029
-0.787047 -0.263368 1.219820 128 128 255 0.007753 -0.764355 0.644749
-0.762843 -0.262221 1.219231 128 128 255 0.980848 -0.190516 -0.040504
-0.787296 -0.261062 1.215309 128 128 255 0.992670 0.110742 -0.048397
-0.763320 -0.259891 1.208113 128 128 255 0.268215 -0.728048 0.630878
-0.739464 -0.258710 1.197724 128 128 255 0.347574 -0.700949 0.622787
-0.715732 -0.257518 1.184250 128 128 255 0.421512 -0.667717 0.613581
-0.692127 -0.256317 1.167823 128 128 255 0.271648 -0.680065 0.680969
-0.620109 -0.255108 1.148596 128 128 255 0.308541 -0.666732 0.678432
-0.596770 -0.253891 1.126746 128 128 255 0.606197 -0.540715 0.583225
-0.573569 -0.252668 1.102467 128 128 255 0.654977 -0.492201 0.573361
-0.550510 -0.251439 1.075976 128 128 255 0.697560 -0.441820 0.564097
-0.527596 -0.250206 1.047504 128 128 255 0.734197 -0.390140 0.555649
-0.504829 -0.248970 1.017299 128 128 255 0.996567 -0.065314 -0.050881
-0.530758 -0.247732 0.985621 128 128 255 0.998408 -0.002827 -0.056335
-0.508296 -0.246492 0.952742 128 128 255 0.811345 -0.231481 0.536783
-0.485991 -0.245254 0.918941 128 128 255 0.827068 -0.178364 0.533053
-0.463843 -0.244018 0.884507 128 128 255 0.838184 -0.125461 0.530761
-0.441856 -0.242786 0.849728 128 128 255 0.334636 -0.072450 0.939558
-0.371488 -0.241558 0.850947 128 128 255 -0.308076 -0.055929 0.949716
-0.349827 -0.240339 0.879184 128 128 255 -0.788197 -0.082048 0.609929
-0.328333 -0.239128 0.907125 128 128 255 -0.775758 -0.167348 0.608436
-0.307005 -0.237928 0.934533 128 128 255 -0.754765 -0.252471 0.605465
-0.285844 -0.236742 0.961175 128 128 255 -0.725235 -0.336134 0.600873
-0.264851 -0.235571 0.986820 128 128 255 -0.971604 0.193322 -0.136430
-0.292570 -0.234418 1.011244 128 128 255 -0.974041 0.163340 -0.156732
-0.271913 -0.233286 1.034226 128 128 255 -0.589291 -0.565518 0.576997
-0.251422 -0.232178 1.055554 128 128 255 -0.530628 -0.631000 0.565927
-0.231097 -0.231097 1.075024 128 128 255 -0.466929 -0.689569 0.553598
-0.210936 -0.230047 1.092442 128 128 255 -0.399307 -0.740722 0.540264
-0.190936 -0.229031 1.107622 128 128 255 -0.153146 -0.825121 0.543804
-0.122550 -0.228053 1.120391 128 128 255 -0.117827 -0.843156 0.524600
-0.102862 -0.227118 1.130586 128 128 255 -0.183569 -0.848126 0.496976
-0.083324 -0.226230 1.138059 128 128 255 -0.110480 -0.868989 0.482340
-0.063929 -0.225394 1.142672 128 128 255 -0.038056 -0.882912 0.467994
-0.044670 -0.224615 1.144305 128 128 255 0.033145 -0.890319 0.454129
-0.025541 -0.223898 1.142854 128 128 255 0.102673 -0.891658 0.440913
-0.006530 -0.223250 1.138232 128 128 255 0.535965 0.755215 -0.377348
-0.036173 -0.222674 1.130376 128 128 255 0.646031 0.687130 -0.332410
-0.017367 -0.222176 1.119246 128 128 255 0.298076 -0.863697 0.406421
0.001355 -0.221762 1.104830 128 128 255 0.358068 -0.845104 0.396971
0.020010 -0.221435 1.087149 128 128 255 0.415214 -0.822514 0.388674
0.038612 -0.221198 1.066259 128 128 255 0.469383 -0.796284 0.381590
0.057179 -0.221055 1.042256 128 128 255 0.347425 -0.841057 0.414631
0.100000 -0.221007 1.015275 128 128 255 0.286651 -0.854960 0.432290
0.142821 -0.221055 0.985496 128 128 255 0.422241 -0.803471 0.419698
0.161388 -0.221198 0.953138 128 128 255 0.654205 -0.661643 0.366393
0.179990 -0.221435 0.918461 128 128 255 0.692072 -0.622098 0.366101
0.198645 -0.221762 0.881759 128 128 255 0.726514 -0.580745 0.367304
0.217367 -0.222176 0.843355 128 128 255 0.757515 -0.537803 0.370053
0.236173 -0.222674 0.803597 128 128 255 0.973868 0.184094 -0.133003
0.206530 -0.223250 0.762848 128 128 255 0.968216 0.214243 -0.129061
0.225541 -0.223898 0.721485 128 128 255 0.794772 -0.438804 0.419272
0.244670 -0.224615 0.688865 128 128 255 0.148707 -0.707967 0.690413
0.263929 -0.225394 0.710427 128 128 255 -0.606601 -0.597913 0.523961
0.283324 -0.226230 0.731902 128 128 255 -0.584684 -0.631620 0.509118
0.302862 -0.227118 0.753131 128 128 255 -0.560778 -0.663007 0.495933
0.322550 -0.228053 0.773951 128 128 255 -0.275053 -0.784972 0.555126
0.390936 -0.229031 0.794194 128 128 255 -0.260678 -0.799331 0.541402
0.410936 -0.230047 0.813692 128 128 255 -0.478278 -0.744666 0.465535
0.431097 -0.231097 0.832277 128 128 255 -0.447475 -0.767989 0.458213
0.451422 -0.232178 0.849784 128 128 255 -0.415142 -0.789417 0.452193
0.471913 -0.233286 0.866051 128 128 255 -0.381339 -0.808947 0.447422
0.492570 -0.234418 0.880926 128 128 255 -0.923931 0.322947 -0.205077
0.464851 -0.235571 0.894263 128 128 255 -0.910723 0.352969 -0.214468
0.485844 -0.236742 0.905930 128 128 255 -0.271698 -0.855809 0.440194
0.507004 -0.237928 0.915806 128 128 255 -0.232592 -0.867329 0.440047
0.528333 -0.239128 0.923787 128 128 255 -0.192297 -0.876665 0.441000
0.549827 -0.240339 0.929783 128 128 255 -0.150869 -0.883714 0.443043
0.571488 -0.241558 0.933724 128 128 255 -0.051763 -0.890639 0.451756
0.641856 -0.242786 0.935555 128 128 255 -0.030648 -0.892787 0.449435
0.663843 -0.244018 0.935245 128 128 255 -0.020428 -0.889891 0.455716
0.685991 -0.245254 0.932779 128 128 255 0.024861 -0.886454 0.462148
0.708296 -0.246492 0.928163 128 128 255 0.070902 -0.879971 0.469707
0.730758 -0.247732 0.921427 128 128 255 0.861682 0.421956 -0.281881
0.704829 -0.248970 0.912616 128 128 255 0.852172 0.489607 -0.184629
0.727596 -0.250206 0.901798 128 128 255 0.212255 -0.840028 0.499300
0.750510 -0.251439 0.889059 128 128 255 0.259875 -0.819038 0.511508
0.773569 -0.252668 0.874506 128 128 255 0.307359 -0.793738 0.524890
0.796770 -0.253891 0.858260 128 128 255 0.354395 -0.763823 0.539424
0.820109 -0.255108 0.840461 128 128 255 0.209881 -0.777129 0.593313
0.892127 -0.256317 0.821265 128 128 255 0.232538 -0.759962 0.606947
0.915732 -0.257518 0.800838 128 128 255 0.488638 -0.643345 0.589356
0.939464 -0.258710 0.779363 128 128 255 0.529276 -0.592052 0.607735
0.963320 -0.259891 0.757030 128 128 255 0.566713 -0.534896 0.626676
0.987296 -0.261062 0.734039 128 128 255 0.999802 0.014280 -0.013827
0.962843 -0.262221 0.710599 128 128 255 0.994309 0.106243 -0.007815
0.987047 -0.263368 0.686919 128 128 255 -0.001436 -0.485786 0.874077
1.011359 -0.264502 0.708231 128 128 255 -0.733548 -0.365375 0.573069
1.035776 -0.265623 0.747464 128 128 255 -0.794261 -0.360872 0.488794
1.060293 -0.266730 0.786207 128 128 255 -0.530667 -0.529349 0.661954
1.133451 -0.267822 0.824158 128 128 255 -0.509480 -0.562912 0.650815
1.158157 -0.268901 0.861020 128 128 255 -0.729076 -0.482581 0.485349
1.182953 -0.269964 0.896507 128 128 255 -0.700821 -0.521048 0.487194
1.207835 -0.271012 0.930342 128 128 255 -0.669113 -0.558339 0.490454
1.232800 -0.272046 0.962262 128 128 255 -0.997604 -0.065892 0.021086
1.209299 -0.273064 0.992018 128 128 255 -0.996591 -0.078324 0.025926
1.234420 -0.274066 1.019381 128 128 255 -0.551466 -0.661470 0.508275
1.259615 -0.275054 1.044136 128 128 255 -0.504033 -0.692070 0.516710
1.284881 -0.276026 1.066093 128 128 255 -0.452127 -0.720163 0.526257
1.310216 -0.276983 1.085080 128 128 255 0.075473 -0.976604 0.201366
1.384164 -0.277926 1.100948 128 128 255 0.007321 -0.982454 -0.186363
1.408858 -0.278641 1.113619 128 128 255 0.043201 -0.995870 -0.079853
1.429821 -0.278319 1.123150 128 128 255 0.065156 -0.995219 -0.072760
1.450722 -0.277992 1.129249 128 128 255 0.109244 -0.943422 -0.313082
-1.251042 -0.255965 0.787733 128 128 255 -0.898937 -0.100449 0.426405
-1.230135 -0.256271 0.831187 128 128 255 -0.889339 -0.120531 0.441077
-1.208737 -0.256461 0.873766 128 128 255 -0.863752 -0.149364 0.481272
-1.183254 -0.255583 0.915398 128 128 255 -0.604000 -0.296901 0.739617
-1.109292 -0.254691 0.955578 128 128 255 -0.579351 -0.339454 0.741029
-1.083942 -0.253785 0.994035 128 128 255 -0.792458 -0.277643 0.543070
-1.058661 -0.252865 1.030508 128 128 255 -0.765249 -0.324791 0.555792
-1.033451 -0.251930 1.064751 128 128 255 -0.732267 -0.372727 0.569965
-1.008316 -0.250980 1.096535 128 128 255 -0.999332 0.024164 0.027400
-1.031801 -0.250016 1.125645 128 128 255 -0.999390 0.024285 0.025114
-1.006822 -0.249037 1.151890 128 128 255 -0.591697 -0.516798 0.618720
-0.981925 -0.248043 1.175096 128 128 255 -0.528819 -0.562392 0.635661
-0.957114 -0.247035 1.195114 128 128 255 -0.457268 -0.604911 0.651912
-0.932393 -0.246013 1.211819 128 128 255 -0.200473 -0.682212 0.703134
-0.859221 -0.244977 1.225108 128 128 255 -0.148610 -0.703716 0.694765
-0.834690 -0.243926 1.234908 128 128 255 -0.194550 -0.698971 0.688179
-0.810260 -0.242863 1.241171 128 128 255 -0.095232 -0.714228 0.693404
-0.785935 -0.241787 1.243874 128 128 255 0.006384 -0.719677 0.694280
-0.761719 -0.240698 1.243026 128 128 255 0.978247 -0.204580 -0.034354
-0.786160 -0.239597 1.238659 128 128 255 0.993843 0.101635 -0.044112
-0.762173 -0.238485 1.230834 128 128 255 0.299023 -0.677651 0.671844
-0.738307 -0.237362 1.219641 128 128 255 0.385221 -0.647108 0.657917
-0.714565 -0.236230 1.205193 128 128 255 0.463465 -0.610599 0.642159
-0.690951 -0.235088 1.187631 128 128 255 0.302246 -0.624433 0.720230
-0.618925 -0.233938 1.167119 128 128 255 0.341638 -0.611631 0.713576
-0.595579 -0.232780 1.143844 128 128 255 0.647947 -0.479288 0.591986
-0.572372 -0.231615 1.118018 128 128 255 0.693672 -0.431988 0.576372
-0.549308 -0.230445 1.089867 128 128 255 0.732469 -0.384228 0.562012
-0.526389 -0.229270 1.059642 128 128 255 0.764984 -0.336485 0.549160
-0.503620 -0.228091 1.027606 128 128 255 0.996756 -0.064620 -0.047965
-0.529548 -0.226910 0.994038 128 128 255 0.998541 -0.009095 -0.053221
-0.507085 -0.225727 0.959227 128 128 255 0.830687 -0.195999 0.521099
-0.484780 -0.224544 0.923475 128 128 255 0.843556 -0.150483 0.515526
-0.462635 -0.223363 0.887086 128 128 255 0.852497 -0.105667 0.511941
-0.440652 -0.222184 0.850373 128 128 255 0.346545 -0.053398 0.936512
-0.370289 -0.221009 0.852301 128 128 255 -0.339491 -0.034923 0.939961
-0.348636 -0.219840 0.883239 128 128 255 -0.816439 -0.056300 0.574681
-0.327151 -0.218679 0.913902 128 128 255 -0.807983 -0.130218 0.574636
-0.305834 -0.217527 0.944037 128 128 255 -0.792436 -0.205123 0.574430
-0.284687 -0.216386 0.973393 128 128 255 -0.769474 -0.280382 0.573842
-0.263710 -0.215259 1.001723 128 128 255 -0.978434 0.165499 -0.123603
-0.291447 -0.214147 1.028786 128 128 255 -0.979475 0.143798 -0.141245
-0.270811 -0.213055 1.054346 128 128 255 -0.654245 -0.500012 0.567408
-0.250345 -0.211983 1.078175 128 128 255 -0.600539 -0.567848 0.562940
-0.230047 -0.210936 1.100056 128 128 255 -0.539790 -0.631167 0.557005
-0.209917 -0.209917 1.119777 128 128 255 -0.472712 -0.688900 0.549509
-0.189951 -0.208928 1.137142 128 128 255 -0.190490 -0.798318 0.571316
-0.121604 -0.207975 1.151960 128 128 255 -0.150583 -0.820621 0.551277
-0.101959 -0.207062 1.164057 128 128 255 -0.243865 -0.819932 0.517921
-0.082469 -0.206192 1.173269 128 128 255 -0.162457 -0.847772 0.504866
-0.063127 -0.205371 1.179443 128 128 255 -0.080585 -0.867440 0.490973
-0.043927 -0.204605 1.182445 128 128 255 0.000618 -0.879144 0.476556
-0.024861 -0.203898 1.182152 128 128 255 0.080163 -0.883281 0.461939
-0.005920 -0.203256 1.178463 128 128 255 0.498005 0.767795 -0.403090
-0.035637 -0.202685 1.171297 128 128 255 0.631804 0.691459 -0.350297
-0.016912 -0.202190 1.160597 128 128 255 0.301652 -0.855956 0.419936
0.001726 -0.201777 1.146336 128 128 255 0.368186 -0.835733 0.407417
0.020292 -0.201450 1.128521 128 128 255 0.430615 -0.811028 0.395985
0.038802 -0.201214 1.107200 128 128 255 0.488812 -0.782450 0.385790
0.057275 -0.201071 1.082461 128 128 255 0.364898 -0.831041 0.419786
0.100000 -0.201023 1.054445 128 128 255 0.302620 -0.846934 0.437176
0.142725 -0.201071 1.023337 128 128 255 0.444402 -0.791069 0.420377
0.161198 -0.201214 0.989374 128 128 255 0.678779 -0.640365 0.359432
0.179708 -0.201450 0.952836 128 128 255 0.715811 -0.600272 0.356774
0.198274 -0.201777 0.914046 128 128 255 0.748863 -0.559129 0.355778
0.216912 -0.202190 0.873360 128 128 255 0.778074 -0.517224 0.356485
0.235637 -0.202685 0.831161 128 128 255 0.975482 0.179686 -0.127077
0.205920 -0.203256 0.787848 128 128 255 0.970677 0.206446 -0.123154
0.224861 -0.203898 0.743834 128 128 255 0.810975 -0.426787 0.400216
0.243927 -0.204605 0.709161 128 128 255 0.153777 -0.715739 0.681227
0.263127 -0.205371 0.732553 128 128 255 -0.634368 -0.584861 0.505485
0.282469 -0.206192 0.755828 128 128 255 -0.614812 -0.613967 0.495026
0.301959 -0.207062 0.778819 128 128 255 -0.592998 -0.641959 0.486046
0.321604 -0.207975 0.801352 128 128 255 -0.298672 -0.772329 0.560627
0.389951 -0.208928 0.823247 128 128 255 -0.283538 -0.786315 0.548922
0.409917 -0.209917 0.844322 128 128 255 -0.513956 -0.719474 0.467125
0.430047 -0.210936 0.864396 128 128 255 -0.483062 -0.743003 0.463246
0.450345 -0.211983 0.883288 128 128 255 -0.449908 -0.765211 0.460473
0.470811 -0.213055 0.900824 128 128 255 -0.414514 -0.785956 0.458750
0.491447 -0.214147 0.916835 128 128 255 -0.938137 0.283751 -0.198457
0.463710 -0.215259 0.931166 128 128 255 -0.922691 0.324715 -0.207847
0.484687 -0.216386 0.943669 128 128 255 -0.295347 -0.837702 0.459374
0.505834 -0.217527 0.954214 128 128 255 -0.251531 -0.850809 0.461363
0.527151 -0.218679 0.962686 128 128 255 -0.205839 -0.861493 0.464176
0.548636 -0.219840 0.968989 128 128 255 -0.158407 -0.869535 0.467778
0.570289 -0.221009 0.973043 128 128 255 -0.052292 -0.876569 0.478426
0.640652 -0.222184 0.974792 128 128 255 -0.027844 -0.879237 0.475570
0.662635 -0.223363 0.974198 128 128 255 -0.007445 -0.875592 0.482994
0.684780 -0.224544 0.971248 128 128 255 0.045030 -0.870871 0.489445
0.707085 -0.225727 0.965948 128 128 255 0.098141 -0.862446 0.496544
0.729548 -0.226910 0.958327 128 128 255 0.909866 0.336592 -0.242590
0.703620 -0.228091 0.948438 128 128 255 0.894018 0.417596 -0.162316
0.726390 -0.229270 0.936354 128 128 255 0.258064 -0.813270 0.521531
0.749308 -0.230445 0.922167 128 128 255 0.310356 -0.788469 0.531033
0.772372 -0.231615 0.905994 128 128 255 0.361474 -0.759310 0.541096
0.795579 -0.232780 0.887966 128 128 255 0.410983 -0.725748 0.551709
0.818925 -0.233938 0.868236 128 128 255 0.245279 -0.750018 0.614257
0.890951 -0.235088 0.846972 128 128 255 0.269470 -0.732343 0.625347
0.914565 -0.236230 0.824356 128 128 255 0.545270 -0.598735 0.586684
0.938307 -0.237362 0.800586 128 128 255 0.583683 -0.547839 0.599321
0.962173 -0.238485 0.775868 128 128 255 0.618091 -0.492881 0.612399
0.986160 -0.239597 0.750420 128 128 255 0.999764 0.018276 -0.011764
0.961719 -0.240698 0.724467 128 128 255 0.995520 0.094347 -0.006261
0.985935 -0.241787 0.698240 128 128 255 0.036318 -0.475111 0.879176
1.010260 -0.242863 0.720236 128 128 255 -0.749082 -0.348999 0.563094
1.034690 -0.243926 0.761433 128 128 255 -0.811095 -0.338496 0.477017
1.059221 -0.244977 0.802096 128 128 255 -0.555727 -0.501647 0.662961
1.132393 -0.246013 0.841904 128 128 255 -0.535398 -0.533415 0.654842
1.157114 -0.247035 0.880541 128 128 255 -0.753724 -0.447508 0.481286
1.181925 -0.248043 0.917705 128 128 255 -0.728025 -0.483294 0.486216
1.206822 -0.249037 0.953100 128 128 255 -0.698611 -0.518705 0.492837
1.231801 -0.250016 0.986449 128 128 255 -0.997689 -0.064651 0.020881
1.208316 -0.250980 1.017490 128 128 255 -0.997225 -0.069854 0.025737
1.233451 -0.251930 1.045977 128 128 255 -0.584410 -0.620938 0.522398
1.258661 -0.252865 1.071685 128 128 255 -0.536268 -0.652644 0.535231
1.283942 -0.253785 1.094413 128 128 255 -0.482336 -0.682348 0.549320
1.309292 -0.254691 1.113979 128 128 255 -0.233900 -0.755280 0.612244
1.383254 -0.255583 1.130229 128 128 255 -0.191209 -0.769104 0.609851
1.408737 -0.256461 1.143031 128 128 255 -0.292618 -0.748826 0.594671
1.430135 -0.256271 1.152508 128 128 255 -0.211406 -0.763291 0.610487
1.451041 -0.255965 1.158367 128 128 255 -0.161729 -0.775502 0.610279
-1.251341 -0.233922 0.791651 128 128 255 -0.905295 -0.090712 0.414985
-1.230429 -0.234208 0.836762 128 128 255 -0.892539 -0.108666 0.437682
-1.207891 -0.234111 0.881042 128 128 255 -0.871009 -0.120765 0.476192
-1.182395 -0.233285 0.924280 128 128 255 -0.625425 -0.254476 0.737622
-1.108419 -0.232445 0.966016 128 128 255 -0.603044 -0.295297 0.741038
-1.083055 -0.231592 1.005963 128 128 255 -0.812119 -0.233943 0.534540
-1.057760 -0.230725 1.043848 128 128 255 -0.788837 -0.274410 0.549941
-1.032536 -0.229844 1.079413 128 128 255 -0.760127 -0.316332 0.567575
-1.007386 -0.228950 1.112414 128 128 255 -0.999407 0.021533 0.026870
-1.030857 -0.228041 1.142626 128 128 255 -0.999282 0.028718 0.024714
-1.005863 -0.227118 1.169847 128 128 255 -0.631601 -0.448590 0.632335
-0.980952 -0.226181 1.193894 128 128 255 -0.570916 -0.492970 0.656533
-0.956128 -0.225230 1.214610 128 128 255 -0.499584 -0.535738 0.680735
-0.931393 -0.224266 1.231862 128 128 255 -0.224949 -0.618554 0.752854
-0.858207 -0.223288 1.245545 128 128 255 -0.167655 -0.643886 0.746527
-0.833663 -0.222296 1.255579 128 128 255 -0.220182 -0.636112 0.739515
-0.809220 -0.221293 1.261913 128 128 255 -0.109471 -0.653257 0.749181
-0.784883 -0.220276 1.264526 128 128 255 0.005117 -0.659409 0.751767
-0.760654 -0.219248 1.263425 128 128 255 0.976002 -0.215843 -0.028843
-0.785084 -0.218208 1.258644 128 128 255 0.994758 0.093942 -0.040403
-0.761086 -0.217157 1.250250 128 128 255 0.331806 -0.611976 0.717907
-0.737209 -0.216096 1.238335 128 128 255 0.424206 -0.578720 0.696515
-0.713458 -0.215025 1.223021 128 128 255 0.505608 -0.540130 0.672770
-0.689835 -0.213945 1.204455 128 128 255 0.333797 -0.553489 0.763040
-0.617801 -0.212856 1.182811 128 128 255 0.375323 -0.542396 0.751624
-0.594448 -0.211760 1.158288 128 128 255 0.686107 -0.410057 0.600925
-0.571235 -0.210658 1.131107 128 128 255 0.728037 -0.365924 0.579708
-0.548165 -0.209549 1.101511 128 128 255 0.762666 -0.322527 0.560640
-0.525243 -0.208435 1.069761 128 128 255 0.790992 -0.280159 0.543914
-0.502470 -0.207317 1.036139 128 128 255 0.996928 -0.063646 -0.045646
-0.528395 -0.206196 1.000936 128 128 255 0.998606 -0.014503 -0.050751
-0.505932 -0.205073 0.964462 128 128 255 0.846139 -0.160069 0.508357
-0.483627 -0.203950 0.927033 128 128 255 0.856540 -0.122265 0.501388
-0.461483 -0.202826 0.888973 128 128 255 0.863621 -0.085424 0.496851
-0.439503 -0.201704 0.850613 128 128 255 0.356021 -0.032097 0.933927
-0.369144 -0.200586 0.853215 128 128 255 -0.367038 -0.012486 0.930122
-0.347498 -0.199471 0.886584 128 128 255 -0.837697 -0.032367 0.545175
-0.326020 -0.198363 0.919703 128 128 255 -0.832408 -0.095462 0.545879
-0.304712 -0.197262 0.952307 128 128 255 -0.821407 -0.160180 0.547388
-0.283576 -0.196171 0.984129 128 128 255 -0.804235 -0.226374 0.549510
-0.262613 -0.195092 1.014910 128 128 255 -0.920613 0.105947 -0.375828
-0.290367 -0.194026 1.044393 128 128 255 -0.998000 0.056754 0.027822
-0.269749 -0.192977 1.072330 128 128 255 -0.777828 -0.207060 0.593389
-0.249304 -0.191946 1.098482 128 128 255 -0.750693 -0.246529 0.612930
-0.229031 -0.190936 1.122616 128 128 255 -0.715841 -0.288967 0.635665
-0.208928 -0.189951 1.144512 128 128 255 -0.671364 -0.334492 0.661352
-0.188995 -0.188995 1.163957 128 128 255 -0.307995 -0.436155 0.845522
-0.120683 -0.188070 1.180753 128 128 255 -0.297634 -0.535939 0.790053
-0.101078 -0.187181 1.194710 128 128 255 -0.456016 -0.484486 0.746541
-0.081632 -0.186333 1.205651 128 128 255 -0.349394 -0.533223 0.770453
-0.062340 -0.185530 1.213410 128 128 255 -0.224576 -0.575691 0.786222
-0.043196 -0.184778 1.217836 128 128 255 -0.085235 -0.607329 0.789864
-0.024191 -0.184082 1.218790 128 128 255 0.061433 -0.624273 0.778787
-0.005316 -0.183449 1.216152 128 128 255 0.427948 0.364215 -0.827169
-0.035106 -0.182884 1.209820 128 128 255 0.877574 0.465640 -0.114205
-0.016458 -0.182393 1.199716 128 128 255 0.457279 -0.583593 0.671055
0.002096 -0.181982 1.185794 128 128 255 0.555679 -0.549310 0.624083
0.020574 -0.181656 1.168041 128 128 255 0.635820 -0.511070 0.578395
0.038992 -0.181420 1.146490 128 128 255 0.699893 -0.471685 0.536343
0.057370 -0.181277 1.121221 128 128 255 0.549511 -0.523161 0.651414
0.100000 -0.181229 1.092370 128 128 255 0.485736 -0.565000 0.666960
0.142630 -0.181277 1.060130 128 128 255 0.670773 -0.493607 0.553549
0.161008 -0.181420 1.024751 128 128 255 0.846597 -0.328744 0.418570
0.179426 -0.181656 0.986538 128 128 255 0.865927 -0.298655 0.401217
0.197904 -0.181982 0.945842 128 128 255 0.881005 -0.270766 0.387963
0.216458 -0.182393 0.903055 128 128 255 0.892646 -0.244883 0.378439
0.235106 -0.182884 0.858596 128 128 255 0.973426 0.076887 -0.215710
0.205316 -0.183449 0.812906 128 128 255 0.995723 0.089751 -0.021907
0.224191 -0.184082 0.766432 128 128 255 0.887728 -0.201004 0.414169
0.243196 -0.184778 0.729823 128 128 255 -0.025348 -0.432931 0.901071
0.262340 -0.185530 0.754686 128 128 255 -0.759833 -0.301390 0.576037
0.281632 -0.186333 0.779413 128 128 255 -0.750823 -0.319546 0.578061
0.301078 -0.187181 0.803829 128 128 255 -0.739120 -0.338601 0.582281
0.320683 -0.188070 0.827753 128 128 255 -0.402455 -0.436953 0.804427
0.388995 -0.188995 0.850995 128 128 255 -0.437598 -0.510476 0.740218
0.408928 -0.189951 0.873362 128 128 255 -0.684213 -0.401958 0.608509
0.429031 -0.190936 0.894658 128 128 255 -0.657734 -0.425150 0.621798
0.449304 -0.191946 0.914691 128 128 255 -0.626188 -0.449207 0.637261
0.469749 -0.192977 0.933272 128 128 255 -0.588893 -0.473871 0.654715
0.490367 -0.194026 0.950222 128 128 255 -0.982041 0.104676 -0.156967
0.462613 -0.195092 0.965370 128 128 255 -0.932356 0.298918 -0.203370
0.483576 -0.196171 0.978559 128 128 255 -0.319402 -0.815402 0.482807
0.504712 -0.197262 0.989647 128 128 255 -0.271009 -0.830061 0.487393
0.526020 -0.198363 0.998512 128 128 255 -0.219837 -0.842094 0.492493
0.547498 -0.199471 1.005047 128 128 255 -0.166120 -0.851113 0.498007
0.569144 -0.200586 1.009169 128 128 255 -0.052697 -0.857993 0.510950
0.639503 -0.201704 1.010815 128 128 255 -0.024669 -0.861343 0.507425
0.661483 -0.202826 1.009945 128 128 255 0.006897 -0.856534 0.516044
0.683627 -0.203950 1.006543 128 128 255 0.067044 -0.850146 0.522261
0.705932 -0.205073 1.000616 128 128 255 0.127542 -0.839319 0.528465
0.728395 -0.206196 0.992196 128 128 255 0.938984 0.269722 -0.213447
0.702470 -0.207317 0.981336 128 128 255 0.922037 0.358779 -0.145344
0.725243 -0.208435 0.968115 128 128 255 0.305254 -0.779719 0.546679
0.748165 -0.209549 0.952633 128 128 255 0.361278 -0.751053 0.552628
0.771235 -0.210658 0.935013 128 128 255 0.414795 -0.718285 0.558580
0.794448 -0.211760 0.915396 128 128 255 0.465336 -0.681677 0.564605
0.817801 -0.212856 0.893945 128 128 255 0.280732 -0.717413 0.637580
0.889835 -0.213945 0.870839 128 128 255 0.305942 -0.699646 0.645674
0.913458 -0.215025 0.846273 128 128 255 0.595315 -0.551788 0.584063
0.937209 -0.216096 0.820459 128 128 255 0.630441 -0.502815 0.591373
0.961086 -0.217157 0.793617 128 128 255 0.661080 -0.451474 0.599286
0.985084 -0.218208 0.765980 128 128 255 0.999728 0.020971 -0.010200
0.960654 -0.219248 0.737789 128 128 255 0.996444 0.084106 -0.005054
0.984883 -0.220276 0.709289 128 128 255 0.071802 -0.463008 0.883441
1.009220 -0.221293 0.731845 128 128 255 -0.761995 -0.333041 0.555380
1.033663 -0.222296 0.774723 128 128 255 -0.825120 -0.316887 0.467718
1.058207 -0.223288 0.817026 128 128 255 -0.578228 -0.472282 0.665283
1.131393 -0.224266 0.858417 128 128 255 -0.559063 -0.501630 0.660163
1.156128 -0.225230 0.898564 128 128 255 -0.775428 -0.411634 0.478821
1.180952 -0.226181 0.937149 128 128 255 -0.752434 -0.443885 0.486631
1.205863 -0.227118 0.973864 128 128 255 -0.725596 -0.476450 0.496493
1.230857 -0.228041 1.008417 128 128 255 -0.997786 -0.063168 0.020801
1.207386 -0.228950 1.040531 128 128 255 -0.997781 -0.061426 0.025698
1.232536 -0.229844 1.069951 128 128 255 -0.616524 -0.574587 0.538282
1.257760 -0.230725 1.096442 128 128 255 -0.568389 -0.606419 0.556049
1.283055 -0.231592 1.119790 128 128 255 -0.513095 -0.636884 0.575423
1.308419 -0.232445 1.139809 128 128 255 -0.252038 -0.713675 0.653564
1.382395 -0.233285 1.156337 128 128 255 -0.204634 -0.729547 0.652600
1.407891 -0.234111 1.169236 128 128 255 -0.306240 -0.707944 0.636422
1.430429 -0.234208 1.178567 128 128 255 -0.222182 -0.720869 0.656493
1.451341 -0.233922 1.184157 128 128 255 -0.168297 -0.734404 0.657516
-1.251619 -0.211864 0.795321 128 128 255 -0.910095 -0.081626 0.406282
-1.230702 -0.212130 0.841784 128 128 255 -0.894669 -0.096856 0.436103
-1.207097 -0.211802 0.887459 128 128 255 -0.874281 -0.102943 0.474378
-1.181588 -0.211028 0.932006 128 128 255 -0.643112 -0.214160 0.735216
-1.107599 -0.210242 0.975008 128 128 255 -0.622866 -0.249305 0.741543
-1.082222 -0.209444 1.016168 128 128 255 -0.827750 -0.190496 0.527770
-1.056914 -0.208632 1.055199 128 128 255 -0.807883 -0.223467 0.545332
-1.031676 -0.207807 1.091832 128 128 255 -0.783045 -0.258166 0.565854
-1.006513 -0.206968 1.125814 128 128 255 -0.999468 0.018939 0.026546
-1.029970 -0.206117 1.156912 128 128 255 -0.999162 0.032803 0.024498
-1.004962 -0.205252 1.184911 128 128 255 -0.666986 -0.372446 0.645301
-0.980038 -0.204373 1.209625 128 128 255 -0.609418 -0.412902 0.676847
-0.955199 -0.203482 1.230887 128 128 255 -0.539564 -0.453159 0.709590
-0.930451 -0.202577 1.248561 128 128 255 -0.249937 -0.536087 0.806314
-0.857252 -0.201660 1.262535 128 128 255 -0.187415 -0.565211 0.803375
-0.832696 -0.200730 1.272727 128 128 255 -0.246515 -0.553589 0.795468
-0.808241 -0.199787 1.279085 128 128 255 -0.124192 -0.571658 0.811039
-0.783891 -0.198833 1.281587 128 128 255 0.004139 -0.578063 0.815982
-0.759651 -0.197868 1.280239 128 128 255 0.974214 -0.224360 -0.023867
-0.784070 -0.196891 1.275079 128 128 255 0.995479 0.087410 -0.037164
-0.760062 -0.195904 1.266176 128 128 255 0.495737 -0.390088 0.775935
-0.736175 -0.194906 1.253626 128 128 255 0.516576 -0.254372 0.817584
-0.712414 -0.193900 1.237558 128 128 255 0.598620 -0.230038 0.767292
-0.688783 -0.192884 1.218126 128 128 255 0.375167 -0.220088 0.900451
-0.616741 -0.191860 1.195513 128 128 255 0.480702 -0.247555 0.841215
-0.593381 -0.190829 1.169924 128 128 255 0.754757 -0.160609 0.636040
-0.570161 -0.189791 1.141594 128 128 255 0.786044 -0.140156 0.602072
-0.547086 -0.188747 1.110775 128 128 255 0.810524 -0.121128 0.573043
-0.524159 -0.187697 1.077743 128 128 255 0.952921 0.083476 0.291503
-0.501382 -0.186643 1.042790 128 128 255 0.940051 0.290853 0.178068
-0.527304 -0.185586 1.006224 128 128 255 0.997594 -0.008768 0.068765
-0.504839 -0.184526 0.968366 128 128 255 0.864462 -0.056637 0.499498
-0.482534 -0.183465 0.929550 128 128 255 0.870561 -0.042697 0.490204
-0.460391 -0.182403 0.890116 128 128 255 0.874505 -0.029374 0.484127
-0.438413 -0.181342 0.850408 128 128 255 0.268832 -0.003662 0.963180
-0.368057 -0.180283 0.853647 128 128 255 -0.479346 0.005431 0.877609
-0.346415 -0.179228 0.889154 128 128 255 -0.856128 -0.004417 0.516745
-0.324943 -0.178176 0.924444 128 128 255 -0.854891 -0.028171 0.518042
-0.303643 -0.177131 0.959238 128 128 255 -0.851258 -0.052865 0.522078
-0.282517 -0.176094 0.993260 128 128 255 -0.844987 -0.078789 0.528952
-0.261565 -0.175066 1.026237 128 128 255 -0.987271 0.076513 -0.139434
-0.289333 -0.125506 1.057904 128 128 255 -0.984119 0.074110 -0.161301
-0.268731 -0.124504 1.088001 128 128 255 -0.801099 -0.168890 0.574210
-0.248305 -0.123517 1.116279 128 128 255 -0.778495 -0.203490 0.593749
-0.228053 -0.122550 1.142496 128 128 255 -0.749109 -0.241232 0.616963
-0.207975 -0.121604 1.166421 128 128 255 -0.711095 -0.282479 0.643855
-0.188070 -0.120683 1.187834 128 128 255 -0.394871 -0.445797 0.803332
-0.119790 -0.119790 1.206524 128 128 255 -0.295129 -0.420625 0.857889
-0.100222 -0.118930 1.222292 128 128 255 -0.519038 -0.426680 0.740637
-0.080817 -0.118106 1.234949 128 128 255 -0.418841 -0.477912 0.772122
-0.061571 -0.117325 1.244316 128 128 255 -0.297153 -0.525821 0.797002
-0.042479 -0.116590 1.250226 128 128 255 -0.155893 -0.565365 0.809975
-0.023531 -0.115908 1.252523 128 128 255 -0.001613 -0.591282 0.806463
-0.004720 -0.115285 1.251064 128 128 255 0.659229 0.730359 -0.178865
-0.034580 -0.114727 1.245726 128 128 255 0.564162 0.331240 -0.756308
-0.016008 -0.114241 1.236405 128 128 255 0.433015 -0.568793 0.699266
0.002465 -0.113833 1.223026 128 128 255 0.541806 -0.536467 0.647032
0.020855 -0.113509 1.205553 128 128 255 0.629472 -0.499065 0.595566
0.039182 -0.113273 1.183994 128 128 255 0.698582 -0.459995 0.548076
0.057466 -0.113130 1.158415 128 128 255 0.583978 -0.541124 0.605106
0.100000 -0.113082 1.128944 128 128 255 0.489560 -0.552202 0.674836
0.142534 -0.113130 1.095776 128 128 255 0.643984 -0.457651 0.613058
0.160818 -0.113273 1.059177 128 128 255 0.851807 -0.318210 0.416134
0.179145 -0.113509 1.019475 128 128 255 0.871279 -0.288788 0.396830
0.197535 -0.113833 0.977055 128 128 255 0.886306 -0.261761 0.382025
0.216008 -0.114241 0.932348 128 128 255 0.897794 -0.236945 0.371245
0.234580 -0.114727 0.885814 128 128 255 0.996622 0.078348 -0.024615
0.204720 -0.115285 0.837935 128 128 255 0.974752 0.086354 -0.205914
0.223531 -0.115908 0.789199 128 128 255 0.901440 -0.190095 0.388935
0.242479 -0.116590 0.750775 128 128 255 0.472492 -0.385120 0.792738
0.261571 -0.117325 0.776727 128 128 255 -0.769532 -0.295796 0.565973
0.280817 -0.118106 0.802536 128 128 255 -0.762104 -0.309280 0.568808
0.300222 -0.118930 0.828024 128 128 255 -0.752150 -0.323877 0.573912
0.319790 -0.119790 0.853002 128 128 255 -0.471236 -0.473297 0.744263
0.388070 -0.120683 0.877273 128 128 255 -0.402552 -0.431743 0.807186
0.407975 -0.121604 0.900633 128 128 255 -0.703296 -0.375296 0.603762
0.428053 -0.122550 0.922875 128 128 255 -0.678988 -0.395075 0.618782
0.448305 -0.123517 0.943795 128 128 255 -0.649577 -0.416074 0.636343
0.468731 -0.124504 0.963192 128 128 255 -0.614256 -0.438094 0.656325
0.489333 -0.125506 0.980873 128 128 255 -0.987441 0.057908 -0.146996
0.461565 -0.175066 0.996658 128 128 255 -0.985859 0.072896 -0.150889
0.482517 -0.176094 1.010378 128 128 255 -0.456687 -0.507657 0.730563
0.503643 -0.177131 1.021882 128 128 255 -0.386674 -0.528591 0.755695
0.524943 -0.178176 1.031038 128 128 255 -0.307158 -0.546474 0.779115
0.546415 -0.179228 1.037733 128 128 255 -0.218859 -0.559856 0.799163
0.568057 -0.180283 1.041876 128 128 255 -0.055263 -0.530704 0.845753
0.638413 -0.181342 1.043402 128 128 255 -0.011914 -0.610790 0.791703
0.660391 -0.182403 1.042265 128 128 255 0.077353 -0.560986 0.824204
0.682534 -0.183465 1.038449 128 128 255 0.175934 -0.546879 0.818517
0.704839 -0.184526 1.031959 128 128 255 0.268976 -0.526447 0.806539
0.727304 -0.185586 1.022829 128 128 255 0.749049 -0.452312 0.484086
0.701382 -0.186643 1.011114 128 128 255 0.801972 0.106796 -0.587737
0.724159 -0.187697 0.996898 128 128 255 0.496380 -0.441019 0.747736
0.747086 -0.188747 0.980284 128 128 255 0.553266 -0.409020 0.725672
0.770161 -0.189791 0.961402 128 128 255 0.601436 -0.376947 0.704404
0.793381 -0.190829 0.940401 128 128 255 0.641783 -0.345390 0.684704
0.816741 -0.191860 0.917452 128 128 255 0.385556 -0.367464 0.846355
0.888783 -0.192884 0.892745 128 128 255 0.462215 -0.399691 0.791583
0.912414 -0.193900 0.866485 128 128 255 0.724965 -0.256552 0.639224
0.936175 -0.194906 0.838894 128 128 255 0.685259 -0.297318 0.664847
0.960062 -0.195904 0.810205 128 128 255 0.696658 -0.411175 0.587880
0.984070 -0.196891 0.780665 128 128 255 0.999701 0.022759 -0.008985
0.959651 -0.197868 0.750526 128 128 255 0.997179 0.074948 -0.004088
0.983891 -0.198833 0.720049 128 128 255 0.104668 -0.449657 0.887047
1.008241 -0.199787 0.743034 128 128 255 -0.772531 -0.317480 0.549911
1.032696 -0.200730 0.787293 128 128 255 -0.836702 -0.295952 0.460806
1.057253 -0.201660 0.830940 128 128 255 -0.598108 -0.441308 0.668965
1.130451 -0.202577 0.873624 128 128 255 -0.580333 -0.467555 0.666788
1.155200 -0.203482 0.915002 128 128 255 -0.794327 -0.374944 0.477976
1.180038 -0.204373 0.954740 128 128 255 -0.774050 -0.402811 0.488456
1.204962 -0.205252 0.992519 128 128 255 -0.749923 -0.431506 0.501416
1.229970 -0.206117 1.028035 128 128 255 -0.997892 -0.061460 0.020837
1.206513 -0.206968 1.061002 128 128 255 -0.998263 -0.052972 0.025800
1.231676 -0.207807 1.091154 128 128 255 -0.647251 -0.521742 0.555744
1.256914 -0.208632 1.118246 128 128 255 -0.599793 -0.552338 0.578940
1.282222 -0.209444 1.142058 128 128 255 -0.543815 -0.582263 0.604347
1.307600 -0.210242 1.162396 128 128 255 -0.271073 -0.660130 0.700533
1.381588 -0.211028 1.179093 128 128 255 -0.218807 -0.678085 0.701658
1.407097 -0.211802 1.192008 128 128 255 -0.320119 -0.654142 0.685289
1.430702 -0.212130 1.201139 128 128 255 -0.231274 -0.665507 0.709656
1.451619 -0.211864 1.206433 128 128 255 -0.174691 -0.680166 0.711939
-1.251877 -0.189793 0.798738 128 128 255 -0.915724 -0.029678 0.400710
-1.230955 -0.190038 0.846233 128 128 255 -0.895677 -0.040441 0.442862
-1.206357 -0.189531 0.892986 128 128 255 -0.877736 -0.040683 0.477414
-1.180836 -0.188812 0.938531 128 128 255 -0.635172 -0.079716 0.768246
-1.106835 -0.188081 0.982497 128 128 255 -0.682131 -0.102559 0.724002
-1.081445 -0.187338 1.024576 128 128 255 -0.847098 -0.070652 0.526719
-1.056124 -0.186582 1.064474 128 128 255 -0.832403 -0.082714 0.547964
-1.030873 -0.185815 1.101913 128 128 255 -0.813641 -0.095690 0.573438
-1.005697 -0.185034 1.136630 128 128 255 -0.994694 0.007725 -0.102591
-1.029141 -0.184241 1.168384 128 128 255 -0.985958 0.017139 0.166110
-1.004120 -0.183436 1.196957 128 128 255 -0.719804 -0.141252 0.679655
-0.979183 -0.182618 1.222154 128 128 255 -0.669294 -0.158781 0.725833
-0.954332 -0.181787 1.243804 128 128 255 -0.604402 -0.177194 0.776724
-0.929571 -0.180944 1.261765 128 128 255 -0.273895 -0.203891 0.939899
-0.856360 -0.180089 1.275924 128 128 255 -0.243969 -0.258819 0.934608
-0.831791 -0.179222 1.286196 128 128 255 -0.292198 -0.228442 0.928674
-0.807324 -0.178344 1.292527 128 128 255 -0.147139 -0.238355 0.959967
-0.782963 -0.177454 1.294894 128 128 255 0.009302 -0.241344 0.970395
-0.758713 -0.176554 1.293305 128 128 255 0.686566 -0.073220 -0.723371
-0.783121 -0.175642 1.287801 128 128 255 0.891722 0.033493 0.451343
-0.759102 -0.174721 1.278452 128 128 255 0.545751 -0.237148 0.803689
-0.735206 -0.125246 1.265359 128 128 255 0.623955 -0.215157 0.751257
-0.711436 -0.124306 1.248655 128 128 255 0.599822 -0.173564 0.781082
-0.687797 -0.123357 1.228501 128 128 255 0.436149 -0.186662 0.880302
-0.615747 -0.122401 1.205085 128 128 255 0.422772 -0.160618 0.891889
