ply
format ascii 1.0
element vertex 695
property float x
property float y
property float z
property uchar red
property uchar green
property uchar blue
property float nx
property float ny
property float nz
end_header
1.002114 0.268939 0.226322 128 128 255 -0.343785 -0.913224 0.218709
1.035486 0.256228 0.217142 128 128 255 -0.252222 -0.949309 0.187610
1.068846 0.248264 0.211415 128 128 255 -0.152292 -0.980226 0.126350
1.102192 0.244783 0.208949 128 128 255 -0.040517 -0.998716 0.030424
1.135523 0.245453 0.209505 128 128 255 0.082569 -0.991867 -0.096860
1.168838 0.249889 0.212803 128 128 255 0.207347 -0.948792 -0.238331
1.202137 0.257664 0.218535 128 128 255 0.318049 -0.873739 -0.368002
1.235417 0.268326 0.226374 128 128 255 0.404011 -0.786123 -0.467746
1.268679 0.281406 0.235979 128 128 255 0.464821 -0.705246 -0.535322
1.301922 0.296431 0.247008 128 128 255 0.505605 -0.640692 -0.577820
1.335145 0.312934 0.259124 128 128 255 0.531772 -0.593977 -0.603664
1.368348 0.330467 0.272000 128 128 255 0.547170 -0.563011 -0.619374
1.401532 0.348607 0.285331 128 128 255 0.554170 -0.544869 -0.629296
1.434698 0.366962 0.298831 128 128 255 0.554142 -0.536888 -0.636143
1.467846 0.385177 0.312243 128 128 255 0.547867 -0.536920 -0.641529
1.500978 0.402941 0.325341 128 128 255 0.535796 -0.543282 -0.646349
1.534095 0.419986 0.337928 128 128 255 0.518218 -0.554639 -0.651019
1.567200 0.436090 0.349843 128 128 255 0.495372 -0.569876 -0.655629
1.600294 0.451076 0.360955 128 128 255 0.467532 -0.588007 -0.660046
1.633379 0.464812 0.371168 128 128 255 0.435084 -0.608117 -0.664000
1.666457 0.477207 0.380414 128 128 255 0.398570 -0.629331 -0.667147
1.699530 0.488210 0.388655 128 128 255 0.358725 -0.650820 -0.669141
1.732600 0.497805 0.395878 128 128 255 0.316467 -0.671834 -0.669692
1.765668 0.506009 0.402093 128 128 255 0.272864 -0.691733 -0.668619
1.798735 0.512863 0.407329 128 128 255 0.229058 -0.710031 -0.665874
1.831804 0.518433 0.411634 128 128 255 0.186181 -0.726417 -0.661555
1.864874 0.522803 0.415066 128 128 255 0.145265 -0.740758 -0.655878
1.897948 0.526070 0.417696 128 128 255 0.107170 -0.753073 -0.649150
1.931025 0.528341 0.419600 128 128 255 0.072543 -0.763501 -0.641719
1.964107 0.529728 0.420859 128 128 255 0.041812 -0.772253 -0.633937
1.997196 0.530347 0.421556 128 128 255 0.015190 -0.779573 -0.626127
2.030291 0.530311 0.421772 128 128 255 -0.007290 -0.785703 -0.618561
2.063395 0.529732 0.421589 128 128 255 -0.025733 -0.790869 -0.611444
2.096474 0.528715 0.421082 128 128 255 -0.039056 -0.806746 -0.589606
-1.896511 0.484959 0.471440 128 128 255 0.163166 -0.686413 -0.708670
-1.863393 0.488833 0.475258 128 128 255 0.166835 -0.702235 -0.692122
-1.830281 0.492943 0.479290 128 128 255 0.174983 -0.703456 -0.688862
-1.797176 0.497233 0.483484 128 128 255 0.180552 -0.705785 -0.685032
-1.764074 0.501630 0.487770 128 128 255 0.182939 -0.709397 -0.680653
-1.730976 0.506047 0.492065 128 128 255 0.181514 -0.714444 -0.675739
-1.697879 0.510379 0.496272 128 128 255 0.175611 -0.721041 -0.670269
-1.664784 0.514505 0.500276 128 128 255 0.164549 -0.729241 -0.664177
-1.631688 0.518290 0.503948 128 128 255 0.147635 -0.739010 -0.657319
-1.598593 0.521581 0.507146 128 128 255 0.124199 -0.750187 -0.649457
-1.565496 0.524215 0.509717 128 128 255 0.093644 -0.762446 -0.640239
-1.532398 0.526019 0.511495 128 128 255 0.055525 -0.775262 -0.629195
-1.499298 0.526809 0.512310 128 128 255 0.009672 -0.787885 -0.615747
-1.466196 0.526401 0.511988 128 128 255 -0.043678 -0.799357 -0.599267
-1.433092 0.524610 0.510356 128 128 255 -0.103725 -0.808583 -0.579167
-1.399985 0.521256 0.507246 128 128 255 -0.169025 -0.814475 -0.555032
-1.366875 0.516172 0.502500 128 128 255 -0.237515 -0.816161 -0.526752
-1.333761 0.509206 0.495977 128 128 255 -0.306695 -0.813194 -0.494626
-1.300642 0.500229 0.487556 128 128 255 -0.373944 -0.805702 -0.459358
-1.267516 0.489142 0.477145 128 128 255 -0.436895 -0.794403 -0.421954
-1.234382 0.475879 0.464685 128 128 255 -0.493723 -0.780473 -0.383535
-1.201239 0.460418 0.450156 128 128 255 -0.543271 -0.765333 -0.345140
-1.168084 0.442781 0.433580 128 128 255 -0.585016 -0.750433 -0.307581
-1.134915 0.423044 0.415029 128 128 255 -0.618914 -0.737092 -0.271369
-1.101729 0.401337 0.394628 128 128 255 -0.645198 -0.726419 -0.236716
-1.068525 0.377848 0.372552 128 128 255 -0.664202 -0.719302 -0.203571
-1.035301 0.352826 0.349038 128 128 255 -0.676209 -0.716427 -0.171679
-1.002055 0.326579 0.324374 128 128 255 -0.681350 -0.718318 -0.140647
-0.968787 0.299475 0.298905 128 128 255 -0.679538 -0.725345 -0.110011
-0.935497 0.271937 0.273027 128 128 255 -0.670440 -0.737710 -0.079331
-0.902185 0.244437 0.247181 128 128 255 -0.653507 -0.755374 -0.048371
-0.868852 0.217491 0.221851 128 128 255 -0.628136 -0.777908 -0.017475
-0.835502 0.191651 0.197551 128 128 255 -0.594137 -0.804282 0.011500
-0.802135 0.167489 0.174818 128 128 255 -0.552988 -0.832552 0.032580
-0.768753 0.145595 0.154202 128 128 255 -0.511567 -0.858849 0.026024
-0.735360 0.126554 0.136251 128 128 255 -0.497234 -0.861795 -0.100334
-0.701956 0.110939 0.121503 128 128 255 -0.416226 -0.165682 -0.894039
-0.668544 0.099295 0.110465 128 128 255 -0.003028 0.686107 -0.727494
-0.635124 0.092123 0.103609 128 128 255 0.016210 0.753563 -0.657176
-0.601698 0.089865 0.101348 128 128 255 -0.004281 0.746236 -0.665668
-0.568266 0.092893 0.104031 128 128 255 -0.013748 0.716681 -0.697266
-0.534830 0.101493 0.111929 128 128 255 0.002508 0.675641 -0.737226
-0.501391 0.115858 0.125222 128 128 255 0.050875 0.625729 -0.778380
-0.467952 0.136072 0.143990 128 128 255 0.132844 0.566215 -0.813482
-0.434515 0.162109 0.168211 128 128 255 0.243716 0.495719 -0.833586
-0.401083 0.193824 0.197748 128 128 255 0.371103 0.415242 -0.830576
-0.367661 0.230956 0.232357 128 128 255 0.497636 0.329945 -0.802181
-0.334252 0.273126 0.271679 128 128 255 0.608250 0.247409 -0.754202
-0.300855 0.319840 0.315248 128 128 255 0.695805 0.173767 -0.696894
-0.267468 0.370499 0.362497 128 128 255 0.760629 0.111569 -0.639528
-0.234085 0.424403 0.412768 128 128 255 0.806733 0.060350 -0.587826
-0.200701 0.480763 0.465324 128 128 255 0.838695 0.018148 -0.544298
-0.167309 0.538714 0.519361 128 128 255 0.860282 -0.017368 -0.509522
-0.133907 0.597335 0.574025 128 128 255 0.874168 -0.048392 -0.483206
-0.100494 0.655671 0.628434 128 128 255 0.882059 -0.076856 -0.464827
-0.067074 0.712753 0.681689 128 128 255 0.884875 -0.104485 -0.453960
-0.033650 0.767620 0.732901 128 128 255 0.882859 -0.132925 -0.450435
-0.000227 0.819347 0.781204 128 128 255 0.875574 -0.163903 -0.454428
0.033191 0.867063 0.825781 128 128 255 0.861734 -0.199409 -0.466530
0.066600 0.909970 0.865879 128 128 255 0.838781 -0.241908 -0.487778
0.100000 0.947360 0.900825 128 128 255 0.802046 -0.294525 -0.519594
0.133390 0.978632 0.930044 128 128 255 0.743224 -0.360985 -0.563301
0.166772 1.003300 0.953071 128 128 255 0.648133 -0.444455 -0.618372
0.200148 1.021008 0.969561 128 128 255 0.495775 -0.543146 -0.677643
0.233522 1.031527 0.979293 128 128 255 0.267927 -0.640638 -0.719581
0.266898 1.034769 0.982180 128 128 255 -0.019095 -0.702138 -0.711785
0.300278 1.030781 0.978264 128 128 255 -0.298375 -0.703812 -0.644687
0.333665 1.019743 0.967717 128 128 255 -0.511131 -0.662147 -0.548002
0.367064 1.001966 0.950835 128 128 255 -0.651217 -0.608046 -0.454088
0.400473 0.977878 0.928028 128 128 255 -0.738884 -0.559245 -0.375893
0.433895 0.948018 0.899808 128 128 255 -0.793656 -0.521083 -0.313978
0.467328 0.913021 0.866779 128 128 255 -0.828229 -0.493681 -0.265173
0.500770 0.873599 0.829619 128 128 255 -0.850014 -0.475773 -0.226091
0.534218 0.830530 0.789063 128 128 255 -0.863225 -0.466059 -0.193988
0.567668 0.784636 0.745886 128 128 255 -0.870231 -0.463554 -0.166782
0.601117 0.736767 0.700887 128 128 255 -0.872305 -0.467614 -0.142901
0.634562 0.687776 0.654865 128 128 255 -0.870030 -0.477885 -0.121134
0.668002 0.638508 0.608608 128 128 255 -0.863503 -0.494227 -0.100513
0.701435 0.589774 0.562874 128 128 255 -0.852442 -0.516626 -0.080249
0.734861 0.542338 0.518373 128 128 255 -0.836244 -0.545097 -0.059710
0.768283 0.496898 0.475758 128 128 255 -0.814023 -0.579559 -0.038437
0.801700 0.454082 0.435613 128 128 255 -0.784693 -0.619673 -0.016232
0.835114 0.414426 0.398442 128 128 255 -0.747103 -0.664674 0.006702
0.868524 0.378380 0.364663 128 128 255 -0.700296 -0.713241 0.029560
0.901929 0.346292 0.334604 128 128 255 -0.643821 -0.763494 0.050717
0.935329 0.318416 0.308501 128 128 255 -0.578009 -0.813228 0.067574
0.968722 0.294906 0.286501 128 128 255 -0.503944 -0.860341 0.076518
1.002105 0.275823 0.268659 128 128 255 -0.422939 -0.903210 0.073035
1.035478 0.261137 0.254948 128 128 255 -0.335610 -0.940569 0.051926
1.068838 0.250737 0.245264 128 128 255 -0.241044 -0.970483 0.007758
1.102185 0.244437 0.239433 128 128 255 -0.136972 -0.988515 -0.063842
1.135517 0.241986 0.237220 128 128 255 -0.021994 -0.986373 -0.163045
1.168833 0.243078 0.238340 128 128 255 0.100249 -0.954384 -0.281248
1.202133 0.247366 0.242467 128 128 255 0.218905 -0.889865 -0.400277
1.235415 0.254470 0.249246 128 128 255 0.320998 -0.803676 -0.501064
1.268679 0.263989 0.258301 128 128 255 0.399638 -0.714222 -0.574610
1.301924 0.275512 0.269248 128 128 255 0.455671 -0.635814 -0.622980
1.335149 0.288628 0.281702 128 128 255 0.493560 -0.574410 -0.653033
1.368355 0.302935 0.295287 128 128 255 0.517787 -0.530140 -0.671453
1.401542 0.318049 0.309642 128 128 255 0.531626 -0.500691 -0.683142
1.434711 0.333609 0.324430 128 128 255 0.537181 -0.483280 -0.691287
1.467861 0.349285 0.339338 128 128 255 0.535733 -0.475420 -0.697830
1.500996 0.364779 0.354089 128 128 255 0.528058 -0.475092 -0.703877
1.534115 0.379832 0.368439 128 128 255 0.514641 -0.480700 -0.709980
1.567221 0.394224 0.382178 128 128 255 0.495833 -0.490960 -0.716315
1.600316 0.407773 0.395137 128 128 255 0.471949 -0.504800 -0.722801
1.633402 0.420338 0.407180 128 128 255 0.443356 -0.521275 -0.729183
1.666480 0.431815 0.418208 128 128 255 0.410529 -0.539525 -0.735104
1.699552 0.442135 0.428157 128 128 255 0.374100 -0.558749 -0.740168
1.732621 0.451262 0.436989 128 128 255 0.334865 -0.578210 -0.744002
1.765687 0.459192 0.444700 128 128 255 0.293768 -0.597256 -0.746315
1.798753 0.465943 0.451305 128 128 255 0.251856 -0.615349 -0.746936
1.831820 0.471557 0.456844 128 128 255 0.210203 -0.632092 -0.745838
1.864888 0.476097 0.461372 128 128 255 0.169835 -0.647233 -0.743133
1.897959 0.479635 0.464957 128 128 255 0.131652 -0.660664 -0.739047
1.931035 0.482257 0.467680 128 128 255 0.096383 -0.672400 -0.733886
1.964116 0.484057 0.469625 128 128 255 0.064552 -0.682543 -0.727989
1.997203 0.485130 0.470884 128 128 255 0.036483 -0.691251 -0.721693
2.030297 0.485574 0.471547 128 128 255 0.012313 -0.698704 -0.715305
2.063399 0.485486 0.471703 128 128 255 -0.007968 -0.705088 -0.709075
2.096478 0.484960 0.471440 128 128 255 -0.022354 -0.723894 -0.689549
-1.896514 0.435263 0.515523 128 128 255 0.165939 -0.588490 -0.791293
-1.863397 0.438718 0.519871 128 128 255 0.171185 -0.605729 -0.777038
-1.830285 0.442427 0.524519 128 128 255 0.181616 -0.606477 -0.774081
-1.797180 0.446349 0.529415 128 128 255 0.189770 -0.608339 -0.770656
-1.764078 0.450427 0.534490 128 128 255 0.195048 -0.611503 -0.766825
-1.730978 0.454591 0.539660 128 128 255 0.196814 -0.616148 -0.762644
-1.697881 0.458755 0.544821 128 128 255 0.194400 -0.622428 -0.758151
-1.664784 0.462820 0.549850 128 128 255 0.187109 -0.630457 -0.753335
-1.631687 0.466669 0.554607 128 128 255 0.174218 -0.640287 -0.748118
-1.598589 0.470173 0.558936 128 128 255 0.154995 -0.651873 -0.742320
-1.565489 0.473190 0.562664 128 128 255 0.128739 -0.665039 -0.735629
-1.532388 0.475566 0.565604 128 128 255 0.094838 -0.679436 -0.727580
-1.499285 0.477138 0.567561 128 128 255 0.052872 -0.694500 -0.717548
-1.466179 0.477738 0.568331 128 128 255 0.002756 -0.709433 -0.704768
-1.433071 0.477197 0.567708 128 128 255 -0.055098 -0.723223 -0.688413
-1.399960 0.475345 0.565489 128 128 255 -0.119619 -0.734734 -0.667726
-1.366846 0.472020 0.561479 128 128 255 -0.189016 -0.742871 -0.642196
-1.333728 0.467074 0.555497 128 128 255 -0.260856 -0.746813 -0.611738
-1.300605 0.460371 0.547382 128 128 255 -0.332338 -0.746226 -0.576800
-1.267477 0.451802 0.537003 128 128 255 -0.400687 -0.741384 -0.538330
-1.234342 0.441284 0.524262 128 128 255 -0.463564 -0.733141 -0.497606
-1.201198 0.428768 0.509099 128 128 255 -0.519321 -0.722759 -0.455988
-1.168043 0.414244 0.491506 128 128 255 -0.567055 -0.711682 -0.414677
-1.134876 0.397746 0.471526 128 128 255 -0.606500 -0.701329 -0.374560
-1.101693 0.379355 0.449257 128 128 255 -0.637813 -0.692963 -0.336151
-1.068493 0.359204 0.424863 128 128 255 -0.661345 -0.687649 -0.299603
-1.035273 0.337480 0.398568 128 128 255 -0.677462 -0.686257 -0.264758
-1.002032 0.314423 0.370665 128 128 255 -0.686389 -0.689503 -0.231205
-0.968769 0.290327 0.341509 128 128 255 -0.688110 -0.697979 -0.198318
-0.935483 0.265538 0.311516 128 128 255 -0.682278 -0.712164 -0.165285
-0.902176 0.240451 0.281164 128 128 255 -0.668155 -0.732378 -0.131119
-0.868847 0.215505 0.250978 128 128 255 -0.644567 -0.758662 -0.094688
-0.835499 0.191172 0.221529 128 128 255 -0.609955 -0.790540 -0.054793
-0.802133 0.167957 0.193422 128 128 255 -0.562622 -0.826649 -0.010408
-0.768753 0.146378 0.167284 128 128 255 -0.501449 -0.864322 0.038677
-0.735360 0.126963 0.143749 128 128 255 -0.427778 -0.899420 0.089720
-0.701956 0.110237 0.123449 128 128 255 -0.355038 -0.927094 0.120183
-0.668544 0.096706 0.106993 128 128 255 0.152007 0.911707 -0.381686
-0.635124 0.086846 0.094957 128 128 255 0.114297 0.927958 -0.354724
-0.601698 0.081091 0.087863 128 128 255 0.041367 0.910403 -0.411648
-0.568267 0.079818 0.086167 128 128 255 -0.012391 0.880098 -0.474631
-0.534831 0.083337 0.090243 128 128 255 -0.036861 0.842017 -0.538190
-0.501391 0.091880 0.100373 128 128 255 -0.026610 0.798668 -0.601183
-0.467950 0.105589 0.116728 128 128 255 0.021468 0.749494 -0.661663
-0.434509 0.124510 0.139368 128 128 255 0.107444 0.691220 -0.714613
-0.401072 0.148589 0.168228 128 128 255 0.225431 0.619933 -0.751575
-0.367642 0.177667 0.203114 128 128 255 0.361113 0.534893 -0.763863
-0.334223 0.211478 0.243709 128 128 255 0.494741 0.441382 -0.748607
-0.300819 0.249658 0.289566 128 128 255 0.609813 0.348731 -0.711699
-0.267428 0.291741 0.340119 128 128 255 0.699307 0.265006 -0.663884
-0.234047 0.337171 0.394691 128 128 255 0.764462 0.193899 -0.614817
-0.200668 0.385304 0.452502 128 128 255 0.810130 0.135312 -0.570422
-0.167286 0.435423 0.512692 128 128 255 0.841385 0.087244 -0.533348
-0.133895 0.486751 0.574328 128 128 255 0.862218 0.047187 -0.504334
-0.100493 0.538463 0.636430 128 128 255 0.875374 0.012760 -0.483278
-0.067080 0.589713 0.697990 128 128 255 0.882551 -0.018122 -0.469868
-0.033660 0.639647 0.757993 128 128 255 0.884624 -0.047299 -0.463901
-0.000238 0.687431 0.815436 128 128 255 0.881762 -0.076487 -0.465452
0.033181 0.732262 0.869359 128 128 255 0.873415 -0.107445 -0.474975
0.066595 0.773395 0.918858 128 128 255 0.858114 -0.142160 -0.493387
0.100000 0.810152 0.963110 128 128 255 0.832997 -0.183053 -0.522118
0.133395 0.841941 1.001388 128 128 255 0.792872 -0.233165 -0.563017
0.166781 0.868267 1.033082 128 128 255 0.728563 -0.296054 -0.617696
0.200159 0.888738 1.057709 128 128 255 0.624690 -0.374547 -0.685183
0.233533 0.903077 1.074921 128 128 255 0.459769 -0.466209 -0.755819
0.266906 0.911123 1.084518 128 128 255 0.219394 -0.554402 -0.802810
0.300281 0.912835 1.086445 128 128 255 -0.070260 -0.607956 -0.790856
0.333663 0.908289 1.080795 128 128 255 -0.338857 -0.610282 -0.716053
0.367053 0.897678 1.067802 128 128 255 -0.537087 -0.578537 -0.613867
0.400454 0.881303 1.047836 128 128 255 -0.666140 -0.537789 -0.516759
0.433867 0.859569 1.021393 128 128 255 -0.746947 -0.501516 -0.436523
0.467292 0.832967 0.989076 128 128 255 -0.797643 -0.473775 -0.373233
0.500728 0.802070 0.951585 128 128 255 -0.829735 -0.454760 -0.323626
0.534172 0.767515 0.909697 128 128 255 -0.849914 -0.443629 -0.284324
0.567621 0.729985 0.864245 128 128 255 -0.861992 -0.439502 -0.252603
0.601072 0.690201 0.816102 128 128 255 -0.868111 -0.441724 -0.226411
0.634521 0.648898 0.766156 128 128 255 -0.869416 -0.449903 -0.204215
0.667966 0.606810 0.715293 128 128 255 -0.866406 -0.463865 -0.184852
0.701405 0.564658 0.664379 128 128 255 -0.859131 -0.483594 -0.167425
0.734837 0.523129 0.614238 128 128 255 -0.847284 -0.509155 -0.151233
0.768263 0.482863 0.565640 128 128 255 -0.830256 -0.540600 -0.135744
0.801684 0.444444 0.519285 128 128 255 -0.807190 -0.577839 -0.120612
0.835100 0.408387 0.475793 128 128 255 -0.777054 -0.620487 -0.105745
0.868511 0.375130 0.435690 128 128 255 -0.738795 -0.667701 -0.091420
0.901917 0.345034 0.399410 128 128 255 -0.691553 -0.718053 -0.078449
0.935317 0.318372 0.367284 128 128 255 -0.634934 -0.769535 -0.068364
0.968710 0.295336 0.339542 128 128 255 -0.569181 -0.819752 -0.063554
1.002094 0.276034 0.316315 128 128 255 -0.495065 -0.866245 -0.067305
1.035467 0.260494 0.297636 128 128 255 -0.413395 -0.906700 -0.083662
1.068828 0.248672 0.283452 128 128 255 -0.324290 -0.938687 -0.117062
1.102176 0.240451 0.273623 128 128 255 -0.226773 -0.958737 -0.171459
1.135509 0.235658 0.267939 128 128 255 -0.119500 -0.961244 -0.248455
1.168826 0.234064 0.266127 128 128 255 -0.003218 -0.938858 -0.344289
1.202127 0.235399 0.267859 128 128 255 0.116199 -0.886625 -0.447653
1.235411 0.239360 0.272770 128 128 255 0.227993 -0.808384 -0.542710
1.268677 0.245618 0.280466 128 128 255 0.322017 -0.717690 -0.617434
1.301924 0.253830 0.290534 128 128 255 0.394065 -0.630186 -0.669013
1.335152 0.263650 0.302554 128 128 255 0.445650 -0.556017 -0.701599
1.368360 0.274731 0.316110 128 128 255 0.480663 -0.498617 -0.721349
1.401550 0.286738 0.330796 128 128 255 0.502873 -0.457261 -0.733506
1.434721 0.299352 0.346230 128 128 255 0.515088 -0.429594 -0.741710
1.467874 0.312277 0.362051 128 128 255 0.519180 -0.413028 -0.748238
1.501011 0.325241 0.377932 128 128 255 0.516345 -0.405281 -0.754411
1.534133 0.338005 0.393583 128 128 255 0.507348 -0.404494 -0.760910
1.567241 0.350359 0.408751 128 128 255 0.492709 -0.409180 -0.767990
1.600337 0.362128 0.423221 128 128 255 0.472836 -0.418139 -0.775620
1.633423 0.373170 0.436820 128 128 255 0.448118 -0.430366 -0.783566
1.666501 0.383374 0.449414 128 128 255 0.419009 -0.444982 -0.791468
1.699573 0.392662 0.460907 128 128 255 0.386066 -0.461203 -0.798902
1.732641 0.400984 0.471236 128 128 255 0.349988 -0.478310 -0.805437
1.765707 0.408318 0.480373 128 128 255 0.311613 -0.495660 -0.810690
1.798771 0.414665 0.488319 128 128 255 0.271889 -0.512697 -0.814382
1.831836 0.420046 0.495096 128 128 255 0.231818 -0.528973 -0.816363
1.864902 0.424501 0.500752 128 128 255 0.192399 -0.544155 -0.816626
1.897972 0.428083 0.505351 128 128 255 0.154545 -0.558035 -0.815299
1.931046 0.430857 0.508968 128 128 255 0.119035 -0.570518 -0.812613
1.964125 0.432895 0.511690 128 128 255 0.086477 -0.581602 -0.808864
1.997210 0.434274 0.513611 128 128 255 0.057287 -0.591351 -0.804377
2.030303 0.435075 0.514826 128 128 255 0.031704 -0.599872 -0.799468
2.063404 0.435379 0.515432 128 128 255 0.009807 -0.607299 -0.794413
2.096481 0.435263 0.515523 128 128 255 -0.005484 -0.628671 -0.777652
-1.896518 0.380546 0.552630 128 128 255 0.167032 -0.481007 -0.860658
-1.863401 0.383478 0.557413 128 128 255 0.173802 -0.499337 -0.848797
-1.830290 0.386662 0.562586 128 128 255 0.186408 -0.499556 -0.845988
-1.797184 0.390070 0.568101 128 128 255 0.197050 -0.500872 -0.842792
-1.764082 0.393660 0.573893 128 128 255 0.205134 -0.503476 -0.839304
-1.730982 0.397379 0.579879 128 128 255 0.210025 -0.507559 -0.835627
-1.697884 0.401162 0.585954 128 128 255 0.211056 -0.513298 -0.831853
-1.664785 0.404928 0.591992 128 128 255 0.207524 -0.520846 -0.828042
-1.631687 0.408586 0.597846 128 128 255 0.198693 -0.530312 -0.824191
-1.598586 0.412028 0.603351 128 128 255 0.183799 -0.541744 -0.820202
-1.565485 0.415139 0.608318 128 128 255 0.162067 -0.555095 -0.815845
-1.532380 0.417788 0.612546 128 128 255 0.132763 -0.570183 -0.810719
-1.499274 0.419837 0.615816 128 128 255 0.095265 -0.586647 -0.804220
-1.466164 0.421142 0.617899 128 128 255 0.049189 -0.603903 -0.795539
-1.433052 0.421553 0.618561 128 128 255 -0.005436 -0.621123 -0.783694
-1.399937 0.420920 0.617565 128 128 255 -0.067981 -0.637267 -0.767639
-1.366818 0.419096 0.614681 128 128 255 -0.137052 -0.651182 -0.746444
-1.333696 0.415942 0.609688 128 128 255 -0.210464 -0.661794 -0.719537
-1.300570 0.411329 0.602386 128 128 255 -0.285395 -0.668355 -0.686915
-1.267439 0.405144 0.592599 128 128 255 -0.358769 -0.670642 -0.649249
-1.234301 0.397298 0.580187 128 128 255 -0.427724 -0.669059 -0.607793
-1.201156 0.387726 0.565048 128 128 255 -0.490029 -0.664552 -0.564129
-1.168001 0.376393 0.547132 128 128 255 -0.544276 -0.658420 -0.519852
-1.134834 0.363303 0.526445 128 128 255 -0.589856 -0.652083 -0.476295
-1.101654 0.348494 0.503051 128 128 255 -0.626758 -0.646904 -0.434385
-1.068457 0.332052 0.477085 128 128 255 -0.655314 -0.644092 -0.394599
-1.035241 0.314104 0.448751 128 128 255 -0.675962 -0.644688 -0.357006
-1.002005 0.294826 0.418326 128 128 255 -0.689048 -0.649589 -0.321319
-0.968747 0.274441 0.386160 128 128 255 -0.694687 -0.659602 -0.286942
-0.935467 0.253216 0.352675 128 128 255 -0.692632 -0.675472 -0.252979
-0.902164 0.231465 0.318364 128 128 255 -0.682157 -0.697892 -0.218193
-0.868839 0.209540 0.283781 128 128 255 -0.661904 -0.727436 -0.180888
-0.835494 0.187831 0.249534 128 128 255 -0.629688 -0.764368 -0.138693
-0.802131 0.166755 0.216279 128 128 255 -0.582228 -0.808236 -0.088119
-0.768752 0.146751 0.184705 128 128 255 -0.514647 -0.857080 -0.023492
-0.735359 0.128270 0.155521 128 128 255 -0.418733 -0.905665 0.066581
-0.701956 0.111768 0.129441 128 128 255 -0.272024 -0.937525 0.216910
-0.668544 0.097692 0.107166 128 128 255 0.092199 -0.764085 0.638494
-0.635124 0.086470 0.089372 128 128 255 0.402587 0.843581 0.355379
-0.601698 0.078502 0.076685 128 128 255 0.178500 0.983909 -0.007795
-0.568267 0.074147 0.069670 128 128 255 0.051379 0.985277 -0.163062
-0.534832 0.073712 0.068812 128 128 255 -0.027250 0.961576 -0.273182
-0.501392 0.077443 0.074499 128 128 255 -0.063516 0.928456 -0.365972
-0.467950 0.085518 0.087009 128 128 255 -0.057630 0.890949 -0.450431
-0.434507 0.098032 0.106497 128 128 255 -0.008891 0.848519 -0.529090
-0.401066 0.115000 0.132987 128 128 255 0.081731 0.796433 -0.599178
-0.367629 0.136349 0.166367 128 128 255 0.207354 0.728468 -0.652947
-0.334202 0.161916 0.206380 128 128 255 0.351696 0.642061 -0.681225
-0.300788 0.191449 0.252628 128 128 255 0.492494 0.542695 -0.680391
-0.267389 0.224611 0.304577 128 128 255 0.611839 0.441766 -0.656122
-0.234005 0.260983 0.361561 128 128 255 0.703011 0.349539 -0.619353
-0.200629 0.300072 0.422795 128 128 255 0.768291 0.270940 -0.579932
-0.167254 0.341311 0.487387 128 128 255 0.813397 0.206249 -0.543917
-0.133873 0.384076 0.554360 128 128 255 0.843884 0.153430 -0.514120
-0.100481 0.427696 0.622666 128 128 255 0.863935 0.109820 -0.491484
-0.067078 0.471465 0.691211 128 128 255 0.876342 0.072881 -0.476143
-0.033665 0.514665 0.758881 128 128 255 0.882787 0.040407 -0.468033
-0.000246 0.556576 0.824558 128 128 255 0.884089 0.010485 -0.467202
0.033174 0.596500 0.887153 128 128 255 0.880334 -0.018635 -0.473988
0.066590 0.633774 0.945626 128 128 255 0.870846 -0.048698 -0.489138
0.100000 0.667785 0.999009 128 128 255 0.853954 -0.081637 -0.513904
0.133400 0.697983 1.046431 128 128 255 0.826462 -0.119770 -0.550106
0.166791 0.723895 1.087132 128 128 255 0.782602 -0.165984 -0.599986
0.200172 0.745130 1.120484 128 128 255 0.712272 -0.223621 -0.665328
0.233547 0.761389 1.146004 128 128 255 0.598944 -0.295202 -0.744393
0.266919 0.772469 1.163361 128 128 255 0.421185 -0.378020 -0.824442
0.300291 0.778265 1.172383 128 128 255 0.169701 -0.456360 -0.873463
0.333667 0.778773 1.173060 128 128 255 -0.119611 -0.503864 -0.855461
0.367050 0.774088 1.165540 128 128 255 -0.375961 -0.509743 -0.773832
0.400442 0.764400 1.150124 128 128 255 -0.560128 -0.489478 -0.668332
0.433846 0.749986 1.127257 128 128 255 -0.679079 -0.462322 -0.570184
0.467263 0.731207 1.097515 128 128 255 -0.753707 -0.438312 -0.489702
0.500690 0.708494 1.061586 128 128 255 -0.800731 -0.420637 -0.426491
0.534128 0.682342 1.020258 128 128 255 -0.830565 -0.409678 -0.377261
0.567574 0.653293 0.974391 128 128 255 -0.849258 -0.405014 -0.338711
0.601024 0.621925 0.924903 128 128 255 -0.860263 -0.406156 -0.308196
0.634474 0.588840 0.872745 128 128 255 -0.865520 -0.412758 -0.283735
0.667923 0.554650 0.818879 128 128 255 -0.866053 -0.424651 -0.263864
0.701367 0.519960 0.764257 128 128 255 -0.862290 -0.441819 -0.247492
0.734805 0.485358 0.709800 128 128 255 -0.854236 -0.464345 -0.233806
0.768236 0.451402 0.656382 128 128 255 -0.841559 -0.492348 -0.222197
0.801661 0.418608 0.604809 128 128 255 -0.823651 -0.525887 -0.212232
0.835079 0.387439 0.555810 128 128 255 -0.799674 -0.564837 -0.203666
0.868493 0.358304 0.510020 128 128 255 -0.768654 -0.608740 -0.196488
0.901900 0.331544 0.467979 128 128 255 -0.729611 -0.656643 -0.191014
0.935301 0.307433 0.430115 128 128 255 -0.681766 -0.706994 -0.188028
0.968695 0.286179 0.396754 128 128 255 -0.624743 -0.757631 -0.188919
1.002079 0.267918 0.368109 128 128 255 -0.558671 -0.805945 -0.195804
1.035453 0.252718 0.344289 128 128 255 -0.484034 -0.849100 -0.211521
1.068815 0.240585 0.325302 128 128 255 -0.401241 -0.884128 -0.239425
1.102164 0.231465 0.311062 128 128 255 -0.310138 -0.907654 -0.282806
1.135498 0.225248 0.301398 128 128 255 -0.210011 -0.915296 -0.343698
1.168817 0.221778 0.296065 128 128 255 -0.100706 -0.901504 -0.420890
1.202120 0.220860 0.294755 128 128 255 0.015098 -0.861302 -0.507870
1.235405 0.222263 0.297107 128 128 255 0.130226 -0.794513 -0.593119
1.268672 0.225734 0.302724 128 128 255 0.234849 -0.709121 -0.664826
1.301921 0.231003 0.311180 128 128 255 0.321353 -0.618715 -0.716885
1.335151 0.237788 0.322035 128 128 255 0.387388 -0.535674 -0.750322
1.368363 0.245808 0.334845 128 128 255 0.434793 -0.466871 -0.770056
1.401555 0.254783 0.349172 128 128 255 0.466968 -0.414007 -0.781370
1.434729 0.264447 0.364593 128 128 255 0.487115 -0.375859 -0.788321
1.467885 0.274545 0.380711 128 128 255 0.497665 -0.350138 -0.793557
1.501024 0.284842 0.397157 128 128 255 0.500291 -0.334486 -0.798641
1.534148 0.295129 0.413595 128 128 255 0.496110 -0.326842 -0.804394
1.567258 0.305216 0.429731 128 128 255 0.485879 -0.325523 -0.811145
1.600355 0.314944 0.445310 128 128 255 0.470146 -0.329178 -0.818904
1.633442 0.324178 0.460120 128 128 255 0.449377 -0.336707 -0.827459
1.666521 0.332812 0.473990 128 128 255 0.424034 -0.347193 -0.836452
1.699593 0.340763 0.486791 128 128 255 0.394643 -0.359844 -0.845440
1.732660 0.347975 0.498431 128 128 255 0.361832 -0.373960 -0.853951
1.765725 0.354415 0.508856 128 128 255 0.326350 -0.388913 -0.861535
1.798788 0.360069 0.518044 128 128 255 0.289054 -0.404152 -0.867819
1.831851 0.364944 0.526003 128 128 255 0.250872 -0.419206 -0.872542
1.864916 0.369059 0.532763 128 128 255 0.212756 -0.433697 -0.875581
1.897984 0.372451 0.538379 128 128 255 0.175612 -0.447348 -0.876949
1.931056 0.375163 0.542919 128 128 255 0.140248 -0.459975 -0.876786
1.964134 0.377249 0.546467 128 128 255 0.107330 -0.471484 -0.875319
1.997217 0.378767 0.549114 128 128 255 0.077354 -0.481853 -0.872831
2.030309 0.379781 0.550957 128 128 255 0.050648 -0.491111 -0.869624
2.063409 0.380352 0.552096 128 128 255 0.027385 -0.499326 -0.865981
2.096485 0.380546 0.552630 128 128 255 0.011358 -0.522818 -0.852368
-1.896522 0.321806 0.582203 128 128 255 0.166443 -0.365762 -0.915705
-1.863405 0.324135 0.587306 128 128 255 0.174673 -0.384859 -0.906296
-1.830294 0.326693 0.592887 128 128 255 0.189332 -0.384532 -0.903487
-1.797189 0.329462 0.598906 128 128 255 0.202352 -0.385271 -0.900344
-1.764086 0.332415 0.605307 128 128 255 0.213140 -0.387265 -0.896993
-1.730986 0.335515 0.612009 128 128 255 0.221069 -0.390702 -0.893577
-1.697887 0.338715 0.618911 128 128 255 0.225472 -0.395766 -0.890242
-1.664788 0.341956 0.625890 128 128 255 0.225650 -0.402626 -0.887116
-1.631688 0.345169 0.632796 128 128 255 0.220865 -0.411425 -0.884278
-1.598586 0.348273 0.639458 128 128 255 0.210340 -0.422272 -0.881728
-1.565482 0.351177 0.645681 128 128 255 0.193263 -0.435213 -0.879340
-1.532375 0.353779 0.651250 128 128 255 0.168816 -0.450206 -0.876821
-1.499265 0.355970 0.655931 128 128 255 0.136228 -0.467077 -0.873660
-1.466152 0.357632 0.659475 128 128 255 0.094873 -0.485469 -0.869091
-1.433035 0.358644 0.661624 128 128 255 0.044421 -0.504804 -0.862090
-1.399916 0.358881 0.662111 128 128 255 -0.014953 -0.524254 -0.851431
-1.366793 0.358218 0.660674 128 128 255 -0.082352 -0.542776 -0.835831
-1.333666 0.356534 0.657056 128 128 255 -0.156003 -0.559230 -0.814202
-1.300536 0.353716 0.651016 128 128 255 -0.233280 -0.572586 -0.785955
-1.267401 0.349661 0.642336 128 128 255 -0.310972 -0.582172 -0.751247
-1.234260 0.344279 0.630831 128 128 255 -0.385772 -0.587867 -0.711050
-1.201113 0.337503 0.616354 128 128 255 -0.454815 -0.590159 -0.666975
-1.167957 0.329285 0.598810 128 128 255 -0.516057 -0.590036 -0.620921
-1.134790 0.319605 0.578157 128 128 255 -0.568394 -0.588778 -0.574690
-1.101611 0.308473 0.554420 128 128 255 -0.611528 -0.587745 -0.529706
-1.068417 0.295933 0.527693 128 128 255 -0.645692 -0.588232 -0.486893
-1.035206 0.282064 0.498146 128 128 255 -0.671362 -0.591409 -0.446664
-1.001975 0.266982 0.466028 128 128 255 -0.689013 -0.598328 -0.408979
-0.968722 0.250842 0.431669 128 128 255 -0.698927 -0.609971 -0.373412
-0.935447 0.233837 0.395480 128 128 255 -0.701035 -0.627307 -0.339170
-0.902150 0.216200 0.357951 128 128 255 -0.694768 -0.651336 -0.305057
-0.868830 0.198194 0.319644 128 128 255 -0.678856 -0.683093 -0.269330
-0.835488 0.180119 0.281190 128 128 255 -0.651027 -0.723559 -0.229405
-0.802128 0.162299 0.243275 128 128 255 -0.607525 -0.773343 -0.181257
-0.768750 0.145080 0.206633 128 128 255 -0.542226 -0.831880 -0.118183
-0.735359 0.128825 0.172029 128 128 255 -0.444689 -0.895253 -0.027802
-0.701956 0.113903 0.140245 128 128 255 -0.294013 -0.948621 0.116940
-0.668544 0.100682 0.112062 128 128 255 -0.032615 -0.920479 0.389430
-0.635124 0.089523 0.088244 128 128 255 0.436072 -0.325979 0.838796
-0.601698 0.080768 0.069514 128 128 255 0.430016 0.683948 0.589324
-0.568268 0.074731 0.056542 128 128 255 0.205193 0.942240 0.264727
-0.534833 0.071693 0.049920 128 128 255 0.049077 0.996459 0.068267
-0.501395 0.071887 0.050146 128 128 255 -0.047658 0.996154 -0.073522
-0.467953 0.075497 0.057611 128 128 255 -0.092884 0.977526 -0.189251
-0.434509 0.082647 0.072579 128 128 255 -0.089881 0.952324 -0.291549
-0.401065 0.093396 0.095176 128 128 255 -0.039647 0.921740 -0.385777
-0.367624 0.107733 0.125386 128 128 255 0.056158 0.880272 -0.471134
-0.334189 0.125578 0.163037 128 128 255 0.189835 0.819496 -0.540730
-0.300765 0.146778 0.207807 128 128 255 0.343095 0.734875 -0.585016
-0.267356 0.171109 0.259219 128 128 255 0.491026 0.632124 -0.599428
-0.233964 0.198280 0.316649 128 128 255 0.614373 0.524960 -0.589035
-0.200585 0.227938 0.379337 128 128 255 0.706917 0.426040 -0.564586
-0.167214 0.259669 0.446396 128 128 255 0.772103 0.341565 -0.535902
-0.133842 0.293004 0.516833 128 128 255 0.816529 0.272183 -0.509115
-0.100461 0.327432 0.589567 128 128 255 0.846188 0.215836 -0.487217
-0.067069 0.362406 0.663450 128 128 255 0.865430 0.169734 -0.471404
-0.033664 0.397359 0.737293 128 128 255 0.877072 0.131225 -0.462087
-0.000250 0.431713 0.809892 128 128 255 0.882764 0.098025 -0.459477
0.033168 0.464899 0.880053 128 128 255 0.883261 0.068189 -0.463896
0.066587 0.496367 0.946617 128 128 255 0.878559 0.039980 -0.475958
0.100000 0.525599 1.008490 128 128 255 0.867840 0.011711 -0.496706
0.133405 0.552123 1.064662 128 128 255 0.849213 -0.018441 -0.527729
0.166801 0.575519 1.114234 128 128 255 0.819108 -0.052635 -0.571219
0.200187 0.595429 1.156435 128 128 255 0.771136 -0.093543 -0.629761
0.233565 0.611566 1.190638 128 128 255 0.694222 -0.144263 -0.705156
0.266937 0.623715 1.216376 128 128 255 0.570803 -0.207146 -0.794528
0.300307 0.631739 1.233345 128 128 255 0.380197 -0.279768 -0.881578
0.333678 0.635580 1.241416 128 128 255 0.119449 -0.348524 -0.929658
0.367055 0.635260 1.240629 128 128 255 -0.166637 -0.392386 -0.904580
0.400439 0.630875 1.231193 128 128 255 -0.409682 -0.404322 -0.817731
0.433834 0.622599 1.213474 128 128 255 -0.580449 -0.396448 -0.711272
0.467241 0.610669 1.187989 128 128 255 -0.690196 -0.382686 -0.614150
0.500659 0.595389 1.155388 128 128 255 -0.759262 -0.370410 -0.535087
0.534089 0.577113 1.116434 128 128 255 -0.802969 -0.362270 -0.473287
0.567529 0.556242 1.071987 128 128 255 -0.830740 -0.358895 -0.425517
0.600975 0.533212 1.022980 128 128 255 -0.848050 -0.360268 -0.388611
0.634424 0.508483 0.970397 128 128 255 -0.858031 -0.366258 -0.360052
0.667874 0.482530 0.915247 128 128 255 -0.862441 -0.376795 -0.337967
0.701322 0.455831 0.858545 128 128 255 -0.862195 -0.391906 -0.320983
0.734764 0.428856 0.801288 128 128 255 -0.857655 -0.411703 -0.308104
0.768200 0.402059 0.744434 128 128 255 -0.848785 -0.436350 -0.298602
0.801630 0.375864 0.688882 128 128 255 -0.835231 -0.465989 -0.291964
0.835052 0.350664 0.635458 128 128 255 -0.816383 -0.500663 -0.287847
0.868468 0.326807 0.584899 128 128 255 -0.791426 -0.540185 -0.286085
0.901878 0.304596 0.537843 128 128 255 -0.759432 -0.584000 -0.286719
0.935281 0.284280 0.494821 128 128 255 -0.719484 -0.631033 -0.290068
0.968675 0.266058 0.456252 128 128 255 -0.670858 -0.679588 -0.296831
1.002061 0.250075 0.422439 128 128 255 -0.613172 -0.727347 -0.308200
1.035436 0.236419 0.393575 128 128 255 -0.546433 -0.771480 -0.325929
1.068799 0.225131 0.369740 128 128 255 -0.470883 -0.808808 -0.352278
1.102150 0.216200 0.350915 128 128 255 -0.386658 -0.835848 -0.389685
1.135486 0.209571 0.336982 128 128 255 -0.293564 -0.848650 -0.440015
1.168806 0.205149 0.327740 128 128 255 -0.191419 -0.842675 -0.503247
1.202110 0.202804 0.322914 128 128 255 -0.081355 -0.813499 -0.575848
1.235397 0.202378 0.322167 128 128 255 0.032418 -0.759180 -0.650073
1.268666 0.203687 0.325111 128 128 255 0.142253 -0.683414 -0.716037
1.301917 0.206531 0.331326 128 128 255 0.239677 -0.596083 -0.766316
1.335149 0.210702 0.340364 128 128 255 0.319184 -0.509295 -0.799212
1.368363 0.215981 0.351767 128 128 255 0.379683 -0.432311 -0.817892
1.401558 0.222154 0.365078 128 128 255 0.423137 -0.369527 -0.827288
1.434734 0.229008 0.379848 128 128 255 0.452521 -0.321480 -0.831791
1.467893 0.236342 0.395648 128 128 255 0.470588 -0.286685 -0.834481
1.501034 0.243966 0.412075 128 128 255 0.479456 -0.262993 -0.837231
1.534160 0.251706 0.428759 128 128 255 0.480629 -0.248287 -0.841040
1.567272 0.259405 0.445365 128 128 255 0.475158 -0.240737 -0.846328
1.600371 0.266926 0.461604 128 128 255 0.463787 -0.238846 -0.853143
1.633460 0.274152 0.477225 128 128 255 0.447098 -0.241412 -0.861292
1.666539 0.280988 0.492022 128 128 255 0.425610 -0.247453 -0.870416
1.699611 0.287356 0.505832 128 128 255 0.399847 -0.256155 -0.880061
1.732678 0.293202 0.518533 128 128 255 0.370401 -0.266822 -0.889724
1.765742 0.298486 0.530044 128 128 255 0.337953 -0.278843 -0.898907
1.798804 0.303187 0.540317 128 128 255 0.303286 -0.291683 -0.907160
1.831867 0.307300 0.549338 128 128 255 0.267252 -0.304873 -0.914127
1.864930 0.310832 0.557121 128 128 255 0.230749 -0.318018 -0.919576
1.897996 0.313802 0.563705 128 128 255 0.194661 -0.330798 -0.923407
1.931067 0.316238 0.569149 128 128 255 0.159803 -0.342970 -0.925654
1.964143 0.318175 0.573526 128 128 255 0.126882 -0.354367 -0.926458
1.997225 0.319655 0.576924 128 128 255 0.096457 -0.364890 -0.926041
2.030315 0.320722 0.579436 128 128 255 0.068931 -0.374495 -0.924663
2.063414 0.321423 0.581162 128 128 255 0.044561 -0.383184 -0.922596
2.096489 0.321806 0.582202 128 128 255 0.027976 -0.408283 -0.912427
-1.896527 0.260099 0.603831 128 128 255 0.164187 -0.244666 -0.955605
-1.863410 0.261771 0.609123 128 128 255 0.173801 -0.264212 -0.948676
-1.830300 0.263629 0.614977 128 128 255 0.190379 -0.263355 -0.945727
-1.797194 0.265663 0.621363 128 128 255 0.205652 -0.263529 -0.942475
-1.764092 0.267858 0.628232 128 128 255 0.219029 -0.264914 -0.939067
-1.730992 0.270191 0.635514 128 128 255 0.229889 -0.267690 -0.935678
-1.697892 0.272631 0.643115 128 128 255 0.237570 -0.272031 -0.932502
-1.664792 0.275140 0.650916 128 128 255 0.241378 -0.278104 -0.929729
-1.631691 0.277672 0.658772 128 128 255 0.240582 -0.286061 -0.927518
-1.598587 0.280169 0.666511 128 128 255 0.234406 -0.296039 -0.925967
-1.565481 0.282569 0.673937 128 128 255 0.222027 -0.308141 -0.925069
-1.532371 0.284800 0.680829 128 128 255 0.202584 -0.322421 -0.924665
-1.499258 0.286783 0.686941 128 128 255 0.175209 -0.338853 -0.924381
-1.466141 0.288432 0.692013 128 128 255 0.139095 -0.357288 -0.923579
-1.433021 0.289656 0.695765 128 128 255 0.093615 -0.377404 -0.921305
-1.399897 0.290363 0.697910 128 128 255 0.038517 -0.398655 -0.916292
-1.366769 0.290457 0.698156 128 128 255 -0.025835 -0.420247 -0.907042
-1.333638 0.289845 0.696214 128 128 255 -0.098220 -0.441170 -0.892032
-1.300503 0.288436 0.691808 128 128 255 -0.176424 -0.460324 -0.870044
-1.267363 0.286145 0.684679 128 128 255 -0.257347 -0.476731 -0.840535
-1.234219 0.282899 0.674597 128 128 255 -0.337400 -0.489788 -0.803909
-1.201069 0.278632 0.661371 128 128 255 -0.413116 -0.499436 -0.761511
-1.167911 0.273298 0.644854 128 128 255 -0.481716 -0.506192 -0.715346
-1.134745 0.266867 0.624959 128 128 255 -0.541431 -0.511024 -0.667613
-1.101566 0.259330 0.601660 128 128 255 -0.591508 -0.515144 -0.620278
-1.068375 0.250701 0.575004 128 128 255 -0.631960 -0.519830 -0.574808
-1.035167 0.241021 0.545116 128 128 255 -0.663238 -0.526314 -0.532080
-1.001940 0.230356 0.512207 128 128 255 -0.685925 -0.535752 -0.492420
-0.968693 0.218802 0.476571 128 128 255 -0.700482 -0.549256 -0.455677
-0.935424 0.206484 0.438591 128 128 255 -0.707069 -0.567955 -0.421284
-0.902132 0.193555 0.398738 128 128 255 -0.705361 -0.593065 -0.388253
-0.868817 0.180194 0.357566 128 128 255 -0.694342 -0.625955 -0.355063
-0.835480 0.166609 0.315705 128 128 255 -0.671988 -0.668147 -0.319394
-0.802123 0.153026 0.273855 128 128 255 -0.634717 -0.721175 -0.277562
-0.768748 0.139695 0.232774 128 128 255 -0.576445 -0.786008 -0.223391
-0.735358 0.126876 0.193263 128 128 255 -0.486812 -0.861236 -0.145900
-0.701956 0.114840 0.156155 128 128 255 -0.347718 -0.937284 -0.024308
-0.668544 0.103864 0.122293 128 128 255 -0.126744 -0.975071 0.182134
-0.635124 0.094219 0.092512 128 128 255 0.216257 -0.820210 0.529611
-0.601698 0.086169 0.067622 128 128 255 0.520888 -0.154358 0.839553
-0.568268 0.079962 0.048385 128 128 255 0.428879 0.550797 0.716021
-0.534834 0.075824 0.035495 128 128 255 0.210157 0.855229 0.473727
-0.501397 0.073953 0.029559 128 128 255 0.037298 0.960945 0.274216
-0.467956 0.074511 0.031078 128 128 255 -0.072516 0.990584 0.116125
-0.434513 0.077620 0.040428 128 128 255 -0.124230 0.992140 -0.015024
-0.401068 0.083358 0.057850 128 128 255 -0.122769 0.983832 -0.130389
-0.367624 0.091753 0.083434 128 128 255 -0.070306 0.969069 -0.236564
-0.334184 0.102782 0.117112 128 128 255 0.031127 0.941917 -0.334400
-0.300751 0.116370 0.158655 128 128 255 0.173189 0.891759 -0.418057
-0.267331 0.132388 0.207668 128 128 255 0.335522 0.811895 -0.477757
-0.233928 0.150656 0.263598 128 128 255 0.490437 0.708247 -0.507797
-0.200543 0.170949 0.325738 128 128 255 0.617435 0.597040 -0.512169
-0.167170 0.192993 0.393238 128 128 255 0.711012 0.493416 -0.501001
-0.133803 0.216473 0.465124 128 128 255 0.775881 0.404830 -0.483861
-0.100432 0.241037 0.540314 128 128 255 0.819509 0.332280 -0.466900
-0.067050 0.266304 0.617637 128 128 255 0.848289 0.273698 -0.453316
-0.033656 0.291867 0.695866 128 128 255 0.866697 0.226212 -0.444594
-0.000249 0.317310 0.773737 128 128 255 0.877557 0.187104 -0.441458
0.033166 0.342214 0.849978 128 128 255 0.882473 0.154064 -0.444417
0.066584 0.366167 0.923340 128 128 255 0.882128 0.125161 -0.454076
0.100000 0.388775 0.992621 128 128 255 0.876415 0.098716 -0.471331
0.133410 0.409669 1.056694 128 128 255 0.864363 0.073151 -0.497519
0.166811 0.428519 1.114532 128 128 255 0.843837 0.046802 -0.534555
0.200203 0.445032 1.165228 128 128 255 0.810859 0.017730 -0.584973
0.233584 0.458965 1.208018 128 128 255 0.758360 -0.016478 -0.651627
0.266958 0.470125 1.242296 128 128 255 0.674276 -0.058701 -0.736143
0.300328 0.478375 1.267623 128 128 255 0.540205 -0.111352 -0.834134
0.333696 0.483631 1.283737 128 128 255 0.337060 -0.173007 -0.925451
0.367068 0.485871 1.290555 128 128 255 0.069266 -0.233237 -0.969950
0.400445 0.485126 1.288175 128 128 255 -0.210944 -0.276069 -0.937704
0.433830 0.481483 1.276865 128 128 255 -0.440097 -0.295987 -0.847765
0.467227 0.475082 1.257056 128 128 255 -0.598255 -0.300798 -0.742705
0.500636 0.466109 1.229329 128 128 255 -0.699644 -0.299862 -0.648523
0.534056 0.454794 1.194399 128 128 255 -0.763696 -0.298576 -0.572382
0.567488 0.441402 1.153091 128 128 255 -0.804398 -0.299290 -0.513195
0.600928 0.426228 1.106324 128 128 255 -0.830276 -0.302907 -0.467856
0.634374 0.409591 1.055083 128 128 255 -0.846290 -0.309784 -0.433391
0.667823 0.391824 1.000398 128 128 255 -0.855285 -0.320108 -0.407454
0.701271 0.373269 0.943321 128 128 255 -0.858855 -0.334048 -0.388303
0.734717 0.354265 0.884896 128 128 255 -0.857818 -0.351798 -0.374682
0.768157 0.335144 0.826143 128 128 255 -0.852473 -0.373575 -0.365693
0.801591 0.316226 0.768037 128 128 255 -0.842745 -0.399591 -0.360704
0.835018 0.297805 0.711482 128 128 255 -0.828262 -0.429995 -0.359286
0.868437 0.280153 0.657305 128 128 255 -0.808410 -0.464786 -0.361174
0.901850 0.263506 0.606235 128 128 255 -0.782397 -0.503699 -0.366254
0.935255 0.248069 0.558896 128 128 255 -0.749332 -0.546065 -0.374585
0.968651 0.234010 0.515800 128 128 255 -0.708353 -0.590677 -0.386440
1.002038 0.221457 0.477341 128 128 255 -0.658768 -0.635701 -0.402380
1.035415 0.210500 0.443797 128 128 255 -0.600174 -0.678665 -0.423326
1.068780 0.201194 0.415332 128 128 255 -0.532469 -0.716558 -0.450579
1.102132 0.193555 0.391997 128 128 255 -0.455709 -0.745952 -0.485679
1.135470 0.187566 0.373741 128 128 255 -0.369909 -0.763078 -0.529981
1.168792 0.183181 0.360419 128 128 255 -0.275046 -0.763882 -0.583810
1.202097 0.180324 0.351803 128 128 255 -0.171661 -0.744406 -0.645284
1.235386 0.178899 0.347592 128 128 255 -0.062109 -0.702065 -0.709399
1.268657 0.178787 0.347427 128 128 255 0.048365 -0.637880 -0.768615
1.301910 0.179857 0.350904 128 128 255 0.152281 -0.558075 -0.815698
1.335145 0.181967 0.357585 128 128 255 0.242652 -0.472711 -0.847151
1.368360 0.184967 0.367013 128 128 255 0.315644 -0.391743 -0.864238
1.401558 0.188705 0.378722 128 128 255 0.371011 -0.321739 -0.871111
1.434737 0.193032 0.392251 128 128 255 0.410714 -0.265277 -0.872320
1.467898 0.197800 0.407149 128 128 255 0.437369 -0.222133 -0.871415
1.501042 0.202872 0.422990 128 128 255 0.453362 -0.190722 -0.870682
1.534170 0.208118 0.439375 128 128 255 0.460553 -0.169075 -0.871381
1.567284 0.213419 0.455941 128 128 255 0.460307 -0.155321 -0.874067
1.600385 0.218671 0.472364 128 128 255 0.453612 -0.147860 -0.878848
1.633475 0.223783 0.488362 128 128 255 0.441209 -0.145391 -0.885549
1.666555 0.228676 0.503695 128 128 255 0.423710 -0.146863 -0.893813
1.699628 0.233289 0.518169 128 128 255 0.401680 -0.151424 -0.903174
1.732695 0.237571 0.531632 128 128 255 0.375702 -0.158371 -0.913108
1.765759 0.241489 0.543971 128 128 255 0.346417 -0.167108 -0.923077
1.798820 0.245018 0.555116 128 128 255 0.314546 -0.177116 -0.932572
1.831881 0.248147 0.565027 128 128 255 0.280881 -0.187945 -0.941160
1.864944 0.250875 0.573699 128 128 255 0.246262 -0.199200 -0.948512
1.898008 0.253208 0.581152 128 128 255 0.211540 -0.210547 -0.954422
1.931078 0.255162 0.587431 128 128 255 0.177521 -0.221711 -0.958817
1.964152 0.256756 0.592598 128 128 255 0.144936 -0.232474 -0.961743
1.997233 0.258017 0.596730 128 128 255 0.114389 -0.242678 -0.963339
2.030322 0.258974 0.599916 128 128 255 0.086348 -0.252215 -0.963811
2.063419 0.259657 0.602250 128 128 255 0.061144 -0.261027 -0.963393
2.096493 0.260098 0.603829 128 128 255 0.044183 -0.287169 -0.956860
-1.896531 0.196511 0.617257 128 128 255 0.160290 -0.119717 -0.979783
-1.863415 0.197504 0.622601 128 128 255 0.171203 -0.139398 -0.975324
-1.830305 0.198620 0.628579 128 128 255 0.189554 -0.138053 -0.972117
-1.797200 0.199857 0.635174 128 128 255 0.206941 -0.137707 -0.968614
-1.764098 0.201206 0.642349 128 128 255 0.222781 -0.138529 -0.964976
-1.730998 0.202656 0.650045 128 128 255 0.236450 -0.140685 -0.961405
-1.697898 0.204193 0.658179 128 128 255 0.247297 -0.144330 -0.958130
-1.664797 0.205794 0.666641 128 128 255 0.254632 -0.149614 -0.955394
-1.631695 0.207435 0.675294 128 128 255 0.257734 -0.156678 -0.953428
-1.598590 0.209083 0.683973 128 128 255 0.255837 -0.165656 -0.952421
-1.565482 0.210701 0.692484 128 128 255 0.248128 -0.176670 -0.952481
-1.532369 0.212248 0.700606 128 128 255 0.233733 -0.189824 -0.953591
-1.499253 0.213677 0.708091 128 128 255 0.211737 -0.205189 -0.955544
-1.466133 0.214935 0.714670 128 128 255 0.181215 -0.222772 -0.957880
-1.433009 0.215967 0.720052 128 128 255 0.141322 -0.242474 -0.959809
-1.399880 0.216716 0.723934 128 128 255 0.091444 -0.264041 -0.960167
-1.366748 0.217122 0.726002 128 128 255 0.031431 -0.287000 -0.957415
-1.333612 0.217124 0.725941 128 128 255 -0.038115 -0.310629 -0.949767
-1.300472 0.216664 0.723444 128 128 255 -0.115580 -0.333985 -0.935465
-1.267328 0.215685 0.718215 128 128 255 -0.198249 -0.356028 -0.913204
-1.234179 0.214135 0.709984 128 128 255 -0.282522 -0.375830 -0.882572
-1.201025 0.211969 0.698516 128 128 255 -0.364473 -0.392820 -0.844305
-1.167865 0.209150 0.683616 128 128 255 -0.440561 -0.406947 -0.800188
-1.134697 0.205649 0.665145 128 128 255 -0.508196 -0.418688 -0.752620
-1.101519 0.201453 0.643026 128 128 255 -0.565963 -0.428928 -0.704065
-1.068329 0.196560 0.617252 128 128 255 -0.613483 -0.438776 -0.656593
-1.035124 0.190982 0.587899 128 128 255 -0.651071 -0.449422 -0.611659
-1.001902 0.184751 0.555125 128 128 255 -0.679362 -0.462053 -0.570066
-0.968660 0.177912 0.519179 128 128 255 -0.698993 -0.477851 -0.532041
-0.935397 0.170531 0.480403 128 128 255 -0.710366 -0.498039 -0.497329
-0.902111 0.162692 0.439232 128 128 255 -0.713454 -0.523961 -0.465240
-0.868802 0.154494 0.396192 128 128 255 -0.707585 -0.557176 -0.434601
-0.835470 0.146055 0.351897 128 128 255 -0.691150 -0.599540 -0.403562
-0.802117 0.137508 0.307039 128 128 255 -0.661093 -0.653213 -0.369146
-0.768745 0.128999 0.262378 128 128 255 -0.612015 -0.720385 -0.326317
-0.735357 0.120684 0.218733 128 128 255 -0.534594 -0.802109 -0.266141
-0.701956 0.112728 0.176965 128 128 255 -0.413052 -0.894264 -0.172275
-0.668544 0.105301 0.137957 128 128 255 -0.222808 -0.974738 -0.015589
-0.635124 0.098573 0.102601 128 128 255 0.060195 -0.967861 0.244176
-0.601698 0.092712 0.071772 128 128 255 0.388517 -0.703712 0.594848
-0.568268 0.087879 0.046312 128 128 255 0.540881 -0.125076 0.831747
-0.534835 0.084223 0.027004 128 128 255 0.418847 0.426541 0.801642
-0.501398 0.081880 0.014553 128 128 255 0.202106 0.745268 0.635397
-0.467959 0.080964 0.009565 128 128 255 0.018255 0.891539 0.452576
-0.434518 0.081569 0.012530 128 128 255 -0.100879 0.951566 0.290424
-0.401074 0.083762 0.023801 128 128 255 -0.156908 0.975967 0.151219
-0.367629 0.087583 0.043584 128 128 255 -0.155779 0.987394 0.028022
-0.334186 0.093039 0.071925 128 128 255 -0.100443 0.991231 -0.085866
-0.300747 0.100106 0.108702 128 128 255 0.006993 0.981225 -0.192741
-0.267317 0.108728 0.153623 128 128 255 0.157696 0.944538 -0.288062
-0.233902 0.118816 0.206226 128 128 255 0.329160 0.872104 -0.362063
-0.200506 0.130252 0.265883 128 128 255 0.490804 0.769996 -0.407699
-0.167127 0.142888 0.331812 128 128 255 0.621025 0.657028 -0.427367
-0.133760 0.156550 0.403088 128 128 255 0.715269 0.550815 -0.430109
-0.100396 0.171039 0.478661 128 128 255 0.779598 0.459986 -0.425018
-0.067024 0.186133 0.557374 128 128 255 0.822318 0.385854 -0.418222
