ply
format ascii 1.0
comment Generated by Dimension Mathematical Universe
comment Shape: uuon_morphological_attractor
comment Total vertices: 9245
comment Tip: Scale points in your 3D software - these are raw vertex positions
element vertex 1186
property float x
property float y
property float z
property uchar red
property uchar green
property uchar blue
end_header
-164.615036 157.327988 -1.473294 0 255 136
0.664063 -152.942368 160.794479 0 255 136
0.351563 0.664063 -135.629288 0 255 136
-1.352484 0.367188 0.664063 0 255 136
158.237595 -1.324309 0.382813 0 255 136
-97.064056 157.057312 -1.308042 0 255 136
0.664063 -83.084343 158.906479 0 255 136
0.421875 0.664063 -68.324554 0 255 136
-1.319691 0.437500 0.664063 0 255 136
158.650055 -1.344903 0.453125 0 255 136
-29.830639 157.235855 -1.381405 0 255 136
0.664063 -15.203797 160.789871 0 255 136
0.492188 0.664063 0.100000 0 255 136
-1.519016 0.507813 0.664063 0 255 136
158.813858 -1.591135 0.523438 0 255 136
38.192646 160.089127 -1.672058 0 255 136
0.664063 52.254765 156.564301 0 255 136
0.562500 0.664063 68.524559 0 255 136
-1.908096 0.578125 0.664063 0 255 136
157.010834 -2.013878 0.593750 0 255 136
107.086441 160.579666 -2.124810 0 255 136
0.664063 120.505241 158.131882 0 255 136
0.632813 0.664063 135.829285 0 255 136
-2.418063 0.648438 0.664063 0 255 136
157.246994 -2.538906 0.664063 0 255 136
175.603394 160.342239 -2.660077 0 255 136
0.664063 188.563354 158.409210 0 255 136
0.703125 0.664063 201.224136 0 255 136
-2.956813 0.718750 0.664063 0 255 136
158.365784 -3.069993 0.734375 0 255 136
241.691086 158.644150 -3.178329 0 255 136
0.664063 255.583130 157.898392 0 255 136
0.773438 0.664063 268.552887 0 255 136
-3.421044 0.789063 0.664063 0 255 136
158.283035 -3.504322 0.804688 0 255 136
313.944519 160.849640 -3.578400 0 255 136
0.664063 324.058990 158.312531 0 255 136
0.843750 0.664063 336.400085 0 255 136
-3.718626 0.859375 0.664063 0 255 136
159.527863 -3.755202 0.875000 0 255 136
373.559631 156.953049 -3.779977 0 255 136
0.664063 397.930084 160.762146 0 255 136
0.914063 0.664063 402.288757 0 255 136
-3.788765 0.929688 0.664063 0 255 136
158.487030 -3.770839 0.945313 0 255 136
446.952301 159.149124 -3.740804 0 255 136
0.664063 457.967010 157.726349 0 255 136
0.984375 0.664063 480.490753 0 255 136
-3.614725 1.000000 0.664063 0 255 136
164.898514 -3.565264 0.007813 0 255 136
-465.159180 167.898392 -3.491340 0 255 136
0.671875 -440.625824 164.438446 0 255 136
0.046875 0.671875 -434.859009 0 255 136
-3.266882 0.062500 0.671875 0 255 136
164.301697 -3.163586 0.078125 0 255 136
-397.899963 168.484589 -3.054068 0 255 136
0.671875 -372.563843 164.072083 0 255 136
0.117188 0.671875 -364.800140 0 255 136
-2.760310 0.132813 0.671875 0 255 136
164.900696 -2.637888 0.148438 0 255 136
-321.934906 164.862045 -2.514468 0 255 136
0.671875 -313.071869 168.143448 0 255 136
0.187500 0.671875 -297.397339 0 255 136
-2.209599 0.203125 0.671875 0 255 136
165.033218 -2.092312 0.218750 0 255 136
-253.687592 164.315491 -1.979457 0 255 136
0.671875 -238.763306 164.318527 0 255 136
0.257813 0.671875 -224.989487 0 255 136
-1.723948 0.273438 0.671875 0 255 136
168.477783 -1.635062 0.289063 0 255 136
-187.920853 165.558350 -1.555149 0 255 136
0.671875 -173.649902 166.295563 0 255 136
0.328125 0.671875 -157.127991 0 255 136
-1.399513 0.343750 0.671875 0 255 136
164.194885 -1.356478 0.359375 0 255 136
-119.642532 164.745987 -1.325073 0 255 136
0.671875 -106.946327 168.315659 0 255 136
0.398438 0.671875 -89.269844 0 255 136
-1.298811 0.414063 0.671875 0 255 136
164.505890 -1.309285 0.429688 0 255 136
-52.732273 166.144287 -1.331532 0 255 136
0.671875 -37.139694 163.954651 0 255 136
0.468750 0.671875 -22.327522 0 255 136
-1.436413 0.484375 0.671875 0 255 136
167.787247 -1.496841 0.500000 0 255 136
15.080666 164.887314 -1.566968 0 255 136
0.671875 30.723238 168.527817 0 255 136
0.539063 0.671875 45.986530 0 255 136
-1.780254 0.554688 0.671875 0 255 136
164.505890 -1.878769 0.570313 0 255 136
82.362831 164.625671 -1.983573 0 255 136
0.671875 97.645798 165.177505 0 255 136
0.609375 0.671875 113.336182 0 255 136
-2.266907 0.625000 0.671875 0 255 136
164.194885 -2.386093 0.640625 0 255 136
150.704391 165.764832 -2.506993 0 255 136
0.671875 168.470001 168.470001 0 255 136
0.679688 0.671875 178.835037 0 255 136
-2.809243 0.695313 0.671875 0 255 136
168.477783 -2.927099 0.710938 0 255 136
219.021713 166.178543 -3.041486 0 255 136
0.671875 231.872696 164.583847 0 255 136
0.750000 0.671875 246.319260 0 255 136
-3.304998 0.765625 0.671875 0 255 136
165.033218 -3.398674 0.781250 0 255 136
288.147247 166.864197 -3.484200 0 255 136
0.671875 306.303741 168.512054 0 255 136
0.820313 0.671875 318.159393 0 255 136
-3.656924 0.835938 0.671875 0 255 136
164.900696 -3.707724 0.851563 0 255 136
359.909973 168.521698 -3.747223 0 255 136
0.671875 366.902618 164.786896 0 255 136
0.890625 0.671875 385.511780 0 255 136
-3.794062 0.906250 0.671875 0 255 136
164.301697 -3.791465 0.921875 0 255 136
427.048920 167.829926 -3.776599 0 255 136
0.671875 434.304901 164.798416 0 255 136
0.960938 0.671875 457.231995 0 255 136
-3.686778 0.976563 0.671875 0 255 136
164.898514 -3.630620 0.992188 0 255 136
-481.933533 173.330795 -3.581469 0 255 136
0.679688 -469.936737 174.468460 0 255 136
0.023438 0.679688 -451.269348 0 255 136
-3.384791 0.039063 0.679688 0 255 136
176.182510 -3.290617 0.054688 0 255 136
-409.751556 171.492462 -3.188941 0 255 136
0.679688 -404.032898 175.478424 0 255 136
0.093750 0.679688 -384.317627 0 255 136
-2.908706 0.109375 0.679688 0 255 136
174.673279 -2.789113 0.125000 0 255 136
-350.588837 175.444412 -2.666993 0 255 136
0.679688 -328.305420 171.766479 0 255 136
0.164063 0.679688 -314.436981 0 255 136
-2.358624 0.179688 0.679688 0 255 136
175.868591 -2.237264 0.195313 0 255 136
-283.096802 176.141266 -2.118859 0 255 136
0.679688 -267.392303 175.880661 0 255 136
0.234375 0.679688 -252.280731 0 255 136
-1.843392 0.250000 0.679688 0 255 136
175.581741 -1.744297 0.265625 0 255 136
-209.636353 172.383438 -1.653052 0 255 136
0.679688 -195.242035 172.902557 0 255 136
0.304688 0.679688 -182.569611 0 255 136
-1.464974 0.320313 0.679688 0 255 136
175.603394 -1.407682 0.335938 0 255 136
-145.296570 176.106384 -1.361519 0 255 136
0.679688 -130.048660 176.183472 0 255 136
0.375000 0.679688 -113.137161 0 255 136
-1.297274 0.390625 0.679688 0 255 136
171.911423 -1.292571 0.406250 0 255 136
-74.395920 171.440613 -1.299904 0 255 136
0.679688 -60.489246 174.294083 0 255 136
0.445313 0.679688 -44.737968 0 255 136
-1.369643 0.460938 0.679688 0 255 136
176.183121 -1.417200 0.476563 0 255 136
-7.362501 171.737534 -1.475279 0 255 136
0.679688 7.562501 171.737534 0 255 136
0.515625 0.679688 23.067364 0 255 136
-1.662485 0.531250 0.679688 0 255 136
171.978882 -1.752333 0.546875 0 255 136
60.689247 174.294083 -1.849559 0 255 136
0.679688 74.595917 171.440613 0 255 136
0.585938 0.679688 89.740738 0 255 136
-2.119106 0.601563 0.679688 0 255 136
173.730316 -2.234992 0.617188 0 255 136
130.248657 176.183472 -2.353934 0 255 136
0.679688 145.496582 176.106384 0 255 136
0.656250 0.679688 160.342239 0 255 136
-2.657390 0.671875 0.679688 0 255 136
175.158371 -2.778208 0.687500 0 255 136
195.442032 172.902557 -2.896965 0 255 136
0.679688 209.836349 172.383438 0 255 136
0.726563 0.679688 228.989227 0 255 136
-3.177343 0.742188 0.679688 0 255 136
176.001724 -3.279999 0.757813 0 255 136
267.592316 175.880661 -3.375673 0 255 136
0.679688 283.296814 176.141266 0 255 136
0.796875 0.679688 298.142395 0 255 136
-3.578229 0.812500 0.679688 0 255 136
172.346436 -3.642457 0.828125 0 255 136
328.505432 171.766479 -3.696050 0 255 136
0.679688 350.788818 175.444412 0 255 136
0.867188 0.679688 364.426849 0 255 136
-3.780141 0.882813 0.679688 0 255 136
173.464813 -3.792876 0.898438 0 255 136
404.232910 175.478424 -3.793365 0 255 136
0.679688 409.951569 171.492462 0 255 136
0.937500 0.679688 436.478394 0 255 136
-3.741063 0.953125 0.679688 0 255 136
173.124924 -3.699181 0.968750 0 255 136
470.136719 174.468460 -3.645821 0 255 136
0.679688 482.133514 173.330795 0 255 136
0.000000 0.687500 -473.618378 0 255 136
-3.489763 0.015625 0.687500 0 255 136
179.158630 -3.406193 0.031250 0 255 136
-442.046967 183.057358 -3.313957 0 255 136
0.687500 -420.932037 180.542297 0 255 136
0.070313 0.687500 -406.187927 0 255 136
-3.051645 0.085938 0.687500 0 255 136
181.094681 -2.936761 0.101563 0 255 136
-365.770111 179.301697 -2.817864 0 255 136
0.687500 -358.766815 183.351135 0 255 136
0.140625 0.687500 -342.209076 0 255 136
-2.510858 0.156250 0.687500 0 255 136
178.863968 -2.387346 0.171875 0 255 136
-298.966644 179.539978 -2.265267 0 255 136
0.687500 -286.034424 180.816483 0 255 136
0.210938 0.687500 -271.746216 0 255 136
-1.974214 0.226563 0.687500 0 255 136
180.103180 -1.866485 0.242188 0 255 136
-230.772736 178.840179 -1.765355 0 255 136
0.687500 -218.568176 181.066772 0 255 136
0.281250 0.687500 -206.228851 0 255 136
-1.547778 0.296875 0.687500 0 255 136
182.603745 -1.477095 0.312500 0 255 136
-163.740448 178.835037 -1.416840 0 255 136
0.687500 -149.764862 179.937836 0 255 136
0.351563 0.687500 -134.618164 0 255 136
-1.315317 0.367188 0.687500 0 255 136
180.872345 -1.295318 0.382813 0 255 136
-98.923500 182.912613 -1.287390 0 255 136
0.687500 -82.678604 180.707855 0 255 136
0.421875 0.687500 -68.470222 0 255 136
-1.320205 0.437500 0.687500 0 255 136
180.780334 -1.353877 0.453125 0 255 136
-30.065882 181.095291 -1.398766 0 255 136
0.687500 -15.137031 182.944366 0 255 136
0.492188 0.687500 0.100000 0 255 136
-1.556676 0.507813 0.687500 0 255 136
179.426666 -1.636472 0.523438 0 255 136
38.086544 182.435425 -1.724691 0 255 136
0.687500 52.558563 179.957932 0 255 136
0.562500 0.687500 68.670227 0 255 136
-1.976664 0.578125 0.687500 0 255 136
181.307541 -2.087646 0.593750 0 255 136
107.242645 183.773102 -2.202981 0 255 136
0.687500 119.478668 179.167999 0 255 136
0.632813 0.687500 134.818161 0 255 136
-2.503366 0.648438 0.687500 0 255 136
183.408981 -2.625413 0.664063 0 255 136
175.158371 182.769608 -2.746818 0 255 136
0.687500 186.413788 178.961243 0 255 136
0.703125 0.687500 206.428848 0 255 136
-3.039935 0.718750 0.687500 0 255 136
179.285706 -3.150039 0.734375 0 255 136
239.066864 179.325150 -3.254421 0 255 136
0.687500 256.058167 180.776367 0 255 136
0.773438 0.687500 271.946198 0 255 136
-3.483728 0.789063 0.687500 0 255 136
180.226440 -3.560392 0.804688 0 255 136
305.684357 178.978638 -3.627244 0 255 136
0.687500 321.520569 179.497528 0 255 136
0.843750 0.687500 342.409088 0 255 136
-3.747241 0.859375 0.687500 0 255 136
181.390717 -3.775079 0.875000 0 255 136
372.868530 179.028885 -3.790881 0 255 136
0.687500 397.418915 183.477951 0 255 136
0.914063 0.687500 406.387939 0 255 136
-3.776797 0.929688 0.687500 0 255 136
183.458862 -3.749788 0.945313 0 255 136
441.920471 179.823578 -3.710846 0 255 136
0.687500 463.327606 182.353485 0 255 136
0.984375 0.687500 473.818390 0 255 136
-3.563838 1.000000 0.687500 0 255 136
190.128891 -3.508466 0.007813 0 255 136
-459.053192 188.277527 -3.427118 0 255 136
0.695313 -444.475586 188.479477 0 255 136
0.046875 0.695313 -434.132721 0 255 136
-3.186844 0.062500 0.695313 0 255 136
188.305862 -3.078470 0.078125 0 255 136
-397.594208 191.299133 -2.964660 0 255 136
0.695313 -373.700226 187.000122 0 255 136
0.117188 0.695313 -359.707764 0 255 136
-2.663843 0.132813 0.695313 0 255 136
191.488434 -2.540123 0.148438 0 255 136
-326.232697 189.828308 -2.416295 0 255 136
0.695313 -307.640747 187.746796 0 255 136
0.187500 0.695313 -291.139282 0 255 136
-2.114258 0.203125 0.695313 0 255 136
186.801712 -1.999600 0.218750 0 255 136
-255.364914 187.941849 -1.890185 0 255 136
0.695313 -243.666733 190.542755 0 255 136
0.257813 0.695313 -228.755737 0 255 136
-1.646538 0.273438 0.695313 0 255 136
188.058746 -1.563562 0.289063 0 255 136
-188.950333 189.150330 -1.490132 0 255 136
0.695313 -175.571472 191.047256 0 255 136
0.328125 0.695313 -158.209213 0 255 136
-1.352751 0.343750 0.695313 0 255 136
188.108200 -1.317647 0.359375 0 255 136
-119.348541 186.738342 -1.294423 0 255 136
0.695313 -106.662170 190.746735 0 255 136
0.398438 0.695313 -91.561348 0 255 136
-1.289256 0.414063 0.695313 0 255 136
190.809586 -1.308263 0.429688 0 255 136
-52.345470 187.405243 -1.339013 0 255 136
0.695313 -37.146633 186.333176 0 255 136
0.468750 0.695313 -22.601057 0 255 136
-1.464685 0.484375 0.695313 0 255 136
187.452011 -1.533094 0.500000 0 255 136
14.999184 186.339798 -1.610909 0 255 136
0.695313 30.632414 190.927582 0 255 136
0.539063 0.695313 46.005295 0 255 136
-1.841593 0.554688 0.695313 0 255 136
190.809586 -1.946099 0.570313 0 255 136
84.105072 191.020615 -2.056206 0 255 136
0.695313 99.616608 191.478088 0 255 136
0.609375 0.695313 112.622231 0 255 136
-2.349301 0.625000 0.695313 0 255 136
188.108200 -2.470842 0.640625 0 255 136
151.696671 189.595840 -2.593157 0 255 136
0.695313 165.558350 188.120850 0 255 136
0.679688 0.695313 178.961243 0 255 136
-2.894749 0.695313 0.695313 0 255 136
188.058746 -3.010677 0.710938 0 255 136
218.449951 188.332718 -3.122215 0 255 136
0.695313 237.395706 191.467499 0 255 136
0.750000 0.695313 249.614960 0 255 136
-3.374825 0.765625 0.695313 0 255 136
186.801712 -3.462758 0.781250 0 255 136
283.651367 186.646957 -3.541844 0 255 136
0.695313 299.352722 187.132950 0 255 136
0.820313 0.695313 316.903137 0 255 136
-3.695874 0.835938 0.695313 0 255 136
191.488434 -3.738367 0.851563 0 255 136
356.174438 189.501297 -3.769211 0 255 136
0.695313 365.068329 186.308334 0 255 136
0.890625 0.695313 386.074005 0 255 136
-3.793473 0.906250 0.695313 0 255 136
188.305862 -3.781711 0.921875 0 255 136
419.918091 187.518799 -3.757740 0 255 136
0.695313 443.645081 191.283218 0 255 136
0.960938 0.695313 446.937561 0 255 136
-3.646014 0.976563 0.695313 0 255 136
190.128891 -3.581666 0.992188 0 255 136
-481.238434 195.643738 -3.526623 0 255 136
0.703125 -472.008545 198.081009 0 255 136
0.023438 0.703125 -447.304291 0 255 136
-3.312148 0.039063 0.703125 0 255 136
197.918228 -3.211980 0.054688 0 255 136
-409.530304 193.743423 -3.105040 0 255 136
0.703125 -403.372986 198.030151 0 255 136
0.093750 0.703125 -388.164764 0 255 136
-2.815122 0.109375 0.703125 0 255 136
193.783752 -2.693137 0.125000 0 255 136
-346.953949 196.260925 -2.569503 0 255 136
0.703125 -335.912140 198.652634 0 255 136
0.164063 0.703125 -321.423126 0 255 136
-2.261237 0.179688 0.703125 0 255 136
198.790314 -2.141458 0.195313 0 255 136
-282.973755 199.016678 -2.025486 0 255 136
0.703125 -267.654755 199.003540 0 255 136
0.234375 0.703125 -249.437134 0 255 136
-1.759611 0.250000 0.703125 0 255 136
195.198349 -1.665643 0.265625 0 255 136
-213.752090 198.676941 -1.580180 0 255 136
0.703125 -194.421783 194.621780 0 255 136
0.304688 0.703125 -180.333771 0 255 136
-1.409005 0.320313 0.703125 0 255 136
194.108505 -1.359271 0.335938 0 255 136
-142.267181 194.918243 -1.321011 0 255 136
0.703125 -129.828598 198.814331 0 255 136
0.375000 0.703125 -111.898476 0 255 136
-1.277552 0.390625 0.703125 0 255 136
198.801453 -1.281392 0.406250 0 255 136
-75.677109 197.120483 -1.297301 0 255 136
0.703125 -59.771267 194.681610 0 255 136
0.445313 0.703125 -44.729160 0 255 136
-1.388243 0.460938 0.703125 0 255 136
197.876831 -1.444039 0.476563 0 255 136
-7.479067 197.155746 -1.510128 0 255 136
0.703125 7.679067 197.155746 0 255 136
0.515625 0.703125 22.920404 0 255 136
-1.715910 0.531250 0.703125 0 255 136
194.359695 -1.812400 0.546875 0 255 136
59.971264 194.681610 -1.915690 0 255 136
0.703125 75.877106 197.120483 0 255 136
0.585938 0.703125 91.808365 0 255 136
-2.197332 0.601563 0.703125 0 255 136
194.230698 -2.316645 0.617188 0 255 136
130.028595 198.814331 -2.438128 0 255 136
0.703125 142.467178 194.918243 0 255 136
0.656250 0.703125 156.799179 0 255 136
-2.743850 0.671875 0.703125 0 255 136
195.569916 -2.863909 0.687500 0 255 136
194.621780 194.621780 -2.980963 0 255 136
0.703125 213.952087 198.676941 0 255 136
0.726563 0.703125 225.213470 0 255 136
-3.253118 0.742188 0.703125 0 255 136
196.705017 -3.350998 0.757813 0 255 136
267.854767 199.003540 -3.441120 0 255 136
0.703125 283.173737 199.016678 0 255 136
0.796875 0.703125 298.135468 0 255 136
-3.626822 0.812500 0.703125 0 255 136
199.138123 -3.683305 0.828125 0 255 136
336.112152 198.652634 -3.728699 0 255 136
0.703125 347.153961 196.260925 0 255 136
0.867188 0.703125 357.670013 0 255 136
-3.790867 0.882813 0.703125 0 255 136
198.038910 -3.794496 0.898438 0 255 136
403.572998 198.030151 -3.785826 0 255 136
0.703125 409.730316 193.743423 0 255 136
0.937500 0.703125 433.778442 0 255 136
-3.710987 0.953125 0.703125 0 255 136
193.975204 -3.660473 0.968750 0 255 136
472.208557 198.081009 -3.598828 0 255 136
0.703125 481.438446 195.643738 0 255 136
0.000000 0.710938 -482.213287 0 255 136
-3.425566 0.015625 0.710938 0 255 136
201.687180 -3.335171 0.031250 0 255 136
-443.823303 206.753952 -3.236769 0 255 136
0.710938 -420.508362 202.893326 0 255 136
0.070313 0.710938 -403.795563 0 255 136
-2.962282 0.085938 0.710938 0 255 136
206.712677 -2.843938 0.101563 0 255 136
-369.242432 203.615219 -2.722436 0 255 136
0.710938 -350.060822 201.256210 0 255 136
0.140625 0.710938 -336.040192 0 255 136
-2.412773 0.156250 0.710938 0 255 136
203.689453 -2.289756 0.171875 0 255 136
-301.900238 203.950165 -2.169049 0 255 136
0.710938 -285.632996 203.120804 0 255 136
0.210938 0.710938 -268.497803 0 255 136
-1.885131 0.226563 0.710938 0 255 136
203.800476 -1.781647 0.242188 0 255 136
-236.960373 206.571930 -1.685491 0 255 136
0.710938 -215.869858 201.175385 0 255 136
0.281250 0.710938 -206.548080 0 255 136
-1.483162 0.296875 0.710938 0 255 136
206.428848 -1.419535 0.312500 0 255 136
-168.277786 206.745468 -1.366777 0 255 136
0.710938 -153.005753 206.792755 0 255 136
0.351563 0.710938 -135.823944 0 255 136
-1.285444 0.367188 0.710938 0 255 136
201.175064 -1.273906 0.382813 0 255 136
-97.806107 203.443451 -1.274550 0 255 136
0.710938 -82.416306 202.640015 0 255 136
0.421875 0.710938 -67.363586 0 255 136
-1.328850 0.437500 0.710938 0 255 136
203.693939 -1.370975 0.453125 0 255 136
-30.368769 205.764191 -1.424149 0 255 136
0.710938 -14.904814 202.664993 0 255 136
0.492188 0.710938 0.100000 0 255 136
-1.601617 0.507813 0.710938 0 255 136
201.307480 -1.688595 0.523438 0 255 136
37.845722 203.926895 -1.783514 0 255 136
0.710938 52.753105 203.190552 0 255 136
0.562500 0.710938 67.563583 0 255 136
-2.049610 0.578125 0.710938 0 255 136
203.613449 -2.164988 0.593750 0 255 136
104.918663 202.250275 -2.283904 0 255 136
0.710938 120.305603 202.946945 0 255 136
0.632813 0.710938 136.023941 0 255 136
-2.589370 0.648438 0.710938 0 255 136
201.224136 -2.711823 0.664063 0 255 136
171.385254 201.173996 -2.832688 0 255 136
0.710938 188.058746 203.095444 0 255 136
0.703125 0.710938 206.748077 0 255 136
-3.120378 0.718750 0.710938 0 255 136
203.711731 -3.226747 0.734375 0 255 136
244.325760 206.165482 -3.326555 0 255 136
0.710938 254.127396 201.827637 0 255 136
0.773438 0.710938 268.697784 0 255 136
-3.541116 0.789063 0.710938 0 255 136
203.674301 -3.610723 0.804688 0 255 136
309.650970 203.950638 -3.669963 0 255 136
0.710938 323.538086 203.189041 0 255 136
0.843750 0.710938 336.240204 0 255 136
-3.769038 0.859375 0.710938 0 255 136
202.043198 -3.787976 0.875000 0 255 136
380.440399 205.483810 -3.794707 0 255 136
0.710938 397.401642 206.391235 0 255 136
0.914063 0.710938 403.995575 0 255 136
-3.757807 0.929688 0.710938 0 255 136
205.718704 -3.721857 0.945313 0 255 136
447.040588 204.632141 -3.674213 0 255 136
0.710938 455.527130 201.682495 0 255 136
0.984375 0.710938 482.413269 0 255 136
-3.507062 1.000000 0.710938 0 255 136
214.397949 -3.446087 0.007813 0 255 136
-455.064087 209.027771 -3.357761 0 255 136
0.718750 -446.252747 211.928421 0 255 136
0.046875 0.718750 -435.137024 0 255 136
-3.102985 0.062500 0.718750 0 255 136
208.703201 -2.990129 0.078125 0 255 136
-393.884186 212.245331 -2.872653 0 255 136
0.718750 -382.689972 214.462387 0 255 136
0.117188 0.718750 -364.601715 0 255 136
-2.566435 0.132813 0.718750 0 255 136
209.772171 -2.442104 0.148438 0 255 136
-320.838135 209.082977 -2.318555 0 255 136
0.718750 -305.914154 209.085266 0 255 136
0.187500 0.718750 -292.077667 0 255 136
-2.021049 0.203125 0.718750 0 255 136
213.619034 -1.909674 0.218750 0 255 136
-259.200317 213.641449 -1.804331 0 255 136
0.718750 -238.328903 208.725281 0 255 136
0.257813 0.718750 -228.854858 0 255 136
-1.574001 0.273438 0.718750 0 255 136
211.499466 -1.497456 0.289063 0 255 136
-186.105026 208.649643 -1.430991 0 255 136
0.718750 -172.183426 209.836349 0 255 136
0.328125 0.718750 -156.885788 0 255 136
-1.312891 0.343750 0.718750 0 255 136
211.333359 -1.286049 0.359375 0 255 136
-120.903946 211.856903 -1.271290 0 255 136
0.718750 -104.159874 208.619751 0 255 136
0.398438 0.718750 -89.281715 0 255 136
-1.287697 0.414063 0.718750 0 255 136
214.291031 -1.315317 0.429688 0 255 136
-52.244381 209.477524 -1.354573 0 255 136
0.718750 -37.273613 209.392227 0 255 136
0.468750 0.718750 -22.844742 0 255 136
-1.500638 0.484375 0.718750 0 255 136
208.784882 -1.576685 0.500000 0 255 136
15.170659 211.089218 -1.661739 0 255 136
0.718750 30.339640 211.777466 0 255 136
0.539063 0.718750 45.954182 0 255 136
-1.908288 0.554688 0.718750 0 255 136
214.291031 -2.018049 0.570313 0 255 136
82.102341 208.833221 -2.132679 0 255 136
0.718750 96.968582 208.740021 0 255 136
0.609375 0.718750 112.124489 0 255 136
-2.433496 0.625000 0.718750 0 255 136
211.333359 -2.556575 0.640625 0 255 136
153.150360 214.370514 -2.679500 0 255 136
0.718750 167.505737 213.161850 0 255 136
0.679688 0.718750 183.307739 0 255 136
-2.978520 0.695313 0.718750 0 255 136
211.499466 -3.091806 0.710938 0 255 136
220.923996 213.309372 -3.199819 0 255 136
0.718750 232.471664 209.984085 0 255 136
0.750000 0.718750 248.694595 0 255 136
-3.440024 0.765625 0.718750 0 255 136
213.619034 -3.521700 0.781250 0 255 136
286.047180 210.797928 -3.593883 0 255 136
0.718750 299.009888 209.336914 0 255 136
0.820313 0.718750 313.470947 0 255 136
-3.728324 0.835938 0.718750 0 255 136
209.772171 -3.762262 0.851563 0 255 136
355.104980 211.592316 -3.784267 0 255 136
0.718750 374.353668 213.959244 0 255 136
0.890625 0.718750 389.539856 0 255 136
-3.785793 0.906250 0.718750 0 255 136
208.703201 -3.764920 0.921875 0 255 136
422.831360 211.465683 -3.731966 0 255 136
0.718750 443.702362 214.252869 0 255 136
0.960938 0.718750 448.037903 0 255 136
-3.598928 0.976563 0.718750 0 255 136
214.397949 -3.526735 0.992188 0 255 136
-487.333679 220.968384 -3.466098 0 255 136
0.726563 -469.171509 219.597977 0 255 136
0.023438 0.726563 -447.241577 0 255 136
-3.235002 0.039063 0.726563 0 255 136
222.080032 -3.129391 0.054688 0 255 136
-413.654480 218.261459 -3.017772 0 255 136
0.726563 -394.692139 216.118332 0 255 136
0.093750 0.726563 -384.289917 0 255 136
-2.719769 0.109375 0.726563 0 255 136
221.966766 -2.596066 0.125000 0 255 136
-351.913116 222.021317 -2.471605 0 255 136
0.726563 -336.170654 221.732941 0 255 136
0.164063 0.726563 -321.064972 0 255 136
-2.165164 0.179688 0.726563 0 255 136
221.821075 -2.047642 0.195313 0 255 136
-279.308807 219.096100 -1.934762 0 255 136
0.726563 -260.552307 216.069046 0 255 136
0.234375 0.726563 -251.106842 0 255 136
-1.680030 0.250000 0.726563 0 255 136
216.188873 -1.591754 0.265625 0 255 136
-213.109375 220.923996 -1.512604 0 255 136
0.726563 -198.110718 221.181183 0 255 136
0.304688 0.726563 -180.866776 0 255 136
-1.359483 0.320313 0.726563 0 255 136
217.894165 -1.317691 0.335938 0 255 136
-141.679291 216.499969 -1.287671 0 255 136
0.726563 -129.955856 221.959991 0 255 136
0.375000 0.726563 -112.978012 0 255 136
-1.265621 0.390625 0.726563 0 255 136
217.972656 -1.278154 0.406250 0 255 136
-76.453789 222.105988 -1.302724 0 255 136
0.726563 -59.538063 216.287979 0 255 136
0.445313 0.726563 -44.636074 0 255 136
-1.414742 0.460938 0.726563 0 255 136
217.642990 -1.478566 0.476563 0 255 136
-7.555812 222.118546 -1.552357 0 255 136
0.726563 7.755812 222.118546 0 255 136
0.515625 0.726563 22.604446 0 255 136
-1.775510 0.531250 0.726563 0 255 136
216.324356 -1.878007 0.546875 0 255 136
59.738064 216.287979 -1.986658 0 255 136
0.726563 76.653793 222.105988 0 255 136
0.585938 0.726563 90.254204 0 255 136
-2.278449 0.601563 0.726563 0 255 136
218.717484 -2.400375 0.617188 0 255 136
130.155853 221.959991 -2.523581 0 255 136
0.726563 141.879288 216.499969 0 255 136
0.656250 0.726563 157.813019 0 255 136
-2.829579 0.671875 0.726563 0 255 136
218.768188 -2.948123 0.687500 0 255 136
198.310715 221.181183 -3.062748 0 255 136
0.726563 213.309372 220.923996 0 255 136
0.726563 0.726563 223.640213 0 255 136
-3.325027 0.742188 0.726563 0 255 136
220.857529 -3.417547 0.757813 0 255 136
260.752289 216.069046 -3.501584 0 255 136
0.726563 279.508820 219.096100 0 255 136
0.796875 0.726563 298.276611 0 255 136
-3.669340 0.812500 0.726563 0 255 136
221.856781 -3.717747 0.828125 0 255 136
336.370667 221.732941 -3.754675 0 255 136
0.726563 352.113129 222.021317 0 255 136
0.867188 0.726563 367.327759 0 255 136
-3.794543 0.882813 0.726563 0 255 136
218.674652 -3.789035 0.898438 0 255 136
394.892120 216.118332 -3.771241 0 255 136
0.726563 413.854492 218.261459 0 255 136
0.937500 0.726563 436.405579 0 255 136
-3.674252 0.953125 0.726563 0 255 136
216.315094 -3.615372 0.968750 0 255 136
469.371521 219.597977 -3.545771 0 255 136
0.726563 487.533691 220.968384 0 255 136
0.000000 0.734375 -482.144287 0 255 136
-3.356249 0.015625 0.734375 0 255 136
223.514954 -3.259524 0.031250 0 255 136
-439.374176 227.414230 -3.155497 0 255 136
0.734375 -428.407501 229.657578 0 255 136
0.070313 0.734375 -407.187683 0 255 136
-2.870345 0.085938 0.734375 0 255 136
223.550583 -2.749194 0.101563 0 255 136
-366.829102 224.750473 -2.625758 0 255 136
0.734375 -353.994202 226.117584 0 255 136
0.140625 0.734375 -339.705658 0 255 136
-2.315161 0.156250 0.734375 0 255 136
225.403809 -2.193327 0.171875 0 255 136
-298.124420 223.768326 -2.074675 0 255 136
0.734375 -284.055450 224.433258 0 255 136
0.210938 0.734375 -274.667175 0 255 136
-1.799519 0.226563 0.734375 0 255 136
223.660706 -1.700888 0.242188 0 255 136
-237.033997 229.584518 -1.610280 0 255 136
0.734375 -215.988876 223.640213 0 255 136
0.281250 0.734375 -203.511734 0 255 136
-1.424475 0.296875 0.734375 0 255 136
224.082138 -1.368341 0.312500 0 255 136
-164.965622 225.189484 -1.323472 0 255 136
0.734375 -152.738235 229.357361 0 255 136
0.351563 0.734375 -134.766708 0 255 136
-1.263092 0.367188 0.734375 0 255 136
228.826721 -1.260226 0.382813 0 255 136
-98.800056 228.330902 -1.269596 0 255 136
0.734375 -84.043930 229.583450 0 255 136
0.421875 0.734375 -66.948479 0 255 136
-1.345473 0.437500 0.734375 0 255 136
227.409332 -1.395953 0.453125 0 255 136
-30.523252 229.774399 -1.457224 0 255 136
0.734375 -14.796115 223.541718 0 255 136
0.492188 0.734375 0.100000 0 255 136
-1.653370 0.507813 0.734375 0 255 136
226.074554 -1.747014 0.523438 0 255 136
37.535236 224.711426 -1.848036 0 255 136
0.734375 52.742298 225.709839 0 255 136
0.562500 0.734375 67.148483 0 255 136
-2.126480 0.578125 0.734375 0 255 136
229.350067 -2.245471 0.593750 0 255 136
106.499062 228.097977 -2.367165 0 255 136
0.734375 122.574158 229.739044 0 255 136
0.632813 0.734375 134.966705 0 255 136
-2.675690 0.648438 0.734375 0 255 136
226.193970 -2.797760 0.664063 0 255 136
175.581741 228.989227 -2.917318 0 255 136
0.734375 190.813110 228.955734 0 255 136
0.703125 0.734375 203.711731 0 255 136
-3.197799 0.718750 0.734375 0 255 136
227.023376 -3.299786 0.734375 0 255 136
240.417816 225.397964 -3.394421 0 255 136
0.734375 257.036407 226.808594 0 255 136
0.773438 0.734375 274.867157 0 255 136
-3.592960 0.789063 0.734375 0 255 136
223.541473 -3.655099 0.804688 0 255 136
306.843903 224.546753 -3.706378 0 255 136
0.734375 324.012360 226.085373 0 255 136
0.843750 0.734375 339.905670 0 255 136
-3.783938 0.859375 0.734375 0 255 136
225.506714 -3.793855 0.875000 0 255 136
373.285675 224.011414 -3.791465 0 255 136
0.734375 387.643555 223.682816 0 255 136
0.914063 0.734375 407.387695 0 255 136
-3.731922 0.929688 0.734375 0 255 136
229.393265 -3.687216 0.945313 0 255 136
442.040497 224.815521 -3.631122 0 255 136
0.734375 456.968414 224.789383 0 255 136
0.984375 0.734375 482.344299 0 255 136
-3.444720 1.000000 0.734375 0 255 136
237.394104 -3.378478 0.007813 0 255 136
-459.505219 233.669876 -3.283658 0 255 136
0.742188 -439.545898 231.100388 0 255 136
0.046875 0.742188 -431.690063 0 255 136
-3.015782 0.062500 0.742188 0 255 136
237.012207 -2.899064 0.078125 0 255 136
-393.210022 234.573288 -2.778572 0 255 136
0.742188 -374.698517 232.475082 0 255 136
0.117188 0.742188 -358.286804 0 255 136
-2.468649 0.132813 0.742188 0 255 136
231.565796 -2.344400 0.148438 0 255 136
-322.431091 232.622421 -2.221823 0 255 136
0.742188 -310.870453 235.223999 0 255 136
0.187500 0.742188 -298.476440 0 255 136
-1.930534 0.203125 0.742188 0 255 136
231.151581 -1.823083 0.218750 0 255 136
-258.674652 236.041595 -1.722428 0 255 136
0.742188 -239.701736 232.407928 0 255 136
0.257813 0.742188 -229.384506 0 255 136
-1.506809 0.273438 0.742188 0 255 136
237.160370 -1.437184 0.289063 0 255 136
-191.267502 237.395706 -1.378131 0 255 136
0.742188 -175.928040 237.355179 0 255 136
0.328125 0.742188 -158.443481 0 255 136
-1.280216 0.343750 0.742188 0 255 136
231.406677 -1.261910 0.359375 0 255 136
-122.045258 236.756424 -1.255834 0 255 136
0.742188 -107.077652 237.421951 0 255 136
0.398438 0.742188 -91.234802 0 255 136
-1.294091 0.414063 0.742188 0 255 136
235.958450 -1.330316 0.429688 0 255 136
-52.298309 232.149658 -1.377994 0 255 136
0.742188 -37.585278 233.748718 0 255 136
0.468750 0.742188 -22.791748 0 255 136
-1.543863 0.484375 0.742188 0 255 136
234.498535 -1.627156 0.500000 0 255 136
15.385717 237.028625 -1.718969 0 255 136
0.742188 29.996855 231.800613 0 255 136
0.539063 0.742188 45.783779 0 255 136
-1.979843 0.554688 0.742188 0 255 136
235.958450 -2.094136 0.570313 0 255 136
82.697159 232.873810 -2.212528 0 255 136
0.742188 99.554474 237.260681 0 255 136
0.609375 0.742188 114.910004 0 255 136
-2.519069 0.625000 0.742188 0 255 136
231.406677 -2.642882 0.640625 0 255 136
153.000198 237.095306 -2.765624 0 255 136
0.742188 164.583847 231.872696 0 255 136
0.679688 0.742188 178.840179 0 255 136
-3.060185 0.695313 0.742188 0 255 136
237.160370 -3.170130 0.710938 0 255 136
218.389755 233.444214 -3.273957 0 255 136
0.742188 231.981628 231.981628 0 255 136
0.750000 0.742188 252.289703 0 255 136
-3.500311 0.765625 0.742188 0 255 136
231.151581 -3.575241 0.781250 0 255 136
289.774994 236.413803 -3.640093 0 255 136
0.742188 305.420959 236.723740 0 255 136
0.820313 0.742188 316.636322 0 255 136
-3.754143 0.835938 0.742188 0 255 136
231.565796 -3.779318 0.851563 0 255 136
350.803223 231.414902 -3.792347 0 255 136
0.742188 366.474548 231.887985 0 255 136
0.890625 0.742188 383.877289 0 255 136
-3.771089 0.906250 0.742188 0 255 136
237.012207 -3.741207 0.921875 0 255 136
427.575623 236.738297 -3.699440 0 255 136
0.742188 435.197235 232.651978 0 255 136
0.960938 0.742188 447.795410 0 255 136
-3.545789 0.976563 0.742188 0 255 136
237.394104 -3.466137 0.992188 0 255 136
-483.391174 241.845596 -3.400237 0 255 136
0.750000 -474.349060 244.976929 0 255 136
0.023438 0.750000 -451.132385 0 255 136
-3.153789 0.039063 0.750000 0 255 136
239.371231 -3.043315 0.054688 0 255 136
-416.931519 242.736526 -2.927633 0 255 136
0.750000 -405.182739 244.799011 0 255 136
0.093750 0.750000 -390.266418 0 255 136
-2.623193 0.109375 0.750000 0 255 136
244.642670 -2.498458 0.125000 0 255 136
-351.767456 244.877365 -2.373863 0 255 136
0.750000 -336.695526 245.042206 0 255 136
0.164063 0.750000 -319.187622 0 255 136
-2.070970 0.179688 0.750000 0 255 136
238.417831 -1.956373 0.195313 0 255 136
-281.275452 243.451752 -1.847236 0 255 136
0.750000 -264.373169 241.904037 0 255 136
0.234375 0.750000 -248.928314 0 255 136
-1.605145 0.250000 0.750000 0 255 136
240.417816 -1.523101 0.265625 0 255 136
-208.525284 238.528900 -1.450763 0 255 136
0.750000 -194.543350 239.661041 0 255 136
0.304688 0.750000 -179.125153 0 255 136
-1.316745 0.320313 0.750000 0 255 136
241.691086 -1.283226 0.335938 0 255 136
-142.829407 240.823227 -1.261726 0 255 136
0.750000 -127.239929 239.798691 0 255 136
0.375000 0.750000 -113.656738 0 255 136
-1.261533 0.390625 0.750000 0 255 136
239.056335 -1.282829 0.406250 0 255 136
-75.956856 243.481934 -1.316061 0 255 136
0.750000 -59.498165 238.492661 0 255 136
0.445313 0.750000 -44.583759 0 255 136
-1.448822 0.460938 0.750000 0 255 136
238.410309 -1.520397 0.476563 0 255 136
-7.479834 242.654663 -1.601525 0 255 136
0.750000 7.679833 242.654663 0 255 136
0.515625 0.750000 22.441591 0 255 136
-1.840774 0.531250 0.750000 0 255 136
238.413391 -1.948640 0.546875 0 255 136
59.698166 238.492661 -2.061958 0 255 136
0.750000 76.156853 243.481934 0 255 136
0.585938 0.750000 89.708626 0 255 136
-2.361990 0.601563 0.750000 0 255 136
242.781036 -2.485730 0.617188 0 255 136
127.439926 239.798691 -2.609858 0 255 136
0.750000 143.029419 240.823227 0 255 136
0.656250 0.750000 158.644150 0 255 136
-2.914176 0.671875 0.750000 0 255 136
239.066864 -3.030460 0.687500 0 255 136
194.743347 239.661041 -3.141945 0 255 136
0.750000 208.725281 238.528900 0 255 136
0.726563 0.750000 225.397964 0 255 136
-3.392747 0.742188 0.750000 0 255 136
241.582001 -3.479348 0.757813 0 255 136
264.573151 241.904037 -3.556796 0 255 136
0.750000 281.475464 243.451752 0 255 136
0.796875 0.750000 290.549866 0 255 136
-3.705601 0.812500 0.750000 0 255 136
243.366760 -3.745641 0.828125 0 255 136
336.895538 245.042206 -3.773877 0 255 136
0.750000 351.967468 244.877365 0 255 136
0.867188 0.750000 366.914001 0 255 136
-3.791178 0.882813 0.750000 0 255 136
245.035782 -3.776548 0.898438 0 255 136
405.382751 244.799011 -3.749714 0 255 136
0.750000 417.131531 242.736526 0 255 136
0.937500 0.750000 426.301880 0 255 136
-3.631072 0.953125 0.750000 0 255 136
240.757278 -3.564138 0.968750 0 255 136
474.549042 244.976929 -3.486951 0 255 136
0.750000 483.591187 241.845596 0 255 136
0.000000 0.757813 -477.644440 0 255 136
-3.282201 0.015625 0.757813 0 255 136
251.268265 -3.179678 0.031250 0 255 136
-434.368835 247.297775 -3.070598 0 255 136
0.757813 -416.948364 245.860657 0 255 136
0.070313 0.757813 -403.853546 0 255 136
-2.776354 0.085938 0.757813 0 255 136
248.993912 -2.653066 0.101563 0 255 136
-369.859283 249.256256 -2.528383 0 255 136
0.757813 -353.580688 248.429001 0 255 136
0.140625 0.757813 -336.201263 0 255 136
-2.218587 0.156250 0.757813 0 255 136
247.109970 -2.098623 0.171875 0 255 136
-305.266571 252.027420 -1.982699 0 255 136
0.757813 -287.451660 249.815918 0 255 136
0.210938 0.757813 -269.332489 0 255 136
-1.717894 0.226563 0.757813 0 255 136
246.194595 -1.624700 0.242188 0 255 136
-236.805481 252.289703 -1.540191 0 255 136
0.757813 -220.657532 251.306839 0 255 136
0.281250 0.757813 -203.600479 0 255 136
-1.372097 0.296875 0.757813 0 255 136
247.604370 -1.323848 0.312500 0 255 136
-164.046173 246.319260 -1.287209 0 255 136
0.757813 -153.015854 252.741165 0 255 136
0.351563 0.757813 -134.343124 0 255 136
-1.248395 0.367188 0.757813 0 255 136
246.754272 -1.254343 0.382813 0 255 136
-96.713409 245.857117 -1.272516 0 255 136
0.757813 -83.714836 251.544510 0 255 136
0.421875 0.757813 -66.941383 0 255 136
-1.369859 0.437500 0.757813 0 255 136
251.699402 -1.428518 0.453125 0 255 136
-30.344934 251.270721 -1.497628 0 255 136
0.757813 -14.961121 248.608490 0 255 136
0.492188 0.757813 0.100000 0 255 136
-1.711448 0.507813 0.757813 0 255 136
252.077209 -1.811219 0.523438 0 255 136
37.340752 245.888947 -1.917736 0 255 136
0.757813 52.579510 247.503403 0 255 136
0.562500 0.757813 67.141380 0 255 136
-2.206767 0.578125 0.757813 0 255 136
247.345566 -2.328604 0.593750 0 255 136
104.561081 246.329681 -2.452288 0 255 136
0.757813 119.547745 246.460968 0 255 136
0.632813 0.757813 134.543121 0 255 136
-2.761889 0.648438 0.757813 0 255 136
248.834091 -2.882802 0.664063 0 255 136
176.001724 252.480728 -3.000301 0 255 136
0.757813 189.126480 249.614960 0 255 136
0.703125 0.757813 203.800476 0 255 136
-3.271839 0.718750 0.757813 0 255 136
246.016785 -3.368822 0.734375 0 255 136
241.582001 249.128326 -3.457710 0 255 136
0.757813 259.092468 251.475052 0 255 136
0.773438 0.757813 269.532471 0 255 136
-3.639030 0.789063 0.757813 0 255 136
252.566681 -3.693326 0.804688 0 255 136
309.952545 249.493515 -3.736333 0 255 136
0.757813 320.459900 245.957596 0 255 136
0.843750 0.757813 336.401276 0 255 136
-3.791893 0.859375 0.757813 0 255 136
248.981613 -3.792717 0.875000 0 255 136
377.610016 249.256607 -3.781201 0 255 136
0.757813 391.495300 248.485474 0 255 136
0.914063 0.757813 404.053558 0 255 136
-3.699302 0.929688 0.757813 0 255 136
246.151978 -3.646072 0.945313 0 255 136
445.438995 249.187912 -3.581821 0 255 136
0.757813 466.875000 252.617630 0 255 136
0.984375 0.757813 477.844421 0 255 136
-3.377160 1.000000 0.757813 0 255 136
255.155258 -3.306017 0.007813 0 255 136
-465.336273 259.523499 -3.205225 0 255 136
0.765625 -451.034943 260.076050 0 255 136
0.046875 0.765625 -431.612183 0 255 136
-2.925724 0.062500 0.765625 0 255 136
254.519180 -2.805790 0.078125 0 255 136
-387.989563 253.850876 -2.682948 0 255 136
0.765625 -373.065735 253.852692 0 255 136
0.117188 0.765625 -359.185547 0 255 136
-2.371045 0.132813 0.765625 0 255 136
258.359497 -2.247573 0.148438 0 255 136
-329.076935 260.379425 -2.126659 0 255 136
0.765625 -308.712311 256.188263 0 255 136
0.187500 0.765625 -291.391937 0 255 136
-1.843246 0.203125 0.765625 0 255 136
256.273010 -1.740345 0.218750 0 255 136
-258.321686 258.521667 -1.644970 0 255 136
0.765625 -238.233734 253.329590 0 255 136
0.257813 0.765625 -226.608597 0 255 136
-1.445378 0.273438 0.765625 0 255 136
254.127396 -1.383125 0.289063 0 255 136
-187.741837 255.564911 -1.331885 0 255 136
0.765625 -175.680939 259.950104 0 255 136
0.328125 0.765625 -157.698395 0 255 136
-1.254930 0.343750 0.765625 0 255 136
256.239349 -1.245370 0.359375 0 255 136
-119.227135 253.670166 -1.248126 0 255 136
0.765625 -104.642494 254.474640 0 255 136
0.398438 0.765625 -91.602943 0 255 136
-1.308323 0.414063 0.765625 0 255 136
257.749908 -1.353066 0.429688 0 255 136
-52.492085 255.547272 -1.409005 0 255 136
0.765625 -37.977222 259.025116 0 255 136
0.468750 0.765625 -22.469774 0 255 136
-1.593932 0.484375 0.765625 0 255 136
260.357605 -1.684035 0.500000 0 255 136
15.357447 259.476593 -1.782094 0 255 136
0.765625 29.901409 253.411972 0 255 136
0.539063 0.765625 45.452656 0 255 136
-2.055726 0.554688 0.765625 0 255 136
257.749908 -2.173836 0.570313 0 255 136
83.859276 258.992310 -2.295236 0 255 136
0.765625 98.237320 256.766846 0 255 136
0.609375 0.765625 111.982475 0 255 136
-2.605545 0.625000 0.765625 0 255 136
256.239349 -2.729303 0.640625 0 255 136
153.033859 260.087555 -2.851086 0 255 136
0.765625 164.315491 253.887589 0 255 136
0.679688 0.765625 180.776367 0 255 136
-3.139349 0.695313 0.765625 0 255 136
254.127396 -3.245275 0.710938 0 255 136
217.575394 255.071152 -3.344281 0 255 136
0.765625 236.041595 258.874664 0 255 136
0.750000 0.765625 251.475052 0 255 136
-3.555407 0.765625 0.765625 0 255 136
256.273010 -3.623140 0.781250 0 255 136
288.642212 258.269348 -3.680266 0 255 136
0.765625 298.288666 253.560364 0 255 136
0.820313 0.765625 320.072235 0 255 136
-3.773225 0.835938 0.765625 0 255 136
258.359497 -3.789475 0.851563 0 255 136
353.092590 255.456345 -3.793435 0 255 136
0.765625 366.152496 254.095612 0 255 136
0.890625 0.765625 380.623077 0 255 136
-3.749465 0.906250 0.765625 0 255 136
254.519180 -3.710722 0.921875 0 255 136
422.066101 256.293701 -3.660354 0 255 136
0.765625 441.749939 258.998230 0 255 136
0.960938 0.765625 459.405701 0 255 136
-3.486900 0.976563 0.765625 0 255 136
255.155258 -3.400212 0.992188 0 255 136
-477.530579 261.304230 -3.329406 0 255 136
0.773438 -463.197205 261.638733 0 255 136
0.023438 0.773438 -454.282684 0 255 136
-3.068964 0.039063 0.773438 0 255 136
267.992615 -2.954235 0.054688 0 255 136
-420.716614 267.892395 -2.835129 0 255 136
0.773438 -404.949432 267.585480 0 255 136
0.093750 0.773438 -389.847504 0 255 136
-2.525939 0.109375 0.773438 0 255 136
267.919983 -2.400869 0.125000 0 255 136
-349.101227 265.796570 -2.276836 0 255 136
0.773438 -328.570923 261.542786 0 255 136
0.164063 0.773438 -314.828125 0 255 136
-1.979201 0.179688 0.773438 0 255 136
265.314728 -1.868185 0.195313 0 255 136
-277.530182 262.723145 -1.763421 0 255 136
0.773438 -264.717224 264.917236 0 255 136
0.234375 0.773438 -251.579849 0 255 136
-1.535407 0.250000 0.773438 0 255 136
267.834167 -1.460101 0.265625 0 255 136
-214.255386 268.044220 -1.395034 0 255 136
0.773438 -198.803543 267.854767 0 255 136
0.304688 0.773438 -180.993851 0 255 136
-1.281050 0.320313 0.773438 0 255 136
262.050354 -1.256083 0.335938 0 255 136
-145.339294 268.014496 -1.243322 0 255 136
0.773438 -128.592285 265.054688 0 255 136
0.375000 0.773438 -113.469681 0 255 136
-1.265263 0.390625 0.773438 0 255 136
265.805908 -1.295318 0.406250 0 255 136
-75.390244 264.315857 -1.337137 0 255 136
0.773438 -59.516979 260.924286 0 255 136
0.445313 0.773438 -44.718990 0 255 136
-1.490132 0.460938 0.773438 0 255 136
263.019592 -1.569121 0.476563 0 255 136
-7.361961 261.268616 -1.657172 0 255 136
0.773438 7.561961 261.268616 0 255 136
0.515625 0.773438 22.635965 0 255 136
-1.911172 0.531250 0.773438 0 255 136
261.544098 -2.023761 0.546875 0 255 136
59.716980 260.924286 -2.141050 0 255 136
0.773438 75.590248 264.315857 0 255 136
0.585938 0.773438 91.199173 0 255 136
-2.447442 0.601563 0.773438 0 255 136
265.095917 -2.572214 0.617188 0 255 136
128.792282 265.054688 -2.696479 0 255 136
0.773438 145.539307 268.014496 0 255 136
0.656250 0.773438 157.270203 0 255 136
-2.997208 0.671875 0.773438 0 255 136
264.195190 -3.110511 0.687500 0 255 136
199.003540 267.854767 -3.218167 0 255 136
0.773438 214.455383 268.044220 0 255 136
0.726563 0.773438 229.586441 0 255 136
-3.455956 0.742188 0.773438 0 255 136
267.033173 -3.536113 0.757813 0 255 136
264.917236 264.917236 -3.606501 0 255 136
0.773438 277.730194 262.723145 0 255 136
0.796875 0.773438 295.624969 0 255 136
-3.735447 0.812500 0.773438 0 255 136
262.540100 -3.766870 0.828125 0 255 136
328.770935 261.542786 -3.786232 0 255 136
0.773438 349.301208 265.796570 0 255 136
0.867188 0.773438 367.395966 0 255 136
-3.780816 0.882813 0.773438 0 255 136
267.711029 -3.757125 0.898438 0 255 136
405.149414 267.585480 -3.721380 0 255 136
0.773438 420.916626 267.892395 0 255 136
0.937500 0.773438 436.382263 0 255 136
-3.581699 0.953125 0.773438 0 255 136
265.156555 -3.507062 0.968750 0 255 136
463.397217 261.638733 -3.422700 0 255 136
0.773438 477.730560 261.304230 0 255 136
0.000000 0.781250 -472.252960 0 255 136
-3.203834 0.015625 0.781250 0 255 136
268.453156 -3.096079 0.031250 0 255 136
-434.734589 269.997314 -2.982547 0 255 136
0.781250 -421.953247 271.419952 0 255 136
0.070313 0.781250 -407.664276 0 255 136
-2.680837 0.085938 0.781250 0 255 136
270.708649 -2.556098 0.101563 0 255 136
-365.738403 268.879242 -2.430861 0 255 136
0.781250 -350.223755 268.433075 0 255 136
0.140625 0.781250 -340.337830 0 255 136
-2.123603 0.156250 0.781250 0 255 136
272.737213 -2.006189 0.171875 0 255 136
-298.649689 268.974701 -1.893654 0 255 136
0.781250 -290.421112 275.330536 0 255 136
0.210938 0.781250 -269.126984 0 255 136
-1.640738 0.226563 0.781250 0 255 136
269.532471 -1.553537 0.242188 0 255 136
-230.951584 268.417969 -1.475640 0 255 136
0.781250 -216.851044 269.418549 0 255 136
0.281250 0.781250 -201.348343 0 255 136
-1.326340 0.296875 0.781250 0 255 136
271.946198 -1.286320 0.312500 0 255 136
-164.833221 269.990723 -1.258199 0 255 136
0.781250 -151.050873 272.171570 0 255 136
0.351563 0.781250 -137.704391 0 255 136
-1.241408 0.367188 0.781250 0 255 136
275.707123 -1.256243 0.382813 0 255 136
-98.046379 271.889984 -1.283226 0 255 136
0.781250 -82.843102 271.550171 0 255 136
0.421875 0.781250 -66.976379 0 255 136
-1.401745 0.437500 0.781250 0 255 136
275.670441 -1.468338 0.453125 0 255 136
-29.937750 270.439728 -1.544970 0 255 136
0.781250 -15.183824 275.208832 0 255 136
0.492188 0.781250 0.100000 0 255 136
-1.775349 0.507813 0.781250 0 255 136
275.205139 -1.880683 0.523438 0 255 136
37.464054 269.121185 -1.992070 0 255 136
0.781250 52.358387 268.857422 0 255 136
0.562500 0.781250 67.176384 0 255 136
-2.289931 0.578125 0.781250 0 255 136
268.290710 -2.413855 0.593750 0 255 136
107.020470 275.038330 -2.538756 0 255 136
0.781250 122.494644 275.487946 0 255 136
0.632813 0.781250 137.904388 0 255 136
-2.847495 0.648438 0.781250 0 255 136
268.552887 -2.966497 0.664063 0 255 136
175.994781 275.413574 -3.081210 0 255 136
0.781250 186.801712 268.950470 0 255 136
0.703125 0.781250 201.548355 0 255 136
-3.342133 0.718750 0.781250 0 255 136
274.867157 -3.433519 0.734375 0 255 136
245.034943 275.651825 -3.516117 0 255 136
0.781250 256.273010 271.342010 0 255 136
0.773438 0.781250 269.326965 0 255 136
-3.679113 0.789063 0.781250 0 255 136
273.716370 -3.725231 0.804688 0 255 136
306.236237 268.902527 -3.759698 0 255 136
0.781250 329.074860 275.520813 0 255 136
0.843750 0.781250 340.537811 0 255 136
-3.792887 0.859375 0.781250 0 255 136
268.252655 -3.784590 0.875000 0 255 136
374.701263 269.812897 -3.763991 0 255 136
0.781250 391.967896 271.393158 0 255 136
0.914063 0.781250 407.864288 0 255 136
-3.660141 0.929688 0.781250 0 255 136
270.796204 -3.598663 0.945313 0 255 136
441.037537 269.146637 -3.526593 0 255 136
0.781250 454.379913 268.199615 0 255 136
0.984375 0.781250 472.452942 0 255 136
-3.304759 1.000000 0.781250 0 255 136
282.125092 -3.229109 0.007813 0 255 136
-460.166656 279.278137 -3.122899 0 255 136
0.789063 -441.782227 277.212585 0 255 136
0.046875 0.789063 -425.436188 0 255 136
-2.833316 0.062500 0.789063 0 255 136
276.331451 -2.710830 0.078125 0 255 136
-389.519562 277.329285 -2.586318 0 255 136
0.789063 -377.921753 279.836121 0 255 136
0.117188 0.789063 -366.866425 0 255 136
-2.274175 0.132813 0.789063 0 255 136
278.655121 -2.152174 0.148438 0 255 136
-321.087280 276.470459 -2.033606 0 255 136
0.789063 -313.788300 283.365051 0 255 136
0.187500 0.789063 -290.408844 0 255 136
-1.759691 0.203125 0.789063 0 255 136
277.474304 -1.661939 0.218750 0 255 136
-260.113190 283.273193 -1.572409 0 255 136
0.789063 -243.251755 281.475464 0 255 136
0.257813 0.789063 -226.409668 0 255 136
-1.390071 0.273438 0.789063 0 255 136
277.249908 -1.335596 0.289063 0 255 136
-186.447235 276.189911 -1.292523 0 255 136
0.789063 -175.941269 283.296814 0 255 136
0.328125 0.789063 -156.297562 0 255 136
-1.237162 0.343750 0.789063 0 255 136
281.711609 -1.236495 0.359375 0 255 136
-121.733925 281.840973 -1.248167 0 255 136
0.789063 -104.831177 277.418121 0 255 136
0.398438 0.789063 -90.499771 0 255 136
-1.330220 0.414063 0.789063 0 255 136
280.238556 -1.383325 0.429688 0 255 136
-52.828224 279.863495 -1.447295 0 255 136
0.789063 -38.178867 283.363617 0 255 136
0.468750 0.789063 -22.244085 0 255 136
-1.650394 0.484375 0.789063 0 255 136
280.989105 -1.746828 0.500000 0 255 136
15.117647 277.926483 -1.850592 0 255 136
0.789063 30.190403 278.436218 0 255 136
0.539063 0.789063 45.044151 0 255 136
-2.135384 0.554688 0.789063 0 255 136
280.238556 -2.256595 0.570313 0 255 136
84.287323 283.275543 -2.380261 0 255 136
0.789063 96.920372 275.665680 0 255 136
0.609375 0.789063 113.686081 0 255 136
-2.692414 0.625000 0.789063 0 255 136
281.711609 -2.815349 0.640625 0 255 136
149.916718 277.260925 -2.935417 0 255 136
0.789063 165.818604 278.808563 0 255 136
0.679688 0.789063 181.198837 0 255 136
-3.215602 0.695313 0.789063 0 255 136
277.249908 -3.316860 0.710938 0 255 136
219.096100 279.508820 -3.410439 0 255 136
0.789063 233.646759 278.849365 0 255 136
0.750000 0.789063 246.265167 0 255 136
-3.605048 0.765625 0.789063 0 255 136
277.474304 -3.665168 0.781250 0 255 136
286.736450 279.193390 -3.714217 0 255 136
0.789063 302.825043 280.120667 0 255 136
0.820313 0.789063 318.437103 0 255 136
-3.785495 0.835938 0.789063 0 255 136
278.655121 -3.792705 0.851563 0 255 136
359.829987 283.291687 -3.787549 0 255 136
