ply
format ascii 1.0
element vertex 686
property float x
property float y
property float z
property uchar red
property uchar green
property uchar blue
property float nx
property float ny
property float nz
end_header
-0.117000 -0.059070 -0.239404 128 128 255 0.639532 -0.380905 0.667765
-0.111782 -0.050742 -0.239621 128 128 255 0.632844 -0.381743 0.673632
-0.106563 -0.042542 -0.239844 128 128 255 0.625821 -0.382736 0.679604
-0.101345 -0.034476 -0.240072 128 128 255 0.604961 -0.413547 0.680442
-0.096126 -0.026551 -0.240306 128 128 255 0.579028 -0.449226 0.680384
-0.090907 -0.023217 -0.240544 128 128 255 0.569176 -0.451067 0.687442
-0.085689 -0.015592 -0.240786 128 128 255 0.578241 -0.418436 0.700391
-0.080470 -0.008125 -0.241030 128 128 255 0.585240 -0.389953 0.710936
-0.075251 -0.000822 -0.241278 128 128 255 0.575947 -0.391831 0.717463
-0.070032 0.006310 -0.241527 128 128 255 0.541172 -0.401824 0.738695
-0.064813 0.013268 -0.241261 128 128 255 0.501381 -0.412354 0.760646
-0.059594 0.020046 -0.240961 128 128 255 0.487699 -0.415098 0.768013
-0.054375 0.026638 -0.240664 128 128 255 0.475660 -0.417372 0.774305
-0.049156 0.033040 -0.240370 128 128 255 0.463287 -0.419716 0.780515
-0.043937 0.039248 -0.240079 128 128 255 0.450576 -0.422123 0.786634
-0.038717 0.045257 -0.239793 128 128 255 0.437527 -0.424591 0.792649
-0.033498 0.051063 -0.239512 128 128 255 0.424142 -0.427113 0.798548
-0.028279 0.056663 -0.239237 128 128 255 0.410423 -0.429683 0.804317
-0.023059 0.062052 -0.238969 128 128 255 0.600786 -0.376320 0.705294
-0.022284 0.067228 -0.238707 128 128 255 0.584374 -0.382034 0.715931
-0.017065 0.072186 -0.238454 128 128 255 0.367287 -0.437628 0.820720
-0.011845 0.076925 -0.238208 128 128 255 0.352266 -0.440333 0.825842
-0.006625 0.081442 -0.237972 128 128 255 0.336939 -0.443055 0.830767
-0.001406 0.085734 -0.237745 128 128 255 0.355928 -0.415465 0.837081
0.003814 0.089799 -0.237528 128 128 255 0.256386 -0.386150 0.886090
0.009034 0.093636 -0.237322 128 128 255 0.242359 -0.387862 0.889283
0.014254 0.097242 -0.237126 128 128 255 0.346055 -0.395711 0.850681
0.019474 0.105063 -0.236942 128 128 255 0.332545 -0.398198 0.854899
0.024694 0.108207 -0.236770 128 128 255 0.199376 -0.392973 0.897676
0.029914 0.111120 -0.236610 128 128 255 0.184900 -0.394647 0.900036
0.035134 0.113801 -0.236463 128 128 255 0.251397 -0.433714 0.865270
0.040354 0.116251 -0.236329 128 128 255 0.187846 -0.467120 0.864009
0.045574 0.118471 -0.236209 128 128 255 0.170545 -0.469624 0.866238
0.050794 0.120463 -0.236102 128 128 255 0.153246 -0.472081 0.868133
0.056014 0.122228 -0.236009 128 128 255 0.136008 -0.474496 0.869687
0.061235 0.123770 -0.235931 128 128 255 0.118884 -0.476881 0.870891
0.066455 0.125092 -0.235867 128 128 255 0.101930 -0.479251 0.871739
0.071675 0.126197 -0.235819 128 128 255 0.085194 -0.481632 0.872223
0.076896 0.127088 -0.235786 128 128 255 0.068711 -0.484060 0.872333
0.082116 0.127771 -0.235769 128 128 255 0.052493 -0.486583 0.872056
0.087337 0.128249 -0.235769 128 128 255 0.036522 -0.489258 0.871374
0.092557 0.128525 -0.235786 128 128 255 0.017106 -0.492426 0.870186
0.100000 0.128602 -0.235820 128 128 255 0.003512 -0.495334 0.868695
0.107443 0.128482 -0.235872 128 128 255 -0.008924 -0.498543 0.866819
0.112663 0.128167 -0.235942 128 128 255 -0.026968 -0.502622 0.864086
0.117884 0.127656 -0.236028 128 128 255 -0.043559 -0.506658 0.861046
0.123104 0.126950 -0.236130 128 128 255 -0.060683 -0.510865 0.857516
0.128325 0.126047 -0.236248 128 128 255 -0.078372 -0.515174 0.853495
0.133545 0.124947 -0.236381 128 128 255 -0.096619 -0.519529 0.848973
0.138765 0.123648 -0.236528 128 128 255 -0.115391 -0.523880 0.843940
0.143986 0.122151 -0.236689 128 128 255 -0.134641 -0.528190 0.838384
0.149206 0.120455 -0.236863 128 128 255 -0.154303 -0.532427 0.832293
0.154426 0.118561 -0.237050 128 128 255 -0.174313 -0.536565 0.825659
0.159646 0.116470 -0.237250 128 128 255 -0.194597 -0.540585 0.818474
0.164866 0.114182 -0.237461 128 128 255 -0.215086 -0.544472 0.810733
0.170086 0.111701 -0.237683 128 128 255 -0.235709 -0.548216 0.802434
0.175306 0.109027 -0.237917 128 128 255 -0.286102 -0.481767 0.828279
0.180526 0.106164 -0.238160 128 128 255 -0.223557 -0.466614 0.855742
0.185746 0.103116 -0.238414 128 128 255 -0.338990 -0.429587 0.836983
0.190966 0.095440 -0.238677 128 128 255 -0.354627 -0.431565 0.829453
0.196186 0.092030 -0.238948 128 128 255 -0.357410 -0.491837 0.793949
0.201406 0.088446 -0.239227 128 128 255 -0.358725 -0.567412 0.741188
0.206625 0.084692 -0.239514 128 128 255 -0.378578 -0.570074 0.729173
0.211845 0.080772 -0.239807 128 128 255 -0.398116 -0.572596 0.716685
0.217065 0.076692 -0.240107 128 128 255 -0.417296 -0.574984 0.703745
0.222284 0.072457 -0.240412 128 128 255 -0.643291 -0.489066 0.589060
0.223059 0.068072 -0.240722 128 128 255 -0.665781 -0.487399 0.564958
0.228279 0.063542 -0.241035 128 128 255 -0.472312 -0.581451 0.662447
0.233498 0.058874 -0.241353 128 128 255 -0.489700 -0.583414 0.647937
0.238718 0.054074 -0.241672 128 128 255 -0.506569 -0.585301 0.633097
0.243937 0.049147 -0.241994 128 128 255 -0.522892 -0.587127 0.617953
0.249156 0.044100 -0.242317 128 128 255 -0.538650 -0.588909 0.602530
0.254375 0.038939 -0.242640 128 128 255 -0.571890 -0.581945 0.578171
0.259595 0.033671 -0.242484 128 128 255 -0.604747 -0.573527 0.552583
0.264814 0.028302 -0.242255 128 128 255 -0.619131 -0.574130 0.535772
0.270033 0.022840 -0.242028 128 128 255 -0.630427 -0.576194 0.520157
0.275252 0.017292 -0.241801 128 128 255 -0.641093 -0.578381 0.504455
0.280471 0.011664 -0.241577 128 128 255 -0.651136 -0.580707 0.488673
0.285690 0.005963 -0.241355 128 128 255 -0.660560 -0.583183 0.472819
0.290909 0.000197 -0.241137 128 128 255 -0.669373 -0.585821 0.456896
0.296128 -0.005626 -0.240923 128 128 255 -0.677578 -0.588632 0.440909
0.301346 -0.011500 -0.240713 128 128 255 -0.685180 -0.591627 0.424860
0.306565 -0.017416 -0.240508 128 128 255 -0.692183 -0.594816 0.408750
0.311784 -0.023368 -0.240309 128 128 255 -0.615528 -0.700487 0.361168
0.317003 -0.024904 -0.240116 128 128 255 -0.488769 -0.824955 0.283819
0.322221 -0.030903 -0.239930 128 128 255 -0.709615 -0.605655 0.360041
0.327440 -0.036916 -0.239751 128 128 255 -0.714234 -0.609721 0.343671
0.332659 -0.042933 -0.239580 128 128 255 -0.718252 -0.614030 0.327232
0.337877 -0.048947 -0.239418 128 128 255 -0.721668 -0.618588 0.310716
0.343096 -0.054950 -0.239264 128 128 255 -0.593933 -0.728644 0.341058
0.352759 -0.060935 -0.239119 128 128 255 -0.595222 -0.734099 0.326817
0.357977 -0.066894 -0.238984 128 128 255 -0.728218 -0.633840 0.260663
0.363196 -0.072820 -0.238859 128 128 255 -0.729136 -0.639473 0.243793
0.368414 -0.078703 -0.238744 128 128 255 -0.729399 -0.645392 0.226819
0.373632 -0.084538 -0.238641 128 128 255 -0.728991 -0.651600 0.209735
0.378851 -0.090317 -0.238548 128 128 255 -0.727892 -0.658105 0.192536
0.384069 -0.096031 -0.238466 128 128 255 -0.726083 -0.664909 0.175214
0.389287 -0.101674 -0.238396 128 128 255 -0.723537 -0.672015 0.157764
0.394506 -0.107238 -0.238339 128 128 255 -0.720230 -0.679424 0.140184
0.399724 -0.112717 -0.238293 128 128 255 -0.716132 -0.687137 0.122466
0.404942 -0.118102 -0.238259 128 128 255 -0.711211 -0.695152 0.104609
0.410160 -0.123386 -0.238238 128 128 255 -0.705430 -0.703469 0.086606
0.415378 -0.128564 -0.238229 128 128 255 -0.698755 -0.712078 0.068458
0.420596 -0.133627 -0.238232 128 128 255 -0.691145 -0.720974 0.050163
0.425814 -0.138570 -0.238249 128 128 255 -0.682555 -0.730146 0.031725
0.431032 -0.143386 -0.238278 128 128 255 -0.800439 -0.599320 0.010632
0.436250 -0.152513 -0.238319 128 128 255 -0.794860 -0.606776 -0.004528
0.441468 -0.157055 -0.238373 128 128 255 -0.650457 -0.759151 -0.024402
0.446686 -0.161451 -0.238440 128 128 255 -0.637483 -0.769244 -0.043353
0.451904 -0.165696 -0.238519 128 128 255 -0.623289 -0.779498 -0.062400
0.457122 -0.169783 -0.238610 128 128 255 -0.607822 -0.789877 -0.081525
0.462340 -0.173708 -0.238713 128 128 255 -0.591033 -0.800337 -0.100701
0.467558 -0.177464 -0.238828 128 128 255 -0.572872 -0.810828 -0.119899
0.472776 -0.181046 -0.238954 128 128 255 -0.756829 -0.645169 -0.104727
0.473549 -0.184450 -0.239092 128 128 255 -0.738130 -0.661912 -0.130522
0.478767 -0.187672 -0.239241 128 128 255 -0.509750 -0.841870 -0.177228
0.483984 -0.190706 -0.239401 128 128 255 -0.485722 -0.851835 -0.196090
0.489202 -0.193548 -0.239570 128 128 255 -0.460167 -0.861474 -0.214732
0.494420 -0.196194 -0.239750 128 128 255 -0.433085 -0.870694 -0.233086
0.499638 -0.198641 -0.239940 128 128 255 -0.404492 -0.879401 -0.251077
0.504855 -0.200885 -0.240138 128 128 255 -0.374413 -0.887498 -0.268629
0.510073 -0.202922 -0.240345 128 128 255 -0.342905 -0.894885 -0.285653
0.515291 -0.204750 -0.240560 128 128 255 -0.310031 -0.901462 -0.302070
0.520508 -0.206366 -0.240783 128 128 255 -0.275883 -0.907138 -0.317789
0.525726 -0.207766 -0.241013 128 128 255 -0.240570 -0.911822 -0.332725
0.530944 -0.208950 -0.241250 128 128 255 -0.204223 -0.915437 -0.346796
0.536161 -0.209914 -0.241493 128 128 255 -0.166993 -0.917916 -0.359921
0.541379 -0.210657 -0.241741 128 128 255 -0.129043 -0.919205 -0.372034
0.546597 -0.211178 -0.241995 128 128 255 -0.090557 -0.919270 -0.383070
0.551814 -0.211474 -0.242252 128 128 255 -0.051721 -0.918091 -0.392982
0.557032 -0.211545 -0.242514 128 128 255 -0.012732 -0.915669 -0.401732
0.562250 -0.211390 -0.242778 128 128 255 0.026212 -0.912024 -0.409298
0.567467 -0.211009 -0.243045 128 128 255 0.064922 -0.907194 -0.415674
0.572685 -0.210400 -0.243314 128 128 255 0.103210 -0.901233 -0.420865
0.577903 -0.209564 -0.243584 128 128 255 0.140901 -0.894212 -0.424891
0.583120 -0.208500 -0.243854 128 128 255 0.195495 -0.883197 -0.426315
0.588338 -0.207210 -0.243682 128 128 255 0.252413 -0.869078 -0.425430
0.593555 -0.205694 -0.243401 128 128 255 0.208256 -0.875967 -0.435100
0.603212 -0.203953 -0.243121 128 128 255 0.172520 -0.881675 -0.439187
-0.403150 -0.494901 -0.239039 128 128 255 0.338802 -0.760567 0.553851
-0.393490 -0.490400 -0.238716 128 128 255 0.428264 -0.726727 0.537083
-0.388275 -0.485656 -0.238393 128 128 255 0.575575 -0.650078 0.496097
-0.383060 -0.480673 -0.238072 128 128 255 0.590324 -0.634992 0.498299
-0.377844 -0.475455 -0.237752 128 128 255 0.603846 -0.620504 0.500345
-0.372629 -0.470008 -0.237435 128 128 255 0.616238 -0.606611 0.502268
-0.367414 -0.464336 -0.237121 128 128 255 0.627591 -0.593309 0.504097
-0.362198 -0.458444 -0.236811 128 128 255 0.637985 -0.580586 0.505861
-0.356983 -0.452337 -0.236506 128 128 255 0.647492 -0.568431 0.507583
-0.351767 -0.446020 -0.236205 128 128 255 0.656182 -0.556827 0.509283
-0.346552 -0.439500 -0.235911 128 128 255 0.664118 -0.545757 0.510977
-0.341336 -0.432781 -0.235623 128 128 255 0.671354 -0.535203 0.512680
-0.336120 -0.425869 -0.235342 128 128 255 0.677942 -0.525148 0.514406
-0.330905 -0.418771 -0.235069 128 128 255 0.683929 -0.515573 0.516164
-0.325689 -0.411492 -0.234803 128 128 255 0.698057 -0.466590 0.543149
-0.320473 -0.404038 -0.234547 128 128 255 0.707856 -0.425115 0.564108
-0.315257 -0.391972 -0.234300 128 128 255 0.785228 -0.423675 0.451571
-0.310041 -0.384189 -0.234063 128 128 255 0.702638 -0.481700 0.523702
-0.304825 -0.376250 -0.233836 128 128 255 0.706167 -0.474253 0.525749
-0.299609 -0.368163 -0.233620 128 128 255 0.709293 -0.467182 0.527868
-0.294393 -0.359935 -0.233415 128 128 255 0.712041 -0.460469 0.530062
-0.289177 -0.351572 -0.233222 128 128 255 0.714423 -0.454104 0.532343
-0.283960 -0.343082 -0.233040 128 128 255 0.716465 -0.448071 0.534706
-0.278744 -0.334472 -0.232871 128 128 255 0.718181 -0.442358 0.537155
-0.273528 -0.325748 -0.232715 128 128 255 0.875209 -0.305140 0.375365
-0.272755 -0.316919 -0.232571 128 128 255 0.874941 -0.300851 0.379430
-0.267539 -0.307992 -0.232441 128 128 255 0.721503 -0.427018 0.545058
-0.262322 -0.298975 -0.232324 128 128 255 0.722044 -0.422469 0.547880
-0.257105 -0.289874 -0.232221 128 128 255 0.722314 -0.418187 0.550802
-0.251889 -0.280698 -0.232131 128 128 255 0.619668 -0.470057 0.628537
-0.246672 -0.275900 -0.232056 128 128 255 0.709782 -0.479818 0.515738
-0.241455 -0.266597 -0.231994 128 128 255 0.716578 -0.438780 0.542206
-0.236238 -0.257242 -0.231946 128 128 255 0.720860 -0.403546 0.563481
-0.231020 -0.247843 -0.231913 128 128 255 0.719889 -0.400471 0.566907
-0.225803 -0.238409 -0.231893 128 128 255 0.718678 -0.397618 0.570440
-0.220586 -0.228946 -0.231887 128 128 255 0.717236 -0.394979 0.574077
-0.215368 -0.219463 -0.231896 128 128 255 0.715560 -0.392551 0.577821
-0.210151 -0.209969 -0.231918 128 128 255 0.713653 -0.390327 0.581674
-0.204934 -0.200470 -0.231953 128 128 255 0.711515 -0.388303 0.585634
-0.199716 -0.190975 -0.232003 128 128 255 0.709143 -0.386476 0.589705
-0.194498 -0.181491 -0.232065 128 128 255 0.706537 -0.384841 0.593888
-0.189281 -0.172028 -0.232140 128 128 255 0.703695 -0.383394 0.598182
-0.184063 -0.162592 -0.232229 128 128 255 0.705358 -0.356609 0.612617
-0.178845 -0.153191 -0.232329 128 128 255 0.706177 -0.333166 0.624751
-0.173627 -0.139390 -0.232442 128 128 255 0.703095 -0.332403 0.628622
-0.168409 -0.130083 -0.232566 128 128 255 0.695413 -0.354126 0.625296
-0.163191 -0.120836 -0.232702 128 128 255 0.685834 -0.378880 0.621354
-0.157973 -0.111655 -0.232849 128 128 255 0.681500 -0.378503 0.626333
-0.152755 -0.102548 -0.233006 128 128 255 0.541843 -0.431741 0.721114
-0.143092 -0.093522 -0.233174 128 128 255 0.537078 -0.431076 0.725066
-0.137874 -0.084584 -0.233351 128 128 255 0.666861 -0.378384 0.641967
-0.132656 -0.075743 -0.233537 128 128 255 0.661411 -0.378676 0.647410
-0.127437 -0.067005 -0.233732 128 128 255 0.655662 -0.379131 0.652968
-0.122219 -0.058377 -0.233934 128 128 255 0.649604 -0.379747 0.658640
-0.117001 -0.049866 -0.234144 128 128 255 0.643228 -0.380523 0.664425
-0.111782 -0.041479 -0.234361 128 128 255 0.636522 -0.381458 0.670321
-0.106564 -0.033222 -0.234585 128 128 255 0.617028 -0.412059 0.670436
-0.101345 -0.025102 -0.234813 128 128 255 0.592732 -0.447517 0.669625
-0.096126 -0.021570 -0.235047 128 128 255 0.583303 -0.449315 0.676664
-0.090907 -0.013744 -0.235286 128 128 255 0.591446 -0.416809 0.690262
-0.085689 -0.006072 -0.235528 128 128 255 0.597651 -0.388441 0.701375
-0.080470 0.001437 -0.235773 128 128 255 0.588720 -0.390286 0.707875
-0.075251 0.008780 -0.236021 128 128 255 0.579372 -0.392274 0.714457
-0.070032 0.015949 -0.236270 128 128 255 0.544725 -0.402413 0.735757
-0.064813 0.022941 -0.236004 128 128 255 0.504952 -0.413081 0.757883
-0.059594 0.029750 -0.235704 128 128 255 0.491104 -0.415888 0.765411
-0.054375 0.036370 -0.235405 128 128 255 0.478878 -0.418219 0.771860
-0.049156 0.042797 -0.235110 128 128 255 0.466307 -0.420617 0.778228
-0.043936 0.049027 -0.234819 128 128 255 0.453390 -0.423077 0.784502
-0.038717 0.055055 -0.234533 128 128 255 0.440125 -0.425595 0.790670
-0.033498 0.060878 -0.234251 128 128 255 0.426515 -0.428164 0.796719
-0.028278 0.066490 -0.233976 128 128 255 0.412562 -0.430779 0.802634
-0.023059 0.071890 -0.233707 128 128 255 0.602936 -0.376871 0.703162
-0.022284 0.077072 -0.233446 128 128 255 0.586347 -0.382694 0.713963
-0.017064 0.082035 -0.233192 128 128 255 0.368681 -0.438841 0.819447
-0.011845 0.086775 -0.232947 128 128 255 0.384914 -0.411357 0.826212
-0.006625 0.091290 -0.232710 128 128 255 0.284520 -0.383628 0.878566
-0.001405 0.095577 -0.232484 128 128 255 0.386089 -0.389254 0.836311
0.003814 0.104079 -0.232267 128 128 255 0.372926 -0.391715 0.841122
0.009034 0.107905 -0.232061 128 128 255 0.242100 -0.388774 0.888956
0.014254 0.111499 -0.231866 128 128 255 0.227689 -0.390481 0.892010
0.019474 0.114859 -0.231683 128 128 255 0.296929 -0.427103 0.854058
0.024694 0.117984 -0.231512 128 128 255 0.238498 -0.460756 0.854882
0.029914 0.120876 -0.231353 128 128 255 0.221189 -0.463416 0.858091
0.035134 0.123532 -0.231207 128 128 255 0.203746 -0.466042 0.860984
0.040354 0.125955 -0.231074 128 128 255 0.186205 -0.468629 0.863548
0.045574 0.128145 -0.230955 128 128 255 0.168608 -0.471179 0.865773
0.050795 0.130104 -0.230850 128 128 255 0.150998 -0.473694 0.867648
0.056015 0.131833 -0.230760 128 128 255 0.133425 -0.476183 0.869165
0.061235 0.133336 -0.230683 128 128 255 0.115931 -0.478659 0.870313
0.066455 0.134614 -0.230622 128 128 255 0.098559 -0.481142 0.871085
0.071676 0.135671 -0.230576 128 128 255 0.081337 -0.483656 0.871471
0.076896 0.136510 -0.230546 128 128 255 0.064282 -0.486235 0.871460
0.082116 0.137135 -0.230531 128 128 255 0.047390 -0.488917 0.871042
0.087337 0.137548 -0.230533 128 128 255 0.030629 -0.491742 0.870202
0.092557 0.137754 -0.230551 128 128 255 0.011498 -0.495020 0.868805
0.100000 0.137753 -0.230585 128 128 255 -0.001946 -0.497974 0.867190
0.107443 0.137549 -0.230636 128 128 255 -0.016163 -0.501153 0.865208
0.112663 0.137143 -0.230704 128 128 255 -0.036696 -0.505089 0.862287
0.117884 0.136535 -0.230787 128 128 255 -0.054118 -0.508948 0.859094
0.123104 0.135725 -0.230887 128 128 255 -0.071958 -0.512957 0.855393
0.128324 0.134714 -0.231002 128 128 255 -0.090255 -0.517069 0.851172
0.133545 0.133501 -0.231131 128 128 255 -0.109018 -0.521234 0.846422
0.138765 0.132086 -0.231276 128 128 255 -0.128234 -0.525409 0.841131
0.143985 0.130469 -0.231434 128 128 255 -0.147871 -0.529551 0.835290
0.149206 0.128650 -0.231606 128 128 255 -0.167877 -0.533628 0.828890
0.154426 0.126630 -0.231791 128 128 255 -0.188191 -0.537613 0.821922
0.159646 0.124411 -0.231989 128 128 255 -0.208753 -0.541482 0.814383
0.164866 0.121993 -0.232199 128 128 255 -0.229496 -0.545217 0.806269
0.170086 0.119379 -0.232420 128 128 255 -0.250352 -0.548806 0.797581
0.175306 0.116572 -0.232652 128 128 255 -0.271256 -0.552239 0.788323
0.180526 0.113573 -0.232895 128 128 255 -0.292144 -0.555510 0.778499
0.185746 0.110387 -0.233148 128 128 255 -0.312954 -0.558615 0.768120
0.190966 0.107017 -0.233410 128 128 255 -0.353118 -0.489253 0.797458
0.196186 0.103467 -0.233682 128 128 255 -0.381926 -0.433201 0.816376
0.201405 0.095296 -0.233961 128 128 255 -0.397436 -0.435023 0.807960
0.206625 0.091398 -0.234248 128 128 255 -0.405916 -0.495837 0.767710
0.211845 0.087332 -0.234541 128 128 255 -0.413890 -0.571707 0.708411
0.217064 0.083105 -0.234841 128 128 255 -0.433110 -0.573875 0.695042
0.222284 0.078722 -0.235146 128 128 255 -0.659922 -0.482998 0.575513
0.223059 0.074187 -0.235457 128 128 255 -0.681813 -0.481050 0.551110
0.228278 0.069506 -0.235771 128 128 255 -0.488103 -0.579641 0.652512
0.233498 0.064685 -0.236089 128 128 255 -0.505437 -0.581359 0.637617
0.238717 0.059731 -0.236409 128 128 255 -0.522227 -0.582999 0.622408
0.243937 0.054649 -0.236732 128 128 255 -0.538451 -0.584575 0.606912
0.249156 0.049446 -0.237056 128 128 255 -0.554089 -0.586104 0.591157
0.254375 0.044128 -0.237380 128 128 255 -0.586406 -0.578861 0.566611
0.259594 0.038702 -0.237223 128 128 255 -0.618251 -0.570178 0.540983
0.264813 0.033174 -0.236994 128 128 255 -0.632339 -0.570531 0.524063
0.270032 0.027553 -0.236766 128 128 255 -0.643442 -0.572346 0.508333
0.275252 0.021844 -0.236540 128 128 255 -0.653915 -0.574291 0.492530
0.280471 0.016054 -0.236315 128 128 255 -0.663764 -0.576377 0.476663
0.285690 0.010192 -0.236093 128 128 255 -0.672997 -0.578618 0.460735
0.290908 0.004265 -0.235875 128 128 255 -0.681620 -0.581026 0.444750
0.296127 -0.001721 -0.235660 128 128 255 -0.689640 -0.583611 0.428713
0.301346 -0.007758 -0.235450 128 128 255 -0.697062 -0.586385 0.412623
0.306565 -0.013837 -0.235246 128 128 255 -0.703890 -0.589358 0.396480
0.311784 -0.019952 -0.235046 128 128 255 -0.710127 -0.592539 0.380286
0.317002 -0.026094 -0.234854 128 128 255 -0.509336 -0.817415 0.269090
0.322221 -0.027812 -0.234668 128 128 255 -0.641514 -0.702375 0.308431
0.327440 -0.033987 -0.234489 128 128 255 -0.725306 -0.603431 0.331363
0.332658 -0.040166 -0.234318 128 128 255 -0.729187 -0.607540 0.314931
0.337877 -0.046341 -0.234155 128 128 255 -0.732472 -0.611903 0.298427
0.343095 -0.052505 -0.234002 128 128 255 -0.605958 -0.724503 0.328497
0.352758 -0.058650 -0.233857 128 128 255 -0.607172 -0.729805 0.314209
0.357977 -0.064768 -0.233722 128 128 255 -0.738690 -0.626586 0.248449
0.363195 -0.070852 -0.233597 128 128 255 -0.739517 -0.632037 0.231611
0.368414 -0.076893 -0.233483 128 128 255 -0.739701 -0.637775 0.214674
0.373632 -0.082883 -0.233380 128 128 255 -0.739224 -0.643809 0.197633
0.378850 -0.088816 -0.233287 128 128 255 -0.738068 -0.650140 0.180481
0.384069 -0.094684 -0.233206 128 128 255 -0.736213 -0.656775 0.163211
0.389287 -0.100478 -0.233137 128 128 255 -0.733633 -0.663717 0.145816
0.394505 -0.106192 -0.233079 128 128 255 -0.730303 -0.670968 0.128294
0.399723 -0.111819 -0.233034 128 128 255 -0.726195 -0.678527 0.110639
0.404941 -0.117350 -0.233000 128 128 255 -0.721277 -0.686396 0.092847
0.410160 -0.122779 -0.232979 128 128 255 -0.715513 -0.694571 0.074915
0.415378 -0.128098 -0.232971 128 128 255 -0.708865 -0.703050 0.056841
0.420596 -0.133301 -0.232975 128 128 255 -0.701297 -0.711822 0.038629
0.425814 -0.138382 -0.232992 128 128 255 -0.692761 -0.720882 0.020273
0.431032 -0.143333 -0.233022 128 128 255 -0.805923 -0.592019 0.001420
0.436250 -0.152592 -0.233064 128 128 255 -0.800339 -0.599392 -0.013667
0.441468 -0.157264 -0.233119 128 128 255 -0.660899 -0.749631 -0.035582
0.446686 -0.161787 -0.233186 128 128 255 -0.648027 -0.759670 -0.054434
0.451904 -0.166156 -0.233266 128 128 255 -0.633943 -0.769890 -0.073380
0.457121 -0.170365 -0.233358 128 128 255 -0.618597 -0.780257 -0.092399
0.462339 -0.174408 -0.233462 128 128 255 -0.601934 -0.790728 -0.111466
0.467557 -0.178279 -0.233577 128 128 255 -0.583906 -0.801255 -0.130553
0.472775 -0.181974 -0.233705 128 128 255 -0.766157 -0.632785 -0.112186
0.473548 -0.185488 -0.233843 128 128 255 -0.747931 -0.649337 -0.137700
0.478766 -0.188815 -0.233993 128 128 255 -0.521177 -0.832587 -0.187544
0.483984 -0.191952 -0.234153 128 128 255 -0.497270 -0.842714 -0.206291
0.489202 -0.194893 -0.234324 128 128 255 -0.471822 -0.852550 -0.224817
0.494419 -0.197636 -0.234505 128 128 255 -0.444829 -0.862004 -0.243056
0.499637 -0.200175 -0.234695 128 128 255 -0.416302 -0.870981 -0.260931
0.504855 -0.202508 -0.234895 128 128 255 -0.386265 -0.879382 -0.278365
0.510073 -0.204631 -0.235103 128 128 255 -0.354760 -0.887106 -0.295277
0.515290 -0.206542 -0.235319 128 128 255 -0.321854 -0.894053 -0.311576
0.520508 -0.208236 -0.235543 128 128 255 -0.287628 -0.900126 -0.327175
0.525726 -0.209712 -0.235775 128 128 255 -0.252190 -0.905232 -0.341988
0.530943 -0.210968 -0.236012 128 128 255 -0.215668 -0.909287 -0.355928
0.536161 -0.212000 -0.236256 128 128 255 -0.178210 -0.912219 -0.368915
0.541378 -0.212808 -0.236506 128 128 255 -0.139978 -0.913968 -0.380879
0.546596 -0.213390 -0.236760 128 128 255 -0.101154 -0.914492 -0.391755
0.551814 -0.213745 -0.237019 128 128 255 -0.061933 -0.913767 -0.401491
0.557031 -0.213870 -0.237282 128 128 255 -0.022508 -0.911785 -0.410050
0.562249 -0.213766 -0.237547 128 128 255 0.016915 -0.908562 -0.417408
0.567467 -0.213433 -0.237815 128 128 255 0.056137 -0.904129 -0.423555
0.572684 -0.212868 -0.238085 128 128 255 0.094972 -0.898537 -0.428499
0.577902 -0.212073 -0.238356 128 128 255 0.133231 -0.891853 -0.432258
0.583120 -0.211048 -0.238628 128 128 255 0.188770 -0.881204 -0.433411
0.588337 -0.209793 -0.238456 128 128 255 0.246727 -0.867344 -0.432249
0.593555 -0.208308 -0.238174 128 128 255 0.204480 -0.873687 -0.441429
0.603212 -0.206596 -0.237895 128 128 255 0.169613 -0.879162 -0.445314
-0.403151 -0.491117 -0.233806 128 128 255 0.345520 -0.756420 0.555378
-0.393492 -0.486504 -0.233483 128 128 255 0.435965 -0.721687 0.537683
-0.388276 -0.481647 -0.233160 128 128 255 0.583615 -0.643784 0.494909
-0.383061 -0.476552 -0.232839 128 128 255 0.597997 -0.628909 0.496863
-0.377846 -0.471222 -0.232519 128 128 255 0.611183 -0.614631 0.498683
-0.372630 -0.465662 -0.232201 128 128 255 0.623269 -0.600945 0.500401
-0.367415 -0.459877 -0.231887 128 128 255 0.634339 -0.587845 0.502048
-0.362199 -0.453872 -0.231577 128 128 255 0.644476 -0.575319 0.503645
-0.356984 -0.447652 -0.231271 128 128 255 0.653750 -0.563355 0.505215
-0.351768 -0.441223 -0.230970 128 128 255 0.662225 -0.551936 0.506778
-0.346553 -0.434590 -0.230676 128 128 255 0.669965 -0.541045 0.508347
-0.341337 -0.427758 -0.230387 128 128 255 0.677023 -0.530664 0.509938
-0.336122 -0.420733 -0.230106 128 128 255 0.683448 -0.520774 0.511560
-0.330906 -0.413522 -0.229832 128 128 255 0.698164 -0.470888 0.539288
-0.325690 -0.406130 -0.229567 128 128 255 0.708344 -0.428677 0.560789
-0.320474 -0.394120 -0.229310 128 128 255 0.711913 -0.422143 0.561227
-0.315258 -0.386386 -0.229063 128 128 255 0.710447 -0.448516 0.542309
-0.310042 -0.378490 -0.228825 128 128 255 0.707511 -0.478057 0.520471
-0.304826 -0.370440 -0.228598 128 128 255 0.710945 -0.470738 0.522459
-0.299610 -0.362242 -0.228382 128 128 255 0.713980 -0.463790 0.524530
-0.294394 -0.353903 -0.228176 128 128 255 0.716644 -0.457197 0.526680
-0.289178 -0.345429 -0.227983 128 128 255 0.718954 -0.450946 0.528917
-0.283961 -0.336829 -0.227801 128 128 255 0.720926 -0.445024 0.531244
-0.278745 -0.328108 -0.227631 128 128 255 0.722576 -0.439417 0.533663
-0.273528 -0.319276 -0.227475 128 128 255 0.877737 -0.302218 0.371810
-0.272756 -0.310338 -0.227331 128 128 255 0.877488 -0.298039 0.375750
-0.267540 -0.301304 -0.227200 128 128 255 0.725741 -0.424378 0.541482
-0.262323 -0.292179 -0.227083 128 128 255 0.726237 -0.419924 0.544283
-0.257106 -0.282972 -0.226979 128 128 255 0.721627 -0.448753 0.527139
-0.251889 -0.273691 -0.226889 128 128 255 0.714862 -0.481518 0.507063
-0.246672 -0.268788 -0.226813 128 128 255 0.626253 -0.462790 0.627401
-0.241455 -0.259382 -0.226751 128 128 255 0.725643 -0.404658 0.556502
-0.236238 -0.249925 -0.226703 128 128 255 0.724882 -0.401441 0.559814
-0.231021 -0.240425 -0.226669 128 128 255 0.723885 -0.398449 0.563231
-0.225804 -0.230890 -0.226649 128 128 255 0.722653 -0.395678 0.566755
-0.220586 -0.221329 -0.226643 128 128 255 0.721189 -0.393121 0.570388
-0.215369 -0.211749 -0.226650 128 128 255 0.719496 -0.390773 0.574127
-0.210152 -0.202158 -0.226672 128 128 255 0.717572 -0.388629 0.577977
-0.204934 -0.192565 -0.226707 128 128 255 0.715418 -0.386686 0.581937
-0.199716 -0.182977 -0.226756 128 128 255 0.713034 -0.384938 0.586008
-0.194499 -0.173403 -0.226818 128 128 255 0.710418 -0.383383 0.590190
-0.189281 -0.163850 -0.226893 128 128 255 0.711761 -0.356530 0.605213
-0.184063 -0.154326 -0.226980 128 128 255 0.712295 -0.333030 0.617840
-0.178845 -0.140395 -0.227080 128 128 255 0.709416 -0.332187 0.621595
-0.173627 -0.130954 -0.227193 128 128 255 0.702473 -0.353780 0.617553
-0.168409 -0.121566 -0.227317 128 128 255 0.693747 -0.378376 0.612819
-0.163191 -0.112239 -0.227452 128 128 255 0.689666 -0.377910 0.617693
-0.157973 -0.102980 -0.227599 128 128 255 0.685325 -0.377617 0.622684
-0.152755 -0.093797 -0.227755 128 128 255 0.545848 -0.431581 0.718184
-0.143093 -0.084698 -0.227922 128 128 255 0.541029 -0.430980 0.722180
-0.137874 -0.075690 -0.228099 128 128 255 0.670663 -0.377759 0.638365
-0.132656 -0.066780 -0.228285 128 128 255 0.665204 -0.378141 0.643827
-0.127438 -0.057976 -0.228479 128 128 255 0.659443 -0.378688 0.649408
-0.122219 -0.049284 -0.228681 128 128 255 0.653373 -0.379397 0.655104
-0.117001 -0.040712 -0.228891 128 128 255 0.646981 -0.380268 0.660917
-0.111782 -0.032266 -0.229107 128 128 255 0.628821 -0.410658 0.660260
-0.106564 -0.023953 -0.229330 128 128 255 0.606122 -0.445888 0.658635
-0.101345 -0.020225 -0.229559 128 128 255 0.597114 -0.447636 0.665640
-0.096126 -0.012198 -0.229793 128 128 255 0.604367 -0.415253 0.679931
-0.090907 -0.004324 -0.230031 128 128 255 0.609804 -0.386995 0.691646
-0.085689 0.003392 -0.230273 128 128 255 0.601237 -0.388801 0.698103
-0.080470 0.010944 -0.230518 128 128 255 0.592262 -0.390757 0.704653
-0.075251 0.018326 -0.230765 128 128 255 0.582862 -0.392858 0.711291
-0.070032 0.025532 -0.231015 128 128 255 0.548414 -0.403126 0.732619
-0.064813 0.032557 -0.230749 128 128 255 0.508750 -0.413918 0.754881
-0.059594 0.039396 -0.230448 128 128 255 0.494746 -0.416792 0.762569
-0.054375 0.046044 -0.230150 128 128 255 0.482337 -0.419184 0.769178
-0.049155 0.052495 -0.229855 128 128 255 0.469571 -0.421641 0.775707
-0.043936 0.058747 -0.229564 128 128 255 0.456450 -0.424159 0.782139
-0.038717 0.064794 -0.229278 128 128 255 0.442972 -0.426732 0.788464
-0.033498 0.070632 -0.228997 128 128 255 0.429138 -0.429354 0.794667
-0.028278 0.076257 -0.228722 128 128 255 0.414953 -0.432020 0.800733
-0.023059 0.081666 -0.228453 128 128 255 0.605362 -0.377492 0.700740
-0.022284 0.086855 -0.228192 128 128 255 0.605333 -0.341962 0.718772
-0.017064 0.091821 -0.227939 128 128 255 0.313081 -0.381257 0.869841
-0.011844 0.096562 -0.227694 128 128 255 0.413051 -0.385418 0.825131
-0.006625 0.105519 -0.227459 128 128 255 0.400111 -0.387856 0.830348
-0.001405 0.109801 -0.227233 128 128 255 0.271011 -0.386403 0.881615
0.003815 0.113850 -0.227018 128 128 255 0.342588 -0.420482 0.840136
0.009035 0.117666 -0.226813 128 128 255 0.289532 -0.454176 0.842553
0.014255 0.121246 -0.226619 128 128 255 0.272536 -0.456952 0.846711
0.019474 0.124589 -0.226437 128 128 255 0.255307 -0.459709 0.850580
0.024694 0.127695 -0.226267 128 128 255 0.237873 -0.462442 0.854145
0.029914 0.130564 -0.226110 128 128 255 0.220261 -0.465148 0.857393
0.035135 0.133195 -0.225966 128 128 255 0.202503 -0.467823 0.860310
0.040355 0.135590 -0.225835 128 128 255 0.184638 -0.470468 0.862884
0.045575 0.137749 -0.225718 128 128 255 0.166701 -0.473085 0.865102
0.050795 0.139673 -0.225615 128 128 255 0.148731 -0.475680 0.866953
0.056015 0.141365 -0.225526 128 128 255 0.130766 -0.478261 0.868428
0.061235 0.142825 -0.225452 128 128 255 0.112841 -0.480841 0.869516
0.066456 0.144058 -0.225393 128 128 255 0.094983 -0.483440 0.870209
0.071676 0.145065 -0.225349 128 128 255 0.077217 -0.486079 0.870497
0.076896 0.145850 -0.225320 128 128 255 0.059543 -0.488784 0.870371
0.082117 0.146414 -0.225307 128 128 255 0.041955 -0.491584 0.869819
0.087337 0.146762 -0.225309 128 128 255 0.024421 -0.494507 0.868830
0.092557 0.146896 -0.225327 128 128 255 0.005685 -0.497848 0.867246
0.100000 0.146818 -0.225362 128 128 255 -0.007504 -0.500827 0.865515
0.107443 0.146530 -0.225412 128 128 255 -0.023422 -0.503977 0.863400
0.112663 0.146033 -0.225478 128 128 255 -0.046361 -0.507790 0.860232
0.117883 0.145328 -0.225559 128 128 255 -0.064583 -0.511510 0.856847
0.123104 0.144417 -0.225656 128 128 255 -0.083145 -0.515351 0.852936
0.128324 0.143299 -0.225769 128 128 255 -0.102083 -0.519277 0.848487
0.133544 0.141974 -0.225896 128 128 255 -0.121409 -0.523251 0.843486
0.138765 0.140444 -0.226038 128 128 255 -0.141119 -0.527232 0.837921
0.143985 0.138708 -0.226193 128 128 255 -0.161185 -0.531186 0.831782
0.149205 0.136767 -0.226363 128 128 255 -0.181569 -0.535078 0.825060
0.154425 0.134622 -0.226545 128 128 255 -0.202220 -0.538881 0.817750
0.159645 0.132276 -0.226741 128 128 255 -0.223081 -0.542570 0.809847
0.164866 0.129729 -0.226949 128 128 255 -0.244091 -0.546127 0.801352
0.170086 0.126983 -0.227168 128 128 255 -0.265187 -0.549535 0.792267
0.175306 0.124042 -0.227399 128 128 255 -0.286305 -0.552784 0.782598
0.180526 0.120908 -0.227641 128 128 255 -0.307383 -0.555866 0.772352
0.185746 0.117585 -0.227892 128 128 255 -0.328358 -0.558777 0.761544
0.190965 0.114075 -0.228153 128 128 255 -0.349173 -0.561515 0.750186
0.196185 0.110384 -0.228423 128 128 255 -0.369770 -0.564081 0.738297
0.201405 0.106515 -0.228702 128 128 255 -0.402256 -0.493336 0.771239
0.206625 0.102472 -0.228988 128 128 255 -0.424908 -0.436395 0.793103
0.211844 0.093817 -0.229281 128 128 255 -0.513790 -0.444969 0.733500
0.217064 0.089443 -0.229580 128 128 255 -0.448983 -0.572722 0.685859
0.222284 0.084910 -0.229886 128 128 255 -0.676086 -0.476876 0.561691
0.223059 0.080225 -0.230196 128 128 255 -0.697347 -0.474657 0.537036
0.228278 0.075392 -0.230510 128 128 255 -0.503868 -0.577749 0.642124
0.233498 0.070419 -0.230828 128 128 255 -0.521117 -0.579212 0.626857
0.238717 0.065311 -0.231148 128 128 255 -0.537800 -0.580596 0.611293
0.243936 0.060073 -0.231471 128 128 255 -0.553895 -0.581914 0.595463
0.249156 0.054714 -0.231795 128 128 255 -0.569385 -0.583184 0.579393
0.254375 0.049238 -0.232119 128 128 255 -0.600709 -0.575699 0.554724
0.259594 0.043654 -0.231963 128 128 255 -0.631481 -0.566797 0.529124
0.264813 0.037967 -0.231734 128 128 255 -0.645255 -0.566908 0.512114
0.270032 0.032186 -0.231506 128 128 255 -0.656153 -0.568476 0.496285
0.275251 0.026316 -0.231280 128 128 255 -0.666419 -0.570178 0.480398
0.280470 0.020365 -0.231056 128 128 255 -0.676064 -0.572028 0.464458
0.285689 0.014341 -0.230835 128 128 255 -0.685095 -0.574038 0.448470
0.290908 0.008251 -0.230617 128 128 255 -0.693521 -0.576217 0.432438
0.296127 0.002103 -0.230403 128 128 255 -0.701347 -0.578580 0.416363
0.301346 -0.004096 -0.230193 128 128 255 -0.708581 -0.581135 0.400245
0.306565 -0.010339 -0.229989 128 128 255 -0.715226 -0.583894 0.384084
0.311783 -0.016617 -0.229790 128 128 255 -0.721287 -0.586865 0.367879
0.317002 -0.022922 -0.229598 128 128 255 -0.651251 -0.690750 0.314223
0.322221 -0.024803 -0.229413 128 128 255 -0.533338 -0.813952 0.230290
0.327439 -0.031140 -0.229234 128 128 255 -0.735983 -0.597149 0.318969
0.332658 -0.037481 -0.229064 128 128 255 -0.739721 -0.601062 0.302553
0.337877 -0.043818 -0.228902 128 128 255 -0.742871 -0.605232 0.286073
0.343095 -0.050143 -0.228749 128 128 255 -0.617706 -0.720260 0.315698
0.352758 -0.056448 -0.228605 128 128 255 -0.618840 -0.725406 0.301369
0.357976 -0.062725 -0.228471 128 128 255 -0.748741 -0.619356 0.236189
0.363195 -0.068967 -0.228347 128 128 255 -0.749473 -0.624625 0.219394
0.368413 -0.075165 -0.228233 128 128 255 -0.749572 -0.630185 0.202504
0.373632 -0.081312 -0.228130 128 128 255 -0.749021 -0.636045 0.185510
0.378850 -0.087399 -0.228038 128 128 255 -0.747802 -0.642207 0.168410
0.384068 -0.093419 -0.227958 128 128 255 -0.745896 -0.648674 0.151196
0.389286 -0.099365 -0.227889 128 128 255 -0.743278 -0.655453 0.133864
0.394505 -0.105229 -0.227832 128 128 255 -0.739921 -0.662546 0.116406
0.399723 -0.111003 -0.227787 128 128 255 -0.735798 -0.669953 0.098819
0.404941 -0.116681 -0.227755 128 128 255 -0.730876 -0.677675 0.081098
0.410159 -0.122253 -0.227735 128 128 255 -0.725123 -0.685710 0.063242
0.415377 -0.127715 -0.227727 128 128 255 -0.718497 -0.694056 0.045247
0.420595 -0.133058 -0.227732 128 128 255 -0.710964 -0.702706 0.027116
0.425813 -0.138275 -0.227749 128 128 255 -0.702478 -0.711651 0.008849
0.431031 -0.143361 -0.227780 128 128 255 -0.811131 -0.584813 -0.007772
0.436249 -0.152752 -0.227822 128 128 255 -0.805538 -0.592106 -0.022788
0.441467 -0.157553 -0.227878 128 128 255 -0.670832 -0.740136 -0.046725
0.446685 -0.162204 -0.227946 128 128 255 -0.658057 -0.750116 -0.065474
0.451903 -0.166697 -0.228026 128 128 255 -0.644078 -0.760299 -0.084316
0.457121 -0.171026 -0.228118 128 128 255 -0.628847 -0.770647 -0.103226
0.462339 -0.175187 -0.228223 128 128 255 -0.612305 -0.781123 -0.122185
0.467557 -0.179173 -0.228339 128 128 255 -0.594405 -0.791680 -0.141158
0.472774 -0.182980 -0.228467 128 128 255 -0.774841 -0.620754 -0.119523
0.473548 -0.186602 -0.228606 128 128 255 -0.757053 -0.637115 -0.144761
0.478766 -0.190034 -0.228757 128 128 255 -0.532064 -0.823275 -0.197804
0.483983 -0.193272 -0.228918 128 128 255 -0.508274 -0.833555 -0.216434
0.489201 -0.196312 -0.229089 128 128 255 -0.482936 -0.843577 -0.234843
0.494419 -0.199150 -0.229270 128 128 255 -0.456035 -0.853253 -0.252963
0.499637 -0.201781 -0.229461 128 128 255 -0.427578 -0.862489 -0.270722
0.504854 -0.204202 -0.229661 128 128 255 -0.397586 -0.871183 -0.288038
0.510072 -0.206410 -0.229870 128 128 255 -0.366094 -0.879235 -0.304830
0.515290 -0.208401 -0.230087 128 128 255 -0.333162 -0.886541 -0.321010
0.520507 -0.210173 -0.230311 128 128 255 -0.298869 -0.893002 -0.336488
0.525725 -0.211723 -0.230543 128 128 255 -0.263318 -0.898521 -0.351174
0.530943 -0.213049 -0.230781 128 128 255 -0.226629 -0.903010 -0.364983
0.536160 -0.214149 -0.231026 128 128 255 -0.188956 -0.906389 -0.377829
0.541378 -0.215020 -0.231276 128 128 255 -0.150456 -0.908593 -0.389642
0.546595 -0.215662 -0.231531 128 128 255 -0.111309 -0.909574 -0.400356
0.551813 -0.216073 -0.231790 128 128 255 -0.071713 -0.909300 -0.409915
0.557031 -0.216251 -0.232053 128 128 255 -0.031868 -0.907759 -0.418279
0.562248 -0.216197 -0.232319 128 128 255 0.008020 -0.904958 -0.425425
0.567466 -0.215909 -0.232588 128 128 255 0.047746 -0.900925 -0.431340
0.572684 -0.215388 -0.232858 128 128 255 0.087112 -0.895706 -0.436031
0.577901 -0.214632 -0.233130 128 128 255 0.125929 -0.889363 -0.439518
0.583119 -0.213643 -0.233402 128 128 255 0.182351 -0.879087 -0.440401
0.588336 -0.212421 -0.233230 128 128 255 0.241278 -0.865503 -0.438964
0.593554 -0.210966 -0.232949 128 128 255 0.200874 -0.871350 -0.447659
0.603211 -0.209281 -0.232670 128 128 255 0.166842 -0.876611 -0.451351
-0.403153 -0.487302 -0.228574 128 128 255 0.352151 -0.752539 0.556485
-0.393493 -0.482579 -0.228251 128 128 255 0.443540 -0.716910 0.537877
-0.388278 -0.477613 -0.227929 128 128 255 0.591470 -0.637767 0.493372
-0.383062 -0.472407 -0.227607 128 128 255 0.605507 -0.623097 0.495088
-0.377847 -0.466967 -0.227288 128 128 255 0.618374 -0.609021 0.496697
-0.372632 -0.461296 -0.226971 128 128 255 0.630169 -0.595535 0.498222
-0.367416 -0.455401 -0.226657 128 128 255 0.640976 -0.582631 0.499691
-0.362201 -0.449285 -0.226347 128 128 255 0.650872 -0.570295 0.501128
-0.356985 -0.442955 -0.226042 128 128 255 0.659923 -0.558515 0.502555
-0.351770 -0.436415 -0.225741 128 128 255 0.668198 -0.547275 0.503986
-0.346554 -0.429670 -0.225447 128 128 255 0.675754 -0.536555 0.505435
-0.341338 -0.422728 -0.225159 128 128 255 0.682643 -0.526338 0.506918
-0.336123 -0.415593 -0.224878 128 128 255 0.688913 -0.516607 0.508445
-0.330907 -0.408271 -0.224604 128 128 255 0.784696 -0.437147 0.439494
-0.325691 -0.396324 -0.224339 128 128 255 0.712504 -0.425748 0.557743
-0.320475 -0.388648 -0.224082 128 128 255 0.711298 -0.452371 0.537974
-0.315259 -0.380803 -0.223835 128 128 255 0.708624 -0.482167 0.515139
-0.310043 -0.372798 -0.223598 128 128 255 0.712378 -0.474591 0.516993
-0.304827 -0.364638 -0.223371 128 128 255 0.715722 -0.467395 0.518925
-0.299611 -0.356330 -0.223154 128 128 255 0.718675 -0.460567 0.520946
-0.294395 -0.347881 -0.222949 128 128 255 0.721262 -0.454089 0.523053
-0.289179 -0.339299 -0.222756 128 128 255 0.723501 -0.447948 0.525252
-0.283962 -0.330590 -0.222574 128 128 255 0.725408 -0.442133 0.527543
-0.278746 -0.321762 -0.222404 128 128 255 0.727001 -0.436630 0.529929
-0.273529 -0.312822 -0.222247 128 128 255 0.880260 -0.299408 0.368100
-0.272757 -0.303778 -0.222103 128 128 255 0.880027 -0.295337 0.371926
-0.267540 -0.294637 -0.221973 128 128 255 0.730013 -0.421881 0.537678
-0.262324 -0.285407 -0.221855 128 128 255 0.725925 -0.450729 0.519497
-0.257107 -0.276095 -0.221751 128 128 255 0.719736 -0.483477 0.498228
-0.251890 -0.271155 -0.221661 128 128 255 0.719968 -0.478583 0.502597
-0.246673 -0.261704 -0.221584 128 128 255 0.726079 -0.437713 0.530299
-0.241456 -0.252196 -0.221522 128 128 255 0.729738 -0.402599 0.552627
-0.236239 -0.242638 -0.221473 128 128 255 0.728949 -0.399465 0.555933
-0.231021 -0.233039 -0.221439 128 128 255 0.727927 -0.396555 0.559344
-0.225804 -0.223406 -0.221418 128 128 255 0.726675 -0.393865 0.562862
-0.220587 -0.213747 -0.221411 128 128 255 0.725192 -0.391388 0.566491
-0.215369 -0.204071 -0.221419 128 128 255 0.723481 -0.389119 0.570229
-0.210152 -0.194386 -0.221439 128 128 255 0.721542 -0.387055 0.574078
-0.204934 -0.184699 -0.221474 128 128 255 0.719375 -0.385190 0.578038
-0.199717 -0.175020 -0.221522 128 128 255 0.716978 -0.383522 0.582111
-0.194499 -0.165356 -0.221583 128 128 255 0.718018 -0.356583 0.597745
-0.189281 -0.155714 -0.221657 128 128 255 0.718275 -0.333012 0.610888
-0.184064 -0.141660 -0.221744 128 128 255 0.715594 -0.332086 0.614527
-0.178846 -0.132089 -0.221843 128 128 255 0.709373 -0.353555 0.609745
-0.173628 -0.122565 -0.221955 128 128 255 0.701472 -0.378001 0.604196
-0.168410 -0.113096 -0.222078 128 128 255 0.697640 -0.377442 0.608962
-0.163192 -0.103690 -0.222212 128 128 255 0.693554 -0.377060 0.613848
-0.157974 -0.094354 -0.222358 128 128 255 0.689205 -0.376852 0.618853
-0.152755 -0.085097 -0.222514 128 128 255 0.549933 -0.431575 0.715065
-0.143093 -0.075926 -0.222680 128 128 255 0.545060 -0.431038 0.719107
-0.137874 -0.066847 -0.222855 128 128 255 0.674522 -0.377255 0.634585
-0.132656 -0.057870 -0.223040 128 128 255 0.669053 -0.377728 0.640070
-0.127438 -0.049000 -0.223233 128 128 255 0.663282 -0.378367 0.645674
-0.122219 -0.040246 -0.223435 128 128 255 0.647353 -0.408231 0.643648
-0.117001 -0.031613 -0.223643 128 128 255 0.717709 -0.423500 0.552758
-0.111782 -0.023110 -0.223859 128 128 255 0.619197 -0.444343 0.647422
-0.106564 -0.019187 -0.224081 128 128 255 0.610606 -0.446034 0.654381
-0.101345 -0.010961 -0.224309 128 128 255 0.617001 -0.413769 0.669406
-0.096126 -0.002885 -0.224541 128 128 255 0.621696 -0.385616 0.681758
-0.090907 0.005037 -0.224779 128 128 255 0.613491 -0.387380 0.688161
-0.085689 0.012797 -0.225020 128 128 255 0.604885 -0.389296 0.694667
-0.080470 0.020390 -0.225264 128 128 255 0.595866 -0.391364 0.701269
-0.075251 0.027810 -0.225511 128 128 255 0.586415 -0.393581 0.707963
-0.070032 0.035052 -0.225760 128 128 255 0.552238 -0.403963 0.729278
-0.064813 0.042110 -0.225494 128 128 255 0.512773 -0.414864 0.751632
-0.059594 0.048979 -0.225194 128 128 255 0.498623 -0.417809 0.759481
-0.054374 0.055653 -0.224897 128 128 255 0.486035 -0.420267 0.766255
-0.049155 0.062129 -0.224603 128 128 255 0.473079 -0.422789 0.772946
-0.043936 0.068402 -0.224313 128 128 255 0.459756 -0.425369 0.779542
-0.038717 0.074467 -0.224028 128 128 255 0.446066 -0.428004 0.786027
-0.033497 0.080320 -0.223748 128 128 255 0.432009 -0.430686 0.792387
-0.028278 0.085957 -0.223474 128 128 255 0.443105 -0.403518 0.800519
-0.023058 0.091375 -0.223207 128 128 255 0.550121 -0.350205 0.758105
-0.022283 0.096570 -0.222947 128 128 255 0.649517 -0.323355 0.688164
-0.017064 0.105984 -0.222695 128 128 255 0.427507 -0.384119 0.818346
-0.011844 0.110725 -0.222452 128 128 255 0.300418 -0.384153 0.873027
-0.006624 0.115235 -0.222218 128 128 255 0.373304 -0.416575 0.828921
-0.001405 0.119511 -0.221994 128 128 255 0.323790 -0.450296 0.832102
0.003815 0.123552 -0.221780 128 128 255 0.307032 -0.453143 0.836895
0.009035 0.127356 -0.221577 128 128 255 0.289993 -0.455983 0.841418
0.014255 0.130921 -0.221385 128 128 255 0.272689 -0.458810 0.845656
0.019475 0.134247 -0.221205 128 128 255 0.255146 -0.461620 0.849592
0.024695 0.137333 -0.221037 128 128 255 0.237389 -0.464410 0.853211
0.029915 0.140178 -0.220882 128 128 255 0.219443 -0.467177 0.856499
0.035135 0.142784 -0.220739 128 128 255 0.201339 -0.469919 0.859441
0.040355 0.145149 -0.220610 128 128 255 0.183111 -0.472638 0.862023
0.045575 0.147275 -0.220495 128 128 255 0.164791 -0.475336 0.864233
0.050795 0.149164 -0.220394 128 128 255 0.146411 -0.478020 0.866061
0.056016 0.150816 -0.220307 128 128 255 0.128003 -0.480698 0.867493
0.061236 0.152233 -0.220234 128 128 255 0.109596 -0.483383 0.868522
0.066456 0.153419 -0.220177 128 128 255 0.091209 -0.486088 0.869137
0.071676 0.154374 -0.220134 128 128 255 0.072857 -0.488834 0.869329
0.076897 0.155102 -0.220106 128 128 255 0.054544 -0.491640 0.869089
0.082117 0.155606 -0.220094 128 128 255 0.036256 -0.494527 0.868406
0.087337 0.155887 -0.220097 128 128 255 0.017970 -0.497514 0.867270
0.092557 0.155948 -0.220115 128 128 255 -0.000290 -0.500895 0.865508
0.100000 0.155791 -0.220149 128 128 255 -0.013158 -0.503893 0.863666
0.107443 0.155419 -0.220198 128 128 255 -0.030743 -0.507007 0.861394
0.112663 0.154832 -0.220263 128 128 255 -0.056045 -0.510697 0.857932
0.117883 0.154032 -0.220343 128 128 255 -0.075033 -0.514296 0.854324
0.123104 0.153019 -0.220438 128 128 255 -0.094308 -0.517985 0.850175
0.128324 0.151795 -0.220548 128 128 255 -0.113897 -0.521738 0.845468
0.133544 0.150361 -0.220673 128 128 255 -0.133810 -0.525523 0.840190
0.138764 0.148716 -0.220812 128 128 255 -0.154040 -0.529309 0.834328
0.143985 0.146863 -0.220965 128 128 255 -0.174570 -0.533062 0.827871
0.149205 0.144801 -0.221132 128 128 255 -0.195362 -0.536752 0.820811
0.154425 0.142533 -0.221312 128 128 255 -0.216374 -0.540352 0.813143
0.159645 0.140060 -0.221505 128 128 255 -0.237554 -0.543839 0.804865
0.164865 0.137384 -0.221711 128 128 255 -0.258845 -0.547191 0.795978
0.170085 0.134507 -0.221928 128 128 255 -0.280189 -0.550394 0.786486
0.175305 0.131432 -0.222156 128 128 255 -0.301522 -0.553435 0.776398
0.180525 0.128163 -0.222396 128 128 255 -0.322785 -0.556304 0.765725
0.185745 0.124702 -0.222646 128 128 255 -0.343916 -0.558998 0.754482
0.190965 0.121054 -0.222905 128 128 255 -0.364858 -0.561513 0.742686
0.196185 0.117222 -0.223173 128 128 255 -0.385554 -0.563850 0.730357
0.201405 0.113210 -0.223450 128 128 255 -0.405953 -0.566012 0.717518
0.206624 0.109023 -0.223735 128 128 255 -0.426005 -0.568006 0.704194
0.211844 0.104666 -0.224027 128 128 255 -0.525585 -0.443940 0.725726
0.217064 0.095700 -0.224325 128 128 255 -0.540273 -0.444751 0.714354
0.222283 0.091018 -0.224629 128 128 255 -0.691759 -0.470711 0.547632
0.223058 0.086183 -0.224938 128 128 255 -0.712364 -0.468232 0.522777
0.228278 0.081199 -0.225252 128 128 255 -0.519574 -0.575769 0.631295
0.233497 0.076072 -0.225569 128 128 255 -0.536710 -0.576969 0.615671
0.238717 0.070810 -0.225888 128 128 255 -0.553256 -0.578087 0.599769
0.243936 0.065417 -0.226210 128 128 255 -0.569194 -0.579141 0.583622
0.249155 0.059901 -0.226534 128 128 255 -0.584506 -0.580147 0.567258
0.254374 0.054268 -0.226858 128 128 255 -0.614779 -0.572457 0.542530
0.259594 0.048525 -0.226702 128 128 255 -0.644428 -0.563383 0.517022
0.264813 0.042679 -0.226474 128 128 255 -0.657872 -0.563257 0.499945
0.270032 0.036737 -0.226248 128 128 255 -0.668552 -0.564581 0.484032
0.275251 0.030706 -0.226022 128 128 255 -0.678601 -0.566045 0.468075
0.280470 0.024594 -0.225799 128 128 255 -0.688032 -0.567660 0.452078
0.285689 0.018408 -0.225579 128 128 255 -0.696852 -0.569440 0.436045
0.290908 0.012155 -0.225362 128 128 255 -0.705071 -0.571396 0.419978
0.296127 0.005844 -0.225149 128 128 255 -0.712696 -0.573539 0.403878
0.301345 -0.000519 -0.224941 128 128 255 -0.719734 -0.575879 0.387745
0.306564 -0.006924 -0.224738 128 128 255 -0.726190 -0.578427 0.371580
0.311783 -0.013365 -0.224540 128 128 255 -0.732069 -0.581191 0.355377
0.317002 -0.019834 -0.224349 128 128 255 -0.737373 -0.584183 0.339133
0.322220 -0.026322 -0.224165 128 128 255 -0.552345 -0.805377 0.215134
0.327439 -0.028377 -0.223988 128 128 255 -0.673649 -0.691436 0.260986
0.332658 -0.034880 -0.223819 128 128 255 -0.749856 -0.594598 0.290120
0.337876 -0.041379 -0.223658 128 128 255 -0.752867 -0.598577 0.273673
0.343095 -0.047865 -0.223506 128 128 255 -0.629168 -0.715912 0.302684
0.352758 -0.054330 -0.223363 128 128 255 -0.630216 -0.720901 0.288322
0.357976 -0.060767 -0.223230 128 128 255 -0.758376 -0.612151 0.223911
0.363194 -0.067167 -0.223107 128 128 255 -0.759009 -0.617243 0.207163
0.368413 -0.073522 -0.222995 128 128 255 -0.759019 -0.622629 0.190324
0.373631 -0.079824 -0.222893 128 128 255 -0.758390 -0.628315 0.173389
0.378850 -0.086066 -0.222802 128 128 255 -0.757105 -0.634309 0.156347
0.384068 -0.092240 -0.222722 128 128 255 -0.755143 -0.640612 0.139195
0.389286 -0.098337 -0.222654 128 128 255 -0.752480 -0.647231 0.121927
0.394504 -0.104351 -0.222598 128 128 255 -0.749091 -0.654167 0.104539
0.399722 -0.110273 -0.222554 128 128 255 -0.744948 -0.661422 0.087024
0.404941 -0.116096 -0.222523 128 128 255 -0.740019 -0.668998 0.069380
0.410159 -0.121812 -0.222503 128 128 255 -0.734270 -0.676894 0.051604
0.415377 -0.127415 -0.222496 128 128 255 -0.727662 -0.685107 0.033693
0.420595 -0.132897 -0.222502 128 128 255 -0.720158 -0.693633 0.015647
0.425813 -0.138252 -0.222520 128 128 255 -0.711714 -0.702465 -0.002532
0.431031 -0.143471 -0.222551 128 128 255 -0.816068 -0.577707 -0.016940
0.436249 -0.152994 -0.222594 128 128 255 -0.810465 -0.584920 -0.031878
