ply
format ascii 1.0
element vertex 700
property float x
property float y
property float z
property uchar red
property uchar green
property uchar blue
property float nx
property float ny
property float nz
end_header
0.219270 -1.775316 1.098080 128 128 255 -0.415741 0.424254 0.804467
0.233340 -1.750272 1.093550 128 128 255 -0.419306 0.407138 0.811431
0.249400 -1.722023 1.087291 128 128 255 -0.418662 0.415325 0.807606
0.265200 -1.690617 1.079315 128 128 255 -0.412501 0.408590 0.814185
0.280712 -1.656110 1.069637 128 128 255 -0.409011 0.397766 0.821275
0.295910 -1.616339 1.058274 128 128 255 -0.408486 0.405439 0.817777
0.310768 -1.575815 1.045248 128 128 255 -0.403827 0.413514 0.816046
0.325260 -1.532384 1.030583 128 128 255 -0.398757 0.421723 0.814335
0.339360 -1.488344 1.014304 128 128 255 -0.399299 0.419789 0.815069
0.355268 -1.439331 0.996572 128 128 255 -0.402526 0.407418 0.819746
0.368515 -1.385427 0.977434 128 128 255 -0.405335 0.397817 0.823071
0.381300 -1.331167 0.956776 128 128 255 -0.402368 0.407217 0.819924
0.393601 -1.274420 0.934633 128 128 255 -0.399151 0.416199 0.816980
0.405397 -1.217505 0.911043 128 128 255 -0.403885 0.409635 0.817971
0.416667 -1.156079 0.886044 128 128 255 -0.409903 0.399638 0.819920
0.427390 -1.090247 0.859681 128 128 255 -0.408151 0.403810 0.818749
0.437549 -1.024561 0.831998 128 128 255 -0.404458 0.417260 0.813823
0.447125 -0.959133 0.803042 128 128 255 -0.409347 0.405489 0.817321
0.456100 -0.887414 0.772863 128 128 255 -0.410640 0.402187 0.818303
0.464458 -0.816189 0.741512 128 128 255 -0.409555 0.412689 0.813604
0.472185 -0.745581 0.709044 128 128 255 -0.411089 0.408818 0.814785
0.477044 -0.671273 0.675515 128 128 255 -0.411963 0.398887 0.819253
0.483466 -0.593394 0.640981 128 128 255 -0.409531 0.407379 0.816289
0.489217 -0.518742 0.605503 128 128 255 -0.408917 0.412218 0.814164
0.494287 -0.440788 0.569142 128 128 255 -0.410108 0.402657 0.818339
0.498668 -0.359668 0.531959 128 128 255 -0.407382 0.404683 0.818701
0.502352 -0.279965 0.494020 128 128 255 -0.404924 0.412816 0.815855
0.505332 -0.201821 0.455388 128 128 255 -0.405802 0.408201 0.817739
0.507604 -0.118711 0.416129 128 128 255 -0.406439 0.403734 0.819638
0.509166 -0.037443 0.376311 128 128 255 -0.404775 0.413174 0.815748
0.510016 0.041841 0.336000 128 128 255 -0.405809 0.408694 0.817489
0.510154 0.125666 0.295265 128 128 255 -0.406674 0.404227 0.819278
0.509580 0.207225 0.254177 128 128 255 -0.404872 0.413669 0.815449
0.508297 0.286379 0.212810 128 128 255 -0.406119 0.409131 0.817116
0.506305 0.369653 0.171237 128 128 255 -0.407226 0.404473 0.818882
0.503607 0.450241 0.129534 128 128 255 -0.405206 0.413994 0.815118
0.500207 0.528004 0.087775 128 128 255 -0.406620 0.409299 0.816783
0.496108 0.609466 0.046035 128 128 255 -0.407931 0.404388 0.818574
0.491318 0.687821 0.004387 128 128 255 -0.408509 0.411882 0.814539
0.485844 0.762931 -0.037093 128 128 255 -0.409543 0.413310 0.813296
0.479695 0.839104 -0.078334 128 128 255 -0.410595 0.405872 0.816504
0.475111 0.916131 -0.119027 128 128 255 -0.411400 0.403340 0.817353
-0.175624 0.924427 -0.447270 128 128 255 -0.406556 0.404321 0.819290
-0.180630 0.846582 -0.411720 128 128 255 -0.410540 0.402101 0.818395
-0.185147 0.769649 -0.375279 128 128 255 -0.407677 0.415194 0.813274
-0.189169 0.693764 -0.338013 128 128 255 -0.407829 0.414853 0.813371
-0.192688 0.614619 -0.299986 128 128 255 -0.409499 0.405191 0.817392
-0.195697 0.532356 -0.261268 128 128 255 -0.408925 0.409880 0.815340
-0.198193 0.453782 -0.221928 128 128 255 -0.408272 0.414268 0.813447
-0.200171 0.372374 -0.182035 128 128 255 -0.410104 0.404829 0.817269
-0.201628 0.288275 -0.141664 128 128 255 -0.409501 0.409335 0.815325
-0.202563 0.208296 -0.100889 128 128 255 -0.408767 0.413629 0.813524
-0.202976 0.125913 -0.059785 128 128 255 -0.410738 0.404192 0.817266
-0.202869 0.041268 -0.018426 128 128 255 -0.410015 0.408567 0.815451
-0.202242 -0.038833 0.023114 128 128 255 -0.409066 0.412884 0.813752
-0.201095 -0.120917 0.064767 128 128 255 -0.411097 0.403411 0.817471
-0.199430 -0.204842 0.106463 128 128 255 -0.410215 0.407852 0.815709
-0.197248 -0.283799 0.148134 128 128 255 -0.409071 0.412342 0.814024
-0.194550 -0.364313 0.189707 128 128 255 -0.411280 0.402696 0.817731
-0.191341 -0.446241 0.231113 128 128 255 -0.412237 0.403810 0.816699
-0.187626 -0.524997 0.272279 128 128 255 -0.411854 0.409749 0.813930
-0.183411 -0.600442 0.313135 128 128 255 -0.410130 0.406916 0.816219
-0.178702 -0.679105 0.353610 128 128 255 -0.411541 0.401786 0.818048
-0.173509 -0.754184 0.393635 128 128 255 -0.405739 0.414370 0.814661
-0.167841 -0.825547 0.433140 128 128 255 -0.403798 0.411609 0.817022
-0.161708 -0.897510 0.472058 128 128 255 -0.404363 0.404773 0.820152
-0.155121 -0.969948 0.510321 128 128 255 -0.408376 0.403398 0.818840
-0.145871 -1.036072 0.547865 128 128 255 -0.406455 0.409222 0.816904
-0.138414 -1.102432 0.584624 128 128 255 -0.407183 0.401852 0.820193
-0.130541 -1.168913 0.620536 128 128 255 -0.407093 0.401486 0.820417
-0.122267 -1.230962 0.655539 128 128 255 -0.402709 0.414252 0.816223
-0.113606 -1.288474 0.689574 128 128 255 -0.402111 0.414850 0.816214
-0.104575 -1.345790 0.722584 128 128 255 -0.407487 0.402771 0.819592
-0.095188 -1.402814 0.754511 128 128 255 -0.407095 0.403042 0.819653
-0.085462 -1.455009 0.785382 128 128 255 -0.407058 0.407074 0.817676
-0.075414 -1.504508 0.815320 128 128 255 -0.409684 0.414619 0.812558
-0.065061 -1.549003 0.844016 128 128 255 -0.410870 0.417478 0.810493
-0.054422 -1.592861 0.871419 128 128 255 -0.415886 0.407287 0.813115
-0.043514 -1.633783 0.897479 128 128 255 -0.421799 0.396198 0.815544
-0.032357 -1.673922 0.922150 128 128 255 -0.417541 0.402809 0.814497
-0.023191 -1.708767 0.945389 128 128 255 -0.412152 0.415199 0.811012
-0.011593 -1.740480 0.967153 128 128 255 -0.424751 0.404682 0.809827
0.000196 -1.769007 0.987404 128 128 255 -0.429191 0.405316 0.807164
0.012156 -1.792074 1.006106 128 128 255 -0.415887 0.419107 0.807085
0.024266 -1.814082 1.023225 128 128 255 -0.416657 0.408773 0.811974
0.036505 -1.832770 1.038732 128 128 255 -0.424037 0.396493 0.814240
0.048852 -1.848106 1.052598 128 128 255 -0.470639 0.347301 0.811099
0.061285 -1.860062 1.064799 128 128 255 0.372689 -0.447433 -0.812962
0.073783 -1.868616 1.075315 128 128 255 0.394428 -0.427088 -0.813648
0.086325 -1.873755 1.084125 128 128 255 0.385024 -0.427743 -0.817798
0.100000 -1.875468 1.091216 128 128 255 0.375180 -0.425512 -0.823517
0.113675 -1.873752 1.096574 128 128 255 0.389187 -0.419825 -0.819927
0.126217 -1.868611 1.100191 128 128 255 0.407413 -0.419725 -0.811076
0.138715 -1.860052 1.102061 128 128 255 0.413609 -0.424280 -0.805552
0.151148 -1.848093 1.102181 128 128 255 -0.387545 0.398012 0.831502
0.163495 -1.832752 1.100552 128 128 255 -0.401260 0.410331 0.818913
0.175733 -1.814059 1.097177 128 128 255 -0.403613 0.411813 0.817011
0.187842 -1.792044 1.092062 128 128 255 -0.396734 0.427134 0.812501
0.199802 -1.768970 1.085219 128 128 255 -0.403236 0.423380 0.811265
0.211590 -1.740435 1.076659 128 128 255 -0.416176 0.414990 0.809061
0.223188 -1.708713 1.066399 128 128 255 -0.417561 0.405935 0.812933
0.232352 -1.673859 1.054459 128 128 255 -0.416120 0.395219 0.818930
0.243508 -1.633711 1.040859 128 128 255 -0.413813 0.402861 0.816371
0.254414 -1.592779 1.025625 128 128 255 -0.414644 0.411931 0.811408
0.265052 -1.548912 1.008785 128 128 255 -0.414431 0.420423 0.807150
0.275403 -1.504408 0.990370 128 128 255 -0.414472 0.418003 0.808385
0.285449 -1.454902 0.970571 128 128 255 -0.410179 0.410038 0.814630
0.295173 -1.402702 0.949444 128 128 255 -0.409932 0.395044 0.822129
0.304558 -1.345674 0.926844 128 128 255 -0.404472 0.402631 0.821152
0.313588 -1.288357 0.902811 128 128 255 -0.402311 0.413735 0.816682
0.322248 -1.230847 0.877385 128 128 255 -0.402464 0.413441 0.816756
0.330521 -1.168802 0.850608 128 128 255 -0.403223 0.401489 0.822325
0.338393 -1.102328 0.822527 128 128 255 -0.403064 0.401923 0.822191
0.345850 -1.035979 0.793190 128 128 255 -0.400332 0.417197 0.815893
0.355102 -0.969867 0.762645 128 128 255 -0.402183 0.413028 0.817103
0.361691 -0.897443 0.730946 128 128 255 -0.405849 0.400733 0.821401
0.367826 -0.825495 0.698147 128 128 255 -0.401862 0.413277 0.817134
0.373497 -0.754148 0.664303 128 128 255 -0.401872 0.413110 0.817214
0.378694 -0.679084 0.629475 128 128 255 -0.405762 0.401298 0.821168
0.383407 -0.600434 0.593720 128 128 255 -0.405023 0.406417 0.819013
0.387627 -0.525000 0.557101 128 128 255 -0.402554 0.414681 0.816082
0.391347 -0.446252 0.519681 128 128 255 -0.406650 0.403159 0.819816
0.394560 -0.364329 0.481525 128 128 255 -0.406629 0.403404 0.819706
0.397261 -0.283816 0.442697 128 128 255 -0.405042 0.412852 0.815778
0.399445 -0.204857 0.403266 128 128 255 -0.405799 0.408139 0.817771
0.401110 -0.120927 0.363296 128 128 255 -0.406611 0.403870 0.819486
0.402253 -0.038838 0.322855 128 128 255 -0.404892 0.413256 0.815648
0.402874 0.041267 0.282010 128 128 255 -0.405750 0.408726 0.817502
0.402974 0.125913 0.240828 128 128 255 -0.406754 0.404497 0.819105
0.402554 0.208293 0.199382 128 128 255 -0.404994 0.413877 0.815283
0.401614 0.288267 0.157746 128 128 255 -0.406063 0.409255 0.817082
0.400156 0.372360 0.115998 128 128 255 -0.407291 0.404788 0.818695
0.398179 0.453765 0.074213 128 128 255 -0.405375 0.414185 0.814937
0.395686 0.532339 0.032469 128 128 255 -0.406549 0.409394 0.816771
0.392680 0.614606 -0.009161 128 128 255 -0.407932 0.404693 0.818422
0.389166 0.693757 -0.050601 128 128 255 -0.405766 0.414371 0.814647
0.385149 0.769653 -0.091779 128 128 255 -0.404965 0.413027 0.815728
0.380636 0.846598 -0.132622 128 128 255 -0.405929 0.405592 0.818973
0.375640 0.924383 -0.172780 128 128 255 -0.409553 0.400688 0.819582
-0.073090 0.930149 -0.399952 128 128 255 -0.410515 0.410161 0.814399
-0.076266 0.853997 -0.363199 128 128 255 -0.411639 0.403585 0.817112
-0.079131 0.774304 -0.325640 128 128 255 -0.409193 0.411751 0.814262
-0.081682 0.697873 -0.287340 128 128 255 -0.407692 0.414990 0.813370
-0.083914 0.618176 -0.248369 128 128 255 -0.409484 0.405388 0.817302
-0.085822 0.535354 -0.208795 128 128 255 -0.408684 0.409913 0.815444
-0.087403 0.456217 -0.168689 128 128 255 -0.408113 0.414469 0.813424
-0.088656 0.374244 -0.128123 128 128 255 -0.410005 0.405101 0.817183
-0.089578 0.289578 -0.087171 128 128 255 -0.409240 0.409448 0.815399
-0.090169 0.209032 -0.045910 128 128 255 -0.408666 0.413867 0.813453
-0.090430 0.126084 -0.004422 128 128 255 -0.410681 0.404408 0.817187
-0.090362 0.040873 0.037213 128 128 255 -0.409812 0.408528 0.815572
-0.089966 -0.039795 0.078923 128 128 255 -0.408977 0.412942 0.813767
-0.089242 -0.122446 0.120645 128 128 255 -0.410908 0.403538 0.817504
-0.088188 -0.206938 0.162314 128 128 255 -0.409896 0.407789 0.815900
-0.086806 -0.286461 0.203859 128 128 255 -0.408935 0.412405 0.814060
-0.085095 -0.367536 0.245210 128 128 255 -0.411000 0.402862 0.817790
-0.083060 -0.450018 0.286297 128 128 255 -0.409921 0.407234 0.816165
-0.080703 -0.527100 0.327047 128 128 255 -0.411626 0.409844 0.813998
-0.078028 -0.605307 0.367391 128 128 255 -0.411944 0.403571 0.816965
-0.075040 -0.684500 0.407258 128 128 255 -0.411089 0.401898 0.818220
-0.071745 -0.760098 0.446581 128 128 255 -0.408638 0.411870 0.814480
-0.068148 -0.831970 0.485290 128 128 255 -0.409890 0.406805 0.816395
-0.064256 -0.906652 0.523320 128 128 255 -0.408089 0.403695 0.818837
-0.060075 -0.977351 0.560605 128 128 255 -0.407437 0.410403 0.815821
-0.055615 -1.043945 0.597081 128 128 255 -0.411631 0.409454 0.814191
-0.050883 -1.110761 0.632687 128 128 255 -0.415669 0.399341 0.817157
-0.045887 -1.177684 0.667361 128 128 255 -0.415899 0.398798 0.817306
-0.040636 -1.240160 0.701044 128 128 255 -0.412544 0.410963 0.812968
-0.035140 -1.298082 0.733680 128 128 255 -0.412436 0.411289 0.812858
-0.029409 -1.355794 0.765213 128 128 255 -0.413387 0.402673 0.816679
-0.025674 -1.413196 0.795589 128 128 255 -0.413482 0.402757 0.816590
-0.019502 -1.465751 0.824850 128 128 255 -0.414080 0.406909 0.814226
-0.013126 -1.515592 0.853152 128 128 255 -0.411374 0.416930 0.810519
-0.006557 -1.560411 0.880146 128 128 255 -0.411442 0.417534 0.810173
0.000194 -1.604574 0.905783 128 128 255 -0.414143 0.405774 0.814760
0.007115 -1.645780 0.930018 128 128 255 -0.413877 0.402753 0.816392
0.014195 -1.686183 0.952806 128 128 255 -0.422158 0.395775 0.815564
0.021421 -1.721271 0.974107 128 128 255 -0.410851 0.413181 0.812701
0.028781 -1.753206 0.993883 128 128 255 -0.404337 0.423757 0.810519
0.036262 -1.779709 1.012098 128 128 255 -0.414090 0.416522 0.809345
0.043851 -1.805176 1.028719 128 128 255 -0.413345 0.412642 0.811710
0.051536 -1.827338 1.043718 128 128 255 -0.413481 0.407332 0.814318
0.059302 -1.846158 1.057066 128 128 255 -0.416024 0.405098 0.814137
0.067137 -1.861601 1.068740 128 128 255 -0.421345 0.400099 0.813873
0.075027 -1.873641 1.078719 128 128 255 -0.441510 0.379775 0.812921
0.082958 -1.882256 1.086985 128 128 255 0.337737 -0.480398 -0.809414
0.090916 -1.887431 1.093525 128 128 255 0.366818 -0.442942 -0.818075
0.100000 -1.889156 1.098326 128 128 255 0.358823 -0.432573 -0.827120
0.109084 -1.887429 1.101381 128 128 255 0.377778 -0.421728 -0.824275
0.117042 -1.882253 1.102684 128 128 255 0.420380 -0.434330 -0.796642
0.124973 -1.873636 1.102233 128 128 255 -0.394476 0.408071 0.823327
0.132863 -1.861593 1.100030 128 128 255 -0.400836 0.412480 0.818041
0.140698 -1.846147 1.096080 128 128 255 -0.402859 0.413188 0.816689
0.148464 -1.827324 1.090389 128 128 255 -0.404013 0.413307 0.816058
0.156148 -1.805158 1.082970 128 128 255 -0.404816 0.413246 0.815691
0.163737 -1.779687 1.073835 128 128 255 -0.399412 0.432520 0.808329
0.171218 -1.753178 1.063003 128 128 255 -0.403370 0.420905 0.812485
0.178577 -1.721238 1.050493 128 128 255 -0.406368 0.412781 0.815154
0.185803 -1.686144 1.036329 128 128 255 -0.414522 0.402378 0.816249
0.192882 -1.645735 1.020536 128 128 255 -0.419120 0.399964 0.815087
0.199803 -1.604522 1.003144 128 128 255 -0.413909 0.412134 0.811680
0.206553 -1.560353 0.984184 128 128 255 -0.413110 0.420502 0.807786
0.213122 -1.515528 0.963692 128 128 255 -0.413254 0.417818 0.809104
0.219497 -1.465682 0.941887 128 128 255 -0.413609 0.407411 0.814214
0.225668 -1.413123 0.918832 128 128 255 -0.416184 0.394279 0.819350
0.229402 -1.355719 0.894358 128 128 255 -0.415489 0.395133 0.819292
0.235133 -1.298007 0.868507 128 128 255 -0.411673 0.412649 0.812555
0.240628 -1.240086 0.841321 128 128 255 -0.411484 0.412330 0.812813
0.245878 -1.177613 0.812847 128 128 255 -0.412527 0.400464 0.818200
0.250874 -1.110695 0.783132 128 128 255 -0.412060 0.400858 0.818242
0.255607 -1.043885 0.752229 128 128 255 -0.410325 0.412130 0.813500
0.260068 -0.977299 0.720188 128 128 255 -0.407291 0.414086 0.814031
0.264249 -0.906609 0.687065 128 128 255 -0.410287 0.399936 0.819583
0.268142 -0.831938 0.652916 128 128 255 -0.407561 0.408841 0.816543
0.271741 -0.760077 0.617801 128 128 255 -0.405815 0.412397 0.815624
0.275038 -0.684488 0.581779 128 128 255 -0.407267 0.402552 0.819808
0.278028 -0.605304 0.544912 128 128 255 -0.407081 0.402736 0.819810
0.280705 -0.527105 0.507264 128 128 255 -0.402777 0.414480 0.816074
0.283064 -0.450029 0.468901 128 128 255 -0.405408 0.406330 0.818865
0.285101 -0.367549 0.429888 128 128 255 -0.406964 0.403213 0.819634
0.286813 -0.286476 0.390293 128 128 255 -0.405274 0.412632 0.815774
0.288197 -0.206952 0.350184 128 128 255 -0.406212 0.408125 0.817573
0.289251 -0.122456 0.309629 128 128 255 -0.406894 0.403740 0.819409
0.289974 -0.039800 0.268696 128 128 255 -0.405098 0.413104 0.815623
0.290366 0.040872 0.227449 128 128 255 -0.406037 0.408853 0.817296
0.290428 0.126083 0.185950 128 128 255 -0.406862 0.404614 0.818994
0.290163 0.209029 0.144271 128 128 255 -0.405139 0.413981 0.815158
0.289570 0.289570 0.102492 128 128 255 -0.406326 0.409568 0.816795
0.288647 0.374231 0.060695 128 128 255 -0.407360 0.404984 0.818563
0.287396 0.456203 0.018959 128 128 255 -0.405514 0.414304 0.814807
0.285816 0.535339 -0.022640 128 128 255 -0.406745 0.409734 0.816503
0.283909 0.618163 -0.064028 128 128 255 -0.407875 0.404938 0.818330
0.281680 0.697865 -0.105131 128 128 255 -0.405849 0.414531 0.814525
0.279131 0.774304 -0.145876 128 128 255 -0.407169 0.409827 0.816245
0.276267 0.854005 -0.186192 128 128 255 -0.405864 0.405782 0.818911
0.273097 0.930091 -0.225693 128 128 255 -0.403657 0.405165 0.820306
0.025542 0.933307 -0.351090 128 128 255 -0.405392 0.411310 0.816383
0.024205 0.856862 -0.313251 128 128 255 -0.408829 0.405826 0.817413
0.022999 0.776871 -0.274693 128 128 255 -0.408078 0.410721 0.815340
0.021925 0.700137 -0.235482 128 128 255 -0.407288 0.415229 0.813450
0.020986 0.620134 -0.195690 128 128 255 -0.409222 0.405633 0.817312
0.020183 0.537003 -0.155386 128 128 255 -0.408507 0.410296 0.815340
0.019518 0.457556 -0.114643 128 128 255 -0.407707 0.414703 0.813508
0.018991 0.375271 -0.073531 128 128 255 -0.409653 0.405369 0.817228
0.018604 0.290293 -0.032126 128 128 255 -0.408985 0.409870 0.815314
0.018357 0.209435 0.009498 128 128 255 -0.408226 0.414162 0.813524
0.018248 0.126176 0.051253 128 128 255 -0.410302 0.404592 0.817287
0.018276 0.040657 0.093029 128 128 255 -0.409615 0.408672 0.815599
0.018441 -0.040323 0.134769 128 128 255 -0.408633 0.412868 0.813977
0.018744 -0.123289 0.176427 128 128 255 -0.410503 0.403507 0.817722
0.019186 -0.208096 0.217938 128 128 255 -0.409690 0.407872 0.815962
0.019768 -0.287931 0.259231 128 128 255 -0.408634 0.412307 0.814261
0.020488 -0.369315 0.300235 128 128 255 -0.410590 0.402815 0.818019
0.021344 -0.452104 0.340877 128 128 255 -0.409765 0.407284 0.816218
0.022337 -0.529488 0.381087 128 128 255 -0.408620 0.411936 0.814456
0.023463 -0.607991 0.420796 128 128 255 -0.410685 0.402126 0.818310
0.024721 -0.687475 0.459935 128 128 255 -0.410816 0.401890 0.818361
0.026109 -0.763359 0.498435 128 128 255 -0.408656 0.411735 0.814540
0.027624 -0.835509 0.536231 128 128 255 -0.409586 0.406521 0.816688
0.029263 -0.910463 0.573258 128 128 255 -0.410908 0.401138 0.818684
0.031023 -0.981428 0.609452 128 128 255 -0.408514 0.411699 0.814629
0.032901 -1.048280 0.644751 128 128 255 -0.408277 0.411770 0.814712
0.034894 -1.115347 0.679096 128 128 255 -0.410797 0.400316 0.819142
0.036997 -1.182513 0.712428 128 128 255 -0.410986 0.399923 0.819239
0.039208 -1.245224 0.744690 128 128 255 -0.408123 0.411907 0.814720
0.041522 -1.303373 0.775828 128 128 255 -0.407729 0.412112 0.814814
0.043935 -1.361302 0.805790 128 128 255 -0.410744 0.398820 0.819898
0.046443 -1.418913 0.834525 128 128 255 -0.406715 0.402175 0.820267
0.049042 -1.471668 0.862087 128 128 255 -0.402755 0.410184 0.818253
0.051726 -1.521698 0.888663 128 128 255 -0.400131 0.420467 0.814311
0.054492 -1.566697 0.913868 128 128 255 -0.399468 0.421400 0.814155
0.057334 -1.611028 0.937658 128 128 255 -0.403819 0.404033 0.820785
0.060249 -1.654615 0.959989 128 128 255 -0.398475 0.407652 0.821606
0.063230 -1.692942 0.980822 128 128 255 -0.399787 0.410127 0.819735
0.066272 -1.728165 1.000118 128 128 255 -0.400969 0.412938 0.817745
0.069371 -1.760223 1.017842 128 128 255 -0.397098 0.425844 0.813001
0.072520 -1.786837 1.033963 128 128 255 -0.394751 0.428578 0.812707
0.075716 -1.812402 1.048451 128 128 255 -0.399339 0.413065 0.818477
0.078951 -1.834650 1.061280 128 128 255 -0.398368 0.413116 0.818925
0.082221 -1.853542 1.072427 128 128 255 -0.396967 0.413193 0.819567
0.085520 -1.869046 1.081871 128 128 255 -0.394795 0.413341 0.820540
0.088842 -1.881132 1.089596 128 128 255 -0.390973 0.413720 0.822177
0.092181 -1.889781 1.095588 128 128 255 -0.381944 0.415127 0.825705
0.095532 -1.894976 1.099836 128 128 255 -0.574418 -0.797191 0.185824
0.100000 -1.896708 1.102333 128 128 255 0.325327 -0.468777 -0.821225
0.104468 -1.894975 1.103075 128 128 255 0.869749 -0.313101 0.381451
0.107819 -1.889779 1.102060 128 128 255 -0.343559 0.412302 0.843785
0.111158 -1.881130 1.099291 128 128 255 -0.369773 0.416442 0.830569
0.114480 -1.869043 1.094773 128 128 255 -0.380246 0.416755 0.825668
0.117779 -1.853538 1.088514 128 128 255 -0.386127 0.416468 0.823080
0.121049 -1.834644 1.080528 128 128 255 -0.389967 0.416065 0.821472
0.124284 -1.812395 1.070828 128 128 255 -0.392702 0.415658 0.820374
0.127479 -1.786828 1.059433 128 128 255 -0.393055 0.430436 0.812547
0.130629 -1.760211 1.046363 128 128 255 -0.395405 0.427063 0.813186
0.133728 -1.728151 1.031644 128 128 255 -0.397697 0.414579 0.818512
0.136770 -1.692926 1.015302 128 128 255 -0.398786 0.414258 0.818144
0.139751 -1.654596 0.997367 128 128 255 -0.405786 0.401079 0.821263
0.142665 -1.611006 0.977873 128 128 255 -0.403295 0.407776 0.819190
0.145507 -1.566673 0.956855 128 128 255 -0.399851 0.422006 0.813652
0.148273 -1.521671 0.934350 128 128 255 -0.400931 0.419220 0.814561
0.150957 -1.471639 0.910608 128 128 255 -0.402737 0.408490 0.819109
0.153556 -1.418883 0.885694 128 128 255 -0.404107 0.400154 0.822541
0.156064 -1.361271 0.859418 128 128 255 -0.407489 0.398278 0.821783
0.158477 -1.303341 0.831825 128 128 255 -0.406639 0.413259 0.814777
0.160791 -1.245193 0.802961 128 128 255 -0.406549 0.412810 0.815049
0.163001 -1.182483 0.772874 128 128 255 -0.408353 0.400938 0.820059
0.165105 -1.115319 0.741616 128 128 255 -0.408153 0.401439 0.819913
0.167098 -1.048255 0.709239 128 128 255 -0.406121 0.412724 0.815306
0.168976 -0.981406 0.675799 128 128 255 -0.406039 0.412455 0.815484
0.170736 -0.910446 0.641352 128 128 255 -0.407773 0.401941 0.819856
0.172375 -0.835496 0.605957 128 128 255 -0.406758 0.407430 0.817648
0.173890 -0.763350 0.569676 128 128 255 -0.405769 0.412352 0.815670
0.175278 -0.687470 0.532570 128 128 255 -0.407489 0.402516 0.819716
0.176537 -0.607990 0.494703 128 128 255 -0.407427 0.402806 0.819604
0.177664 -0.529491 0.456141 128 128 255 -0.405611 0.412504 0.815671
0.178656 -0.452110 0.416951 128 128 255 -0.406462 0.407635 0.817693
0.179514 -0.369322 0.377200 128 128 255 -0.407328 0.403282 0.819419
0.180234 -0.287939 0.336958 128 128 255 -0.405555 0.412679 0.815611
0.180816 -0.208103 0.296295 128 128 255 -0.406412 0.408024 0.817524
0.181258 -0.123295 0.255282 128 128 255 -0.407317 0.403763 0.819188
0.181562 -0.040327 0.213988 128 128 255 -0.405510 0.413061 0.815440
0.181725 0.040656 0.172478 128 128 255 -0.406284 0.408728 0.817236
0.181751 0.126176 0.130797 128 128 255 -0.407187 0.404807 0.818737
0.181641 0.209432 0.089002 128 128 255 -0.405460 0.414195 0.814890
0.181394 0.290288 0.047204 128 128 255 -0.406451 0.409630 0.816701
0.181007 0.375264 0.005490 128 128 255 -0.407578 0.405177 0.818359
0.180480 0.457549 -0.036065 128 128 255 -0.405792 0.414431 0.814604
0.179816 0.536996 -0.077386 128 128 255 -0.406780 0.409737 0.816484
0.179013 0.620128 -0.118401 128 128 255 -0.407979 0.405117 0.818189
0.178075 0.700133 -0.159035 128 128 255 -0.406099 0.414643 0.814343
0.177001 0.776870 -0.199219 128 128 255 -0.407136 0.409824 0.816263
0.175795 0.856865 -0.238880 128 128 255 -0.408728 0.403574 0.818578
0.174460 0.933238 -0.277601 128 128 255 -0.410409 0.406606 0.816233
0.128846 0.933892 -0.300835 128 128 255 -0.410218 0.410372 0.814442
0.129352 0.857392 -0.262032 128 128 255 -0.408898 0.405906 0.817339
0.129808 0.777343 -0.222597 128 128 255 -0.407860 0.410664 0.815479
0.130214 0.700552 -0.182601 128 128 255 -0.407108 0.415379 0.813463
0.130568 0.620491 -0.142116 128 128 255 -0.409163 0.405774 0.817272
0.130872 0.537303 -0.101212 128 128 255 -0.408205 0.410304 0.815487
0.131123 0.457798 -0.059963 128 128 255 -0.407456 0.414902 0.813533
0.131322 0.375456 -0.018442 128 128 255 -0.409421 0.405575 0.817241
0.131468 0.290421 0.023278 128 128 255 -0.408495 0.409957 0.815516
0.131562 0.209507 0.065124 128 128 255 -0.407695 0.414468 0.813634
0.131603 0.126193 0.107014 128 128 255 -0.409664 0.404930 0.817439
0.131593 0.040617 0.148799 128 128 255 -0.408920 0.408722 0.815923
0.131531 -0.040422 0.190446 128 128 255 -0.408187 0.413007 0.814131
0.131417 -0.123448 0.231921 128 128 255 -0.410061 0.403670 0.817863
0.131250 -0.208314 0.273154 128 128 255 -0.409179 0.407877 0.816216
0.131030 -0.288206 0.314072 128 128 255 -0.408338 0.412465 0.814330
0.130757 -0.369647 0.354604 128 128 255 -0.410197 0.403005 0.818123
0.130433 -0.452492 0.394680 128 128 255 -0.409302 0.407303 0.816441
0.130058 -0.529929 0.434229 128 128 255 -0.408403 0.412109 0.814477
0.129632 -0.608485 0.473182 128 128 255 -0.410285 0.402351 0.818401
0.129156 -0.688021 0.511473 128 128 255 -0.410302 0.402009 0.818560
0.128631 -0.763955 0.549035 128 128 255 -0.408395 0.411798 0.814639
0.128059 -0.836154 0.585803 128 128 255 -0.408367 0.405321 0.817894
0.127439 -0.911156 0.621715 128 128 255 -0.406470 0.401990 0.820479
0.126773 -0.982167 0.656709 128 128 255 -0.404351 0.412492 0.816303
0.126063 -1.049065 0.690725 128 128 255 -0.404124 0.412691 0.816315
0.125309 -1.116176 0.723706 128 128 255 -0.406045 0.401354 0.821001
0.124514 -1.183386 0.755596 128 128 255 -0.405950 0.400872 0.821283
0.123678 -1.246140 0.786340 128 128 255 -0.403516 0.412757 0.816582
0.122803 -1.304330 0.815888 128 128 255 -0.403105 0.413136 0.816594
0.121891 -1.362299 0.844189 128 128 255 -0.405147 0.400046 0.822082
0.120942 -1.419949 0.871197 128 128 255 -0.404865 0.400041 0.822223
0.119960 -1.472742 0.896978 128 128 255 -0.402733 0.410092 0.818309
0.118945 -1.522808 0.921741 128 128 255 -0.400742 0.420355 0.814068
0.117899 -1.567842 0.945078 128 128 255 -0.400277 0.421437 0.813738
0.116824 -1.612205 0.966944 128 128 255 -0.403076 0.404459 0.820940
0.115722 -1.655823 0.987300 128 128 255 -0.403196 0.403338 0.821432
0.114595 -1.694178 1.006110 128 128 255 -0.401146 0.413049 0.817602
0.113445 -1.729428 1.023338 128 128 255 -0.400756 0.413124 0.817755
0.112273 -1.761509 1.038954 128 128 255 -0.398448 0.425363 0.812592
0.111082 -1.788145 1.052928 128 128 255 -0.396883 0.428399 0.811763
0.109874 -1.813729 1.065236 128 128 255 -0.398731 0.413344 0.818633
0.108650 -1.835994 1.075854 128 128 255 -0.397514 0.413449 0.819172
0.107414 -1.854901 1.084764 128 128 255 -0.395732 0.413616 0.819950
0.106166 -1.870416 1.091949 128 128 255 -0.392929 0.413916 0.821146
0.104910 -1.882511 1.097395 128 128 255 -0.387965 0.414583 0.823167
0.103648 -1.891167 1.101093 128 128 255 -0.376962 0.416564 0.827269
0.102380 -1.896366 1.103036 128 128 255 -0.352922 0.466090 0.811299
0.100000 -1.898100 1.103221 128 128 255 0.315858 -0.416444 -0.852531
0.097620 -1.896366 1.101647 128 128 255 -0.321889 0.437921 0.839412
0.096352 -1.891167 1.098318 128 128 255 -0.354805 0.429566 0.830413
0.095090 -1.882512 1.093240 128 128 255 -0.372490 0.423758 0.825639
0.093834 -1.870417 1.086422 128 128 255 -0.381237 0.420927 0.823091
0.092586 -1.854902 1.077876 128 128 255 -0.386537 0.419210 0.821494
0.091350 -1.835996 1.067620 128 128 255 -0.390122 0.418032 0.820399
0.090126 -1.813732 1.055671 128 128 255 -0.392725 0.417154 0.819603
0.088918 -1.788149 1.042052 128 128 255 -0.390491 0.431687 0.813119
0.087727 -1.761514 1.026789 128 128 255 -0.393664 0.428503 0.813273
0.086555 -1.729433 1.009908 128 128 255 -0.397558 0.415396 0.818165
0.085405 -1.694185 0.991442 128 128 255 -0.398619 0.414956 0.817872
0.084278 -1.655830 0.971423 128 128 255 -0.401876 0.404905 0.821308
0.083176 -1.612213 0.949890 128 128 255 -0.402009 0.405574 0.820913
0.082101 -1.567851 0.926880 128 128 255 -0.398849 0.422505 0.813885
0.081055 -1.522818 0.902437 128 128 255 -0.400294 0.419695 0.814630
0.080040 -1.472753 0.876830 128 128 255 -0.402906 0.408463 0.819039
0.079058 -1.419961 0.850130 128 128 255 -0.404888 0.399946 0.822258
0.078109 -1.362311 0.822131 128 128 255 -0.404611 0.400533 0.822109
0.077197 -1.304342 0.792878 128 128 255 -0.401873 0.413703 0.816914
0.076322 -1.246151 0.762422 128 128 255 -0.402125 0.413404 0.816941
0.075486 -1.183398 0.730812 128 128 255 -0.404635 0.401424 0.821663
0.074690 -1.116187 0.698104 128 128 255 -0.404435 0.401809 0.821573
0.073937 -1.049075 0.664351 128 128 255 -0.402089 0.413184 0.817070
0.073227 -0.982175 0.629612 128 128 255 -0.402237 0.413035 0.817073
0.072561 -0.911162 0.593945 128 128 255 -0.405363 0.403939 0.820070
0.071941 -0.836159 0.557411 128 128 255 -0.407005 0.406983 0.817748
0.071369 -0.763958 0.520074 128 128 255 -0.406050 0.412158 0.815628
0.070844 -0.688022 0.481996 128 128 255 -0.408013 0.402315 0.819554
0.070368 -0.608485 0.443245 128 128 255 -0.407834 0.402525 0.819540
0.069942 -0.529928 0.403885 128 128 255 -0.405832 0.412283 0.815673
0.069567 -0.452490 0.363987 128 128 255 -0.406923 0.407602 0.817480
0.069243 -0.369645 0.323619 128 128 255 -0.407715 0.403105 0.819313
0.068971 -0.288203 0.282851 128 128 255 -0.405845 0.412542 0.815536
0.068751 -0.208311 0.241755 128 128 255 -0.406917 0.408063 0.817254
0.068583 -0.123446 0.200402 128 128 255 -0.407760 0.403654 0.819021
0.068469 -0.040421 0.158866 128 128 255 -0.405998 0.412939 0.815259
0.068407 0.040618 0.117216 128 128 255 -0.407038 0.408716 0.816867
0.068397 0.126193 0.075485 128 128 255 -0.407762 0.404698 0.818504
0.068438 0.209508 0.033707 128 128 255 -0.405865 0.414211 0.814680
0.068531 0.290423 -0.007968 128 128 255 -0.406864 0.409814 0.816403
0.068677 0.375458 -0.049461 128 128 255 -0.407739 0.405235 0.818250
0.068877 0.457801 -0.090698 128 128 255 -0.405971 0.414492 0.814484
0.069128 0.537306 -0.131607 128 128 255 -0.407002 0.410004 0.816239
0.069431 0.620493 -0.172115 128 128 255 -0.407953 0.405270 0.818126
0.069786 0.700554 -0.212151 128 128 255 -0.406188 0.414790 0.814224
0.070192 0.777344 -0.251643 128 128 255 -0.407257 0.410198 0.816014
0.070648 0.857391 -0.290522 128 128 255 -0.408544 0.403748 0.818584
0.071153 0.933814 -0.328345 128 128 255 -0.405467 0.407685 0.818162
0.227622 0.931905 -0.249343 128 128 255 -0.410096 0.410495 0.814442
0.229967 0.855585 -0.209698 128 128 255 -0.412511 0.405201 0.815871
0.232083 0.775721 -0.169513 128 128 255 -0.411415 0.410126 0.813962
0.233967 0.699117 -0.128861 128 128 255 -0.410365 0.414769 0.812138
0.235614 0.619248 -0.087812 128 128 255 -0.412529 0.405128 0.815899
0.237023 0.536254 -0.046442 128 128 255 -0.411561 0.409794 0.814056
0.238190 0.456945 -0.004822 128 128 255 -0.410569 0.414304 0.812272
0.239114 0.374801 0.036971 128 128 255 -0.411713 0.403639 0.817048
0.239795 0.289966 0.078862 128 128 255 -0.408233 0.410150 0.815551
0.240231 0.209252 0.120773 128 128 255 -0.407219 0.414461 0.813876
0.240426 0.126135 0.162616 128 128 255 -0.409071 0.405005 0.817699
0.240380 0.040752 0.204303 128 128 255 -0.408397 0.409063 0.816014
0.240092 -0.040092 0.245767 128 128 255 -0.407601 0.413178 0.814338
0.239558 -0.122920 0.286948 128 128 255 -0.410401 0.405056 0.817007
0.238780 -0.207588 0.327785 128 128 255 -0.412332 0.407375 0.814879
0.237758 -0.287284 0.368208 128 128 255 -0.411478 0.411829 0.813070
0.236494 -0.368529 0.408148 128 128 255 -0.413300 0.402356 0.816880
0.234989 -0.451178 0.447536 128 128 255 -0.412656 0.406736 0.815034
0.233246 -0.528423 0.486304 128 128 255 -0.411777 0.411406 0.813133
0.231268 -0.606788 0.524384 128 128 255 -0.413556 0.401647 0.817099
0.229059 -0.686135 0.561712 128 128 255 -0.413733 0.401361 0.817150
0.226623 -0.761884 0.598222 128 128 255 -0.412156 0.411104 0.813093
0.223964 -0.833902 0.633852 128 128 255 -0.414821 0.402366 0.816104
0.223309 -0.908726 0.668540 128 128 255 -0.415869 0.396858 0.818265
0.220219 -0.979565 0.702229 128 128 255 -0.412357 0.411058 0.813015
0.216923 -1.046296 0.734860 128 128 255 -0.412381 0.411232 0.812915
0.213425 -1.113246 0.766378 128 128 255 -0.414140 0.399919 0.817651
0.209733 -1.180300 0.796730 128 128 255 -0.414319 0.399386 0.817820
0.205853 -1.242904 0.825866 128 128 255 -0.412762 0.411151 0.812762
0.201792 -1.300950 0.853735 128 128 255 -0.412755 0.411495 0.812592
0.197558 -1.358782 0.880292 128 128 255 -0.414517 0.398441 0.818181
0.193156 -1.416301 0.905492 128 128 255 -0.414706 0.398401 0.818105
0.188596 -1.468969 0.929414 128 128 255 -0.413710 0.408530 0.813601
0.183885 -1.518919 0.952286 128 128 255 -0.413046 0.418870 0.808666
0.179030 -1.563841 0.973677 128 128 255 -0.413365 0.419977 0.807928
0.174042 -1.608101 0.993549 128 128 255 -0.415381 0.402936 0.815537
0.168928 -1.651622 1.011865 128 128 255 -0.414102 0.399214 0.818014
0.163696 -1.689888 1.028590 128 128 255 -0.408897 0.411847 0.814362
0.158357 -1.725054 1.043695 128 128 255 -0.409200 0.411833 0.814217
0.152918 -1.757061 1.057151 128 128 255 -0.406441 0.419826 0.811512
0.147390 -1.783629 1.068934 128 128 255 -0.402585 0.431226 0.807447
0.141782 -1.809153 1.079021 128 128 255 -0.410528 0.411682 0.813625
0.136104 -1.831366 1.087394 128 128 255 -0.411230 0.411616 0.813303
0.130365 -1.850228 1.094037 128 128 255 -0.412207 0.411597 0.812818
0.124575 -1.865707 1.098938 128 128 255 -0.413731 0.411779 0.811951
0.118745 -1.877774 1.102088 128 128 255 -0.416826 0.412919 0.809786
0.112884 -1.886409 1.103480 128 128 255 -0.436034 0.428148 0.791557
0.107003 -1.891596 1.103112 128 128 255 0.363309 -0.389251 -0.846458
0.100000 -1.893327 1.100984 128 128 255 0.362215 -0.406511 -0.838779
0.092997 -1.891597 1.097100 128 128 255 0.394576 -0.404626 -0.824977
0.087116 -1.886411 1.091468 128 128 255 -0.315973 0.494394 0.809775
0.081255 -1.877778 1.084097 128 128 255 -0.388007 0.429633 0.815393
0.075425 -1.865712 1.075001 128 128 255 -0.396502 0.421883 0.815353
0.069635 -1.850236 1.064196 128 128 255 -0.399917 0.418881 0.815233
0.063896 -1.831376 1.051703 128 128 255 -0.401814 0.417265 0.815129
0.058218 -1.809167 1.037545 128 128 255 -0.404839 0.420383 0.812024
0.052610 -1.783646 1.021747 128 128 255 -0.407704 0.422821 0.809320
0.047081 -1.757081 1.004338 128 128 255 -0.399814 0.428257 0.810398
0.041643 -1.725079 0.985351 128 128 255 -0.405151 0.414449 0.814914
0.036303 -1.689916 0.964820 128 128 255 -0.404168 0.411316 0.816987
0.031071 -1.651655 0.942783 128 128 255 -0.404452 0.411126 0.816942
0.025956 -1.608139 0.919280 128 128 255 -0.415994 0.402053 0.815661
0.020968 -1.563884 0.894354 128 128 255 -0.410270 0.419761 0.809617
0.016113 -1.518966 0.868050 128 128 255 -0.411243 0.416993 0.810553
0.011401 -1.469020 0.840657 128 128 255 -0.414208 0.405486 0.814870
0.006841 -1.416355 0.812251 128 128 255 -0.416248 0.396900 0.818051
0.002439 -1.358838 0.782611 128 128 255 -0.415424 0.397685 0.818089
-0.001796 -1.301006 0.751785 128 128 255 -0.411440 0.411215 0.813400
-0.005858 -1.242959 0.719827 128 128 255 -0.411343 0.411046 0.813534
-0.009738 -1.180353 0.686790 128 128 255 -0.414151 0.399039 0.818076
-0.013430 -1.113295 0.652728 128 128 255 -0.413628 0.399539 0.818096
-0.016927 -1.046341 0.617701 128 128 255 -0.410514 0.411130 0.813911
-0.020223 -0.979604 0.581767 128 128 255 -0.410444 0.411071 0.813976
-0.023313 -0.908758 0.544988 128 128 255 -0.410590 0.404376 0.817249
-0.023967 -0.833925 0.507426 128 128 255 -0.409119 0.409834 0.815265
-0.026625 -0.761899 0.469145 128 128 255 -0.409943 0.411239 0.814143
-0.029060 -0.686143 0.430212 128 128 255 -0.412117 0.401366 0.817964
-0.031268 -0.606789 0.390692 128 128 255 -0.411961 0.401693 0.817882
-0.033245 -0.528418 0.350655 128 128 255 -0.409704 0.411542 0.814111
-0.034987 -0.451170 0.310170 128 128 255 -0.410724 0.406757 0.815999
-0.036491 -0.368518 0.269306 128 128 255 -0.411687 0.402381 0.817682
-0.037754 -0.287272 0.228134 128 128 255 -0.409666 0.411887 0.813955
-0.038775 -0.207577 0.186726 128 128 255 -0.409795 0.405996 0.816845
-0.039553 -0.122911 0.145153 128 128 255 -0.408205 0.403771 0.818742
-0.040086 -0.040086 0.103485 128 128 255 -0.406400 0.413126 0.814964
-0.040377 0.040753 0.061785 128 128 255 -0.407350 0.408699 0.816719
-0.040428 0.126135 0.020111 128 128 255 -0.408334 0.404607 0.818264
-0.040236 0.209255 -0.021467 128 128 255 -0.406412 0.414086 0.814470
-0.039800 0.289974 -0.062863 128 128 255 -0.407997 0.410935 0.815273
-0.039119 0.374812 -0.103991 128 128 255 -0.411496 0.404561 0.816702
-0.038194 0.456957 -0.144773 128 128 255 -0.409771 0.413855 0.812903
-0.037026 0.536265 -0.185135 128 128 255 -0.410631 0.409292 0.814777
-0.035617 0.619258 -0.225006 128 128 255 -0.411656 0.404690 0.816557
-0.033968 0.699124 -0.264313 128 128 255 -0.410053 0.414216 0.812577
-0.032084 0.775722 -0.302988 128 128 255 -0.410942 0.409531 0.814501
-0.029966 0.855579 -0.340961 128 128 255 -0.412298 0.403112 0.817014
-0.027622 0.931816 -0.377769 128 128 255 -0.412989 0.406193 0.815136
0.328222 0.927350 -0.196771 128 128 255 -0.400763 0.409747 0.819449
0.332400 0.851447 -0.156412 128 128 255 -0.402122 0.409319 0.818997
0.336170 0.772009 -0.115606 128 128 255 -0.403933 0.411946 0.816786
0.339525 0.695839 -0.074427 128 128 255 -0.402877 0.416604 0.814942
0.342461 0.616408 -0.032947 128 128 255 -0.405263 0.406792 0.818708
0.344971 0.533859 0.008758 128 128 255 -0.404296 0.411447 0.816858
0.347052 0.455000 0.050613 128 128 255 -0.403290 0.415956 0.815069
0.348702 0.373308 0.092544 128 128 255 -0.407200 0.403147 0.819549
0.352141 0.288927 0.134471 128 128 255 -0.406246 0.407547 0.817844
0.352924 0.208666 0.176318 128 128 255 -0.403521 0.415238 0.815321
0.353275 0.126000 0.218005 128 128 255 -0.405427 0.405719 0.819159
0.353192 0.041066 0.259453 128 128 255 -0.404603 0.409809 0.817528
0.352674 -0.039326 0.300590 128 128 255 -0.403843 0.414122 0.815729
0.351721 -0.121703 0.341351 128 128 255 -0.404012 0.407784 0.818832
0.348109 -0.205919 0.381667 128 128 255 -0.403331 0.412021 0.817045
0.346286 -0.285164 0.421473 128 128 255 -0.404210 0.413243 0.815993
0.344031 -0.365961 0.460700 128 128 255 -0.405864 0.403678 0.819950
0.341348 -0.448166 0.499281 128 128 255 -0.404310 0.406651 0.819249
0.338241 -0.524971 0.537151 128 128 255 -0.401738 0.414712 0.816468
0.334716 -0.602902 0.574243 128 128 255 -0.405860 0.402879 0.820345
0.330780 -0.681822 0.610494 128 128 255 -0.405923 0.402559 0.820471
0.326438 -0.757152 0.645842 128 128 255 -0.404483 0.412321 0.816324
0.321701 -0.828759 0.680226 128 128 255 -0.406039 0.408716 0.817364
0.316575 -0.903183 0.713587 128 128 255 -0.411268 0.397574 0.820240
0.311071 -0.973632 0.745869 128 128 255 -0.408399 0.411583 0.814745
0.305199 -1.039984 0.777018 128 128 255 -0.408230 0.411618 0.814812
0.298969 -1.106566 0.806979 128 128 255 -0.409405 0.400215 0.819888
0.292392 -1.173265 0.835704 128 128 255 -0.409562 0.399742 0.820040
0.285481 -1.235527 0.863143 128 128 255 -0.408467 0.411522 0.814742
0.278247 -1.293245 0.889251 128 128 255 -0.409661 0.413738 0.813018
0.270703 -1.350762 0.913986 128 128 255 -0.415572 0.400357 0.816709
0.262862 -1.407981 0.937305 128 128 255 -0.417720 0.396052 0.817712
0.254739 -1.460363 0.959295 128 128 255 -0.413971 0.408674 0.813396
0.246346 -1.510041 0.980202 128 128 255 -0.414232 0.419340 0.807815
0.237699 -1.554708 0.999579 128 128 255 -0.414511 0.420390 0.807126
0.228812 -1.598728 1.017392 128 128 255 -0.417593 0.406075 0.812846
0.221924 -1.639802 1.033607 128 128 255 -0.422655 0.393528 0.816393
0.212604 -1.680083 1.048193 128 128 255 -0.419272 0.405849 0.812094
0.203092 -1.715059 1.061125 128 128 255 -0.417954 0.413471 0.808923
0.193404 -1.746891 1.072377 128 128 255 -0.415255 0.409328 0.812412
0.183556 -1.775525 1.081929 128 128 255 -0.405833 0.431989 0.805410
0.173565 -1.798688 1.089762 128 128 255 -0.408438 0.424699 0.807966
0.163449 -1.820780 1.095862 128 128 255 -0.411551 0.412826 0.812527
0.153225 -1.839539 1.100216 128 128 255 -0.413017 0.413575 0.811401
0.142911 -1.854933 1.102817 128 128 255 -0.416828 0.416420 0.807991
0.132525 -1.866935 1.103659 128 128 255 0.267062 -0.268633 -0.925481
0.122084 -1.875523 1.102740 128 128 255 0.405783 -0.402875 -0.820385
0.111607 -1.880682 1.100061 128 128 255 0.390269 -0.404389 -0.827140
0.100000 -1.882403 1.095627 128 128 255 0.379718 -0.409978 -0.829296
0.088393 -1.880684 1.089445 128 128 255 0.398361 -0.408196 -0.821392
0.077916 -1.875527 1.081527 128 128 255 0.428141 -0.389826 -0.815310
0.067475 -1.866942 1.071887 128 128 255 0.717972 0.018614 -0.695823
0.057089 -1.854944 1.060543 128 128 255 -0.382110 0.436234 0.814673
0.046774 -1.839554 1.047514 128 128 255 -0.395073 0.423944 0.814978
0.036550 -1.820799 1.032825 128 128 255 -0.399329 0.419946 0.814973
0.026434 -1.798712 1.016503 128 128 255 -0.387342 0.441471 0.809363
0.016443 -1.775556 0.998577 128 128 255 -0.406609 0.427396 0.807466
0.006595 -1.746928 0.979080 128 128 255 -0.416997 0.412903 0.809706
-0.003094 -1.715103 0.958047 128 128 255 -0.414620 0.410153 0.812321
-0.012607 -1.680135 0.935518 128 128 255 -0.419375 0.398687 0.815582
-0.021928 -1.639863 0.911534 128 128 255 -0.405402 0.414058 0.814987
-0.028818 -1.598796 0.886137 128 128 255 -0.406878 0.415954 0.813285
-0.037705 -1.554785 0.859375 128 128 255 -0.409182 0.420422 0.809824
-0.046354 -1.510125 0.831296 128 128 255 -0.410310 0.417228 0.810905
-0.054748 -1.460453 0.802201 128 128 255 -0.413385 0.403195 0.816423
-0.062872 -1.408076 0.772173 128 128 255 -0.412536 0.399941 0.818451
-0.070714 -1.350860 0.740979 128 128 255 -0.415290 0.395369 0.819279
-0.078259 -1.293343 0.708673 128 128 255 -0.406356 0.412810 0.815146
-0.085494 -1.235624 0.675308 128 128 255 -0.406379 0.412381 0.815351
-0.092406 -1.173358 0.640941 128 128 255 -0.410020 0.399989 0.819691
-0.098983 -1.106653 0.605629 128 128 255 -0.409770 0.400546 0.819544
-0.105213 -1.040062 0.569432 128 128 255 -0.406320 0.412315 0.815414
-0.111085 -0.973700 0.532412 128 128 255 -0.405403 0.410555 0.816758
-0.116587 -0.903239 0.494631 128 128 255 -0.406045 0.403830 0.819786
-0.121711 -0.828802 0.456153 128 128 255 -0.404645 0.409346 0.817740
-0.126446 -0.757181 0.417045 128 128 255 -0.402467 0.413063 0.816945
-0.130785 -0.681839 0.377374 128 128 255 -0.405050 0.402986 0.820693
-0.134718 -0.602907 0.337207 128 128 255 -0.405856 0.404607 0.819496
-0.138239 -0.524967 0.296613 128 128 255 -0.405525 0.410942 0.816502
-0.141343 -0.448155 0.255663 128 128 255 -0.403894 0.408339 0.818614
-0.144023 -0.365946 0.214428 128 128 255 -0.405011 0.403877 0.820274
-0.146275 -0.285148 0.172977 128 128 255 -0.402945 0.413465 0.816506
-0.148097 -0.205904 0.131383 128 128 255 -0.405854 0.405534 0.819039
-0.151708 -0.121692 0.089716 128 128 255 -0.406832 0.401211 0.820681
-0.152664 -0.039321 0.048045 128 128 255 -0.403160 0.413902 0.816178
-0.153187 0.041068 0.006439 128 128 255 -0.404173 0.409541 0.817875
-0.153277 0.126000 -0.035035 128 128 255 -0.405029 0.405213 0.819606
-0.152932 0.208670 -0.076306 128 128 255 -0.403179 0.414628 0.815800
-0.152152 0.288936 -0.117295 128 128 255 -0.402291 0.413445 0.816838
-0.148714 0.373322 -0.157925 128 128 255 -0.403119 0.408961 0.818685
-0.147064 0.455017 -0.198120 128 128 255 -0.403117 0.415133 0.815574
-0.144980 0.533876 -0.237805 128 128 255 -0.403833 0.410568 0.817529
-0.142467 0.616422 -0.276910 128 128 255 -0.404705 0.405943 0.819404
-0.139528 0.695846 -0.315363 128 128 255 -0.403162 0.415527 0.815351
-0.136169 0.772008 -0.353095 128 128 255 -0.404808 0.412275 0.816186
-0.132396 0.851435 -0.390040 128 128 255 -0.407503 0.402391 0.819770
-0.128220 0.927251 -0.425721 128 128 255 -0.405575 0.407432 0.818235
0.430335 0.920243 -0.143283 128 128 255 -0.412749 0.400329 0.818154
0.436333 0.842771 -0.102338 128 128 255 -0.405750 0.408430 0.817650
0.441745 0.766220 -0.061041 128 128 255 -0.405195 0.414674 0.814778
0.446564 0.690726 -0.019466 128 128 255 -0.406224 0.415895 0.813642
0.450779 0.611981 0.022312 128 128 255 -0.408730 0.405994 0.817379
0.454386 0.530125 0.064219 128 128 255 -0.407505 0.410606 0.815685
0.457377 0.451966 0.106178 128 128 255 -0.406483 0.415312 0.813811
0.459750 0.370978 0.148113 128 128 255 -0.408660 0.405706 0.817557
0.461502 0.287303 0.189948 128 128 255 -0.410266 0.408001 0.815609
0.462631 0.207748 0.231607 128 128 255 -0.410147 0.413847 0.812718
0.463136 0.125787 0.273011 128 128 255 -0.412093 0.404334 0.816513
0.463015 0.041560 0.314088 128 128 255 -0.411237 0.408543 0.814848
0.462268 -0.038126 0.354765 128 128 255 -0.410436 0.412984 0.813010
0.460895 -0.119796 0.394972 128 128 255 -0.412257 0.403470 0.816858
0.458896 -0.203307 0.434641 128 128 255 -0.408947 0.409667 0.815436
0.456275 -0.281850 0.473706 128 128 255 -0.407350 0.412902 0.814603
0.453034 -0.361949 0.512100 128 128 255 -0.408939 0.403289 0.818612
0.449179 -0.443462 0.549757 128 128 255 -0.408989 0.402916 0.818772
0.444716 -0.521805 0.586612 128 128 255 -0.404990 0.414336 0.815052
0.439654 -0.596839 0.622603 128 128 255 -0.407374 0.405931 0.818087
0.434002 -0.675095 0.657669 128 128 255 -0.409064 0.402127 0.819122
0.427769 -0.749773 0.691747 128 128 255 -0.407923 0.411961 0.814792
0.420967 -0.820742 0.724782 128 128 255 -0.407951 0.412071 0.814723
0.413609 -0.892321 0.756716 128 128 255 -0.411743 0.399417 0.819105
0.405708 -0.964385 0.787495 128 128 255 -0.408611 0.406294 0.817290
0.397278 -1.030147 0.817067 128 128 255 -0.403872 0.412230 0.816673
0.388335 -1.096158 0.845383 128 128 255 -0.405816 0.402419 0.820593
0.378895 -1.162304 0.872394 128 128 255 -0.407272 0.398054 0.821999
0.368974 -1.224032 0.898057 128 128 255 -0.402211 0.409840 0.818692
0.358590 -1.281238 0.922328 128 128 255 -0.398518 0.418476 0.816126
0.345538 -1.338264 0.945167 128 128 255 -0.401657 0.409484 0.819143
0.334283 -1.392792 0.966537 128 128 255 -0.406296 0.396155 0.823398
0.322622 -1.446949 0.986530 128 128 255 -0.404593 0.403638 0.820598
0.310574 -1.496203 1.005403 128 128 255 -0.401067 0.416663 0.815805
0.298161 -1.540470 1.022703 128 128 255 -0.401277 0.425916 0.810908
0.285404 -1.584115 1.038397 128 128 255 -0.408791 0.412319 0.814176
0.272325 -1.624839 1.052458 128 128 255 -0.415308 0.403467 0.815312
0.258946 -1.664794 1.064857 128 128 255 -0.420862 0.400098 0.814123
0.245291 -1.699471 1.075573 128 128 255 -0.419543 0.414442 0.807603
0.231382 -1.731032 1.084583 128 128 255 -0.422059 0.407207 0.809968
0.219467 -1.759421 1.091872 128 128 255 -0.424612 0.417030 0.803611
0.205125 -1.782366 1.097425 128 128 255 -0.420882 0.439109 0.793752
0.190603 -1.804268 1.101230 128 128 255 -0.413099 0.415010 0.810627
0.175925 -1.822867 1.103280 128 128 255 -0.419547 0.420879 0.804264
0.161119 -1.838129 1.103572 128 128 255 0.392627 -0.393628 -0.831205
0.146208 -1.850027 1.102102 128 128 255 0.405653 -0.405698 -0.819057
0.131219 -1.858542 1.098873 128 128 255 0.408168 -0.407130 -0.817095
0.116178 -1.863657 1.093892 128 128 255 0.396638 -0.407936 -0.822354
0.100000 -1.865365 1.087165 128 128 255 0.387457 -0.411225 -0.825089
0.083822 -1.863661 1.078705 128 128 255 0.400462 -0.409657 -0.819641
0.068781 -1.858550 1.068527 128 128 255 0.416220 -0.402516 -0.815317
0.053792 -1.850039 1.056648 128 128 255 0.423436 -0.395461 -0.815054
0.038881 -1.838146 1.043092 128 128 255 0.466335 -0.350166 -0.812352
0.024074 -1.822889 1.027881 128 128 255 -0.369047 0.449048 0.813732
0.009396 -1.804297 1.011043 128 128 255 -0.389840 0.438442 0.809811
-0.005127 -1.782403 0.992609 128 128 255 -0.422124 0.412319 0.807344
-0.019470 -1.759466 0.972613 128 128 255 -0.386773 0.448008 0.806037
-0.031386 -1.731087 0.951091 128 128 255 -0.404137 0.423360 0.810826
-0.045296 -1.699537 0.928081 128 128 255 -0.413815 0.407133 0.814248
-0.058953 -1.664871 0.903627 128 128 255 -0.412083 0.405280 0.816049
-0.072334 -1.624926 0.877772 128 128 255 -0.419139 0.399497 0.815306
-0.085415 -1.584214 0.850564 128 128 255 -0.406290 0.416496 0.813302
-0.098175 -1.540580 0.822052 128 128 255 -0.400396 0.421465 0.813665
-0.110590 -1.496323 0.792287 128 128 255 -0.396351 0.423111 0.814790
-0.122640 -1.447077 0.761581 128 128 255 -0.405843 0.401313 0.821121
-0.134304 -1.392926 0.730019 128 128 255 -0.401712 0.403824 0.821921
-0.145562 -1.338402 0.697365 128 128 255 -0.407244 0.401757 0.820210
-0.158615 -1.281377 0.663673 128 128 255 -0.408905 0.405412 0.817580
-0.169001 -1.224169 0.629001 128 128 255 -0.400754 0.412292 0.818175
-0.178924 -1.162435 0.593407 128 128 255 -0.402218 0.404190 0.821493
-0.188365 -1.096280 0.556950 128 128 255 -0.407477 0.404397 0.818795
-0.197307 -1.030258 0.519692 128 128 255 -0.410058 0.409008 0.815208
-0.205736 -0.964481 0.481696 128 128 255 -0.408380 0.406173 0.817465
-0.213634 -0.892401 0.443027 128 128 255 -0.406506 0.403531 0.819704
-0.220989 -0.820805 0.403751 128 128 255 -0.405557 0.410502 0.816708
-0.227786 -0.749818 0.363934 128 128 255 -0.406527 0.412012 0.815464
