ply
format ascii 1.0
element vertex 699
property float x
property float y
property float z
property uchar red
property uchar green
property uchar blue
property float nx
property float ny
property float nz
end_header
-1.337233 -0.496893 0.184895 128 128 255 -0.938256 -0.345942 0.000072
-1.300785 -0.590228 0.184780 128 128 255 -0.934034 -0.357183 0.000073
-1.264132 -0.688052 0.184659 128 128 255 -0.925701 -0.378255 0.000072
-1.222499 -0.781812 0.184532 128 128 255 -0.910350 -0.413840 0.000071
-1.177609 -0.878380 0.184400 128 128 255 -0.898248 -0.439489 0.000071
-1.126609 -0.977793 0.184265 128 128 255 -0.881463 -0.472252 0.000071
-1.073220 -1.073220 0.184128 128 128 255 -0.871529 -0.490344 0.000070
-1.016682 -1.173175 0.183990 128 128 255 -0.851512 -0.524335 0.000069
-0.951801 -1.270397 0.183853 128 128 255 -0.808866 -0.587993 0.000068
-0.877900 -1.364083 0.183717 128 128 255 -0.778206 -0.628008 0.000066
-0.798863 -1.459912 0.183683 128 128 255 -0.746899 -0.664938 0.000063
-0.714293 -1.547859 0.183764 128 128 255 -0.690775 -0.723070 0.000060
-0.617325 -1.633347 0.183847 128 128 255 -0.646323 -0.763064 0.000057
-0.516871 -1.715080 0.183931 128 128 255 -0.584203 -0.811607 0.000054
-0.406519 -1.785095 0.184015 128 128 255 -0.502465 -0.864597 0.000051
-0.286754 -1.848818 0.184099 128 128 255 -0.444938 -0.895562 0.000048
-0.164944 -1.905118 0.184181 128 128 255 -0.365962 -0.930630 0.000044
-0.033087 -1.948575 0.184260 128 128 255 -0.275149 -0.961402 0.000041
0.098889 -1.980629 0.184336 128 128 255 -0.189875 -0.981808 0.000037
0.236504 -2.000715 0.184408 128 128 255 -0.099178 -0.995070 0.000035
0.378555 -2.008505 0.184475 128 128 255 -0.011355 -0.999936 0.000034
0.517160 -2.003904 0.184536 128 128 255 0.076039 -0.997105 0.000030
0.660034 -1.987041 0.184591 128 128 255 0.160928 -0.986966 0.000028
0.797192 -1.958245 0.184640 128 128 255 0.242211 -0.970223 0.000026
0.936539 -1.918013 0.184682 128 128 255 0.325978 -0.945377 0.000025
1.068343 -1.864748 0.184716 128 128 255 0.397309 -0.917685 0.000024
1.200798 -1.803602 0.184743 128 128 255 0.451003 -0.892523 0.000023
1.324470 -1.735323 0.184763 128 128 255 0.512362 -0.858770 0.000023
1.447844 -1.656208 0.184774 128 128 255 0.578691 -0.815547 0.000021
1.561745 -1.566956 0.184779 128 128 255 0.624124 -0.781326 0.000019
1.674863 -1.474863 0.184776 128 128 255 0.670090 -0.742280 0.000019
1.778167 -1.371576 0.184766 128 128 255 0.712030 -0.702149 0.000018
1.880415 -1.266419 0.184749 128 128 255 0.743367 -0.668883 0.000016
1.974784 -1.153060 0.184726 128 128 255 0.792398 -0.610004 0.000014
2.061062 -1.031750 0.184697 128 128 255 0.818870 -0.573979 0.000013
2.145611 -0.909347 0.184663 128 128 255 0.846273 -0.532749 0.000010
2.221352 -0.777121 0.184624 128 128 255 0.883026 -0.469323 0.000009
2.287750 -0.641907 0.184581 128 128 255 0.906494 -0.422218 0.000009
2.348598 -0.503919 0.184534 128 128 255 0.926959 -0.375163 0.000004
2.403139 -0.356791 0.184485 128 128 255 0.949197 -0.314683 0.000000
2.446090 -0.209833 0.184433 128 128 255 0.971697 -0.236230 -0.000001
2.476568 -0.054730 0.184381 128 128 255 0.986084 -0.166249 -0.000003
2.498112 0.098732 0.184477 128 128 255 0.990289 -0.139027 -0.000003
2.498128 0.100000 0.212219 128 128 255 0.998139 -0.060987 -0.000011
2.507707 0.256771 0.212414 128 128 255 0.999796 -0.020208 -0.000013
2.504556 0.417823 0.212606 128 128 255 0.998091 0.061760 -0.000014
2.488074 0.574127 0.212795 128 128 255 0.990056 0.140672 -0.000015
2.460067 0.730969 0.212978 128 128 255 0.974389 0.224871 -0.000018
2.415902 0.886877 0.213154 128 128 255 0.947450 0.319903 -0.000017
2.357866 1.033667 0.213323 128 128 255 0.911330 0.411677 -0.000014
2.284069 1.178723 0.213481 128 128 255 0.871992 0.489520 -0.000014
2.201780 1.311711 0.213629 128 128 255 0.825340 0.564637 -0.000014
2.105191 1.440195 0.213764 128 128 255 0.761424 0.648254 -0.000010
1.995395 1.554129 0.213887 128 128 255 0.701396 0.712772 -0.000007
1.880343 1.661456 0.213995 128 128 255 0.632830 0.774291 -0.000002
1.752582 1.752582 0.214088 128 128 255 0.555598 0.831451 0.000003
1.622529 1.833733 0.214166 128 128 255 0.491347 0.870964 0.000009
1.482862 1.904741 0.214228 128 128 255 0.413570 0.910472 0.000016
1.341795 1.961251 0.214273 128 128 255 0.330769 0.943712 0.000021
1.200798 2.003602 0.214302 128 128 255 0.254313 0.967122 0.000029
1.054552 2.036783 0.214314 128 128 255 0.190058 0.981773 0.000038
0.913135 2.059288 0.214309 128 128 255 0.122099 0.992518 0.000043
0.768653 2.071951 0.214288 128 128 255 0.057956 0.998319 0.000047
0.630790 2.075676 0.214250 128 128 255 -0.002061 0.999998 0.000055
0.491241 2.071377 0.214197 128 128 255 -0.057891 0.998323 0.000059
0.359287 2.059930 0.214128 128 128 255 -0.109707 0.993964 0.000064
0.226255 2.042128 0.214045 128 128 255 -0.157904 0.987454 0.000071
0.101111 2.018642 0.213948 128 128 255 -0.203090 0.979160 0.000071
-0.025061 1.990000 0.213837 128 128 255 -0.237715 0.971335 0.000075
-0.143457 1.958787 0.213715 128 128 255 -0.279312 0.960200 0.000080
-0.263063 1.920765 0.213582 128 128 255 -0.328590 0.944473 0.000081
-0.375060 1.878207 0.213440 128 128 255 -0.377874 0.925857 0.000083
-0.488343 1.828818 0.213289 128 128 255 -0.420151 0.907454 0.000085
-0.593931 1.776868 0.213131 128 128 255 -0.449250 0.893406 0.000087
-0.700509 1.722129 0.212968 128 128 255 -0.495662 0.868516 0.000087
-0.798862 1.659910 0.212866 128 128 255 -0.561547 0.827445 0.000087
-0.895213 1.589993 0.212972 128 128 255 -0.601679 0.798738 0.000088
-0.989015 1.516672 0.213073 128 128 255 -0.645145 0.764060 0.000088
-1.072976 1.439900 0.213169 128 128 255 -0.696360 0.717693 0.000089
-1.155316 1.355316 0.213258 128 128 255 -0.750341 0.661050 0.000090
-1.228697 1.263150 0.213340 128 128 255 -0.803087 0.595861 0.000090
-1.292481 1.170452 0.213412 128 128 255 -0.847156 0.531345 0.000090
-1.350558 1.068863 0.213475 128 128 255 -0.878731 0.477317 0.000091
-1.402489 0.967932 0.213527 128 128 255 -0.912280 0.409568 0.000091
-1.443542 0.861754 0.213568 128 128 255 -0.947265 0.320451 0.000092
-1.475823 0.751156 0.213597 128 128 255 -0.968727 0.248129 0.000093
-1.499405 0.643659 0.213614 128 128 255 -0.984856 0.173374 0.000093
-1.514544 0.531207 0.213617 128 128 255 -0.994926 0.100606 0.000093
-1.521671 0.423461 0.213607 128 128 255 -0.999514 0.031158 0.000094
-1.521370 0.312200 0.213584 128 128 255 -0.999428 -0.033811 0.000094
-1.514342 0.206848 0.213547 128 128 255 -0.995539 -0.094353 0.000095
-1.501364 0.101111 0.213496 128 128 255 -0.989375 -0.145389 0.000095
-1.483239 -0.004809 0.213432 128 128 255 -0.980996 -0.194030 0.000095
-1.460751 -0.104219 0.213355 128 128 255 -0.972050 -0.234772 0.000096
-1.434611 -0.206143 0.213265 128 128 255 -0.963011 -0.269462 0.000097
-1.405417 -0.301967 0.213163 128 128 255 -0.950118 -0.311892 0.000097
-1.371389 -0.398735 0.213049 128 128 255 -0.943914 -0.330191 0.000097
-1.337231 -0.496892 0.212925 128 128 255 -0.938256 -0.345942 0.000097
-1.300783 -0.590227 0.212790 128 128 255 -0.934034 -0.357183 0.000097
-1.264130 -0.688051 0.212647 128 128 255 -0.925702 -0.378255 0.000098
-1.222497 -0.781811 0.212497 128 128 255 -0.910350 -0.413839 0.000097
-1.177608 -0.878379 0.212340 128 128 255 -0.898248 -0.439489 0.000096
-1.126607 -0.977791 0.212178 128 128 255 -0.881463 -0.472252 0.000094
-1.073219 -1.073219 0.212013 128 128 255 -0.871529 -0.490344 0.000093
-1.016680 -1.173174 0.211845 128 128 255 -0.851512 -0.524335 0.000091
-0.951800 -1.270395 0.211678 128 128 255 -0.808866 -0.587993 0.000090
-0.877899 -1.364081 0.211511 128 128 255 -0.778207 -0.628008 0.000087
-0.798862 -1.459910 0.211477 128 128 255 -0.746900 -0.664937 0.000084
-0.714292 -1.547857 0.211592 128 128 255 -0.690776 -0.723068 0.000081
-0.617324 -1.633346 0.211709 128 128 255 -0.646325 -0.763062 0.000077
-0.516870 -1.715079 0.211826 128 128 255 -0.584206 -0.811606 0.000072
-0.406518 -1.785093 0.211942 128 128 255 -0.502468 -0.864596 0.000068
-0.286754 -1.848817 0.212056 128 128 255 -0.444939 -0.895561 0.000063
-0.164943 -1.905117 0.212167 128 128 255 -0.365965 -0.930628 0.000058
-0.033087 -1.948574 0.212273 128 128 255 -0.275152 -0.961401 0.000054
0.098889 -1.980628 0.212374 128 128 255 -0.189878 -0.981808 0.000051
0.236504 -2.000714 0.212468 128 128 255 -0.099180 -0.995069 0.000045
0.378555 -2.008504 0.212555 128 128 255 -0.011357 -0.999936 0.000041
0.517160 -2.003903 0.212633 128 128 255 0.076037 -0.997105 0.000039
0.660034 -1.987040 0.212702 128 128 255 0.160926 -0.986967 0.000036
0.797191 -1.958244 0.212762 128 128 255 0.242209 -0.970224 0.000034
0.936539 -1.918012 0.212811 128 128 255 0.325976 -0.945378 0.000033
1.068343 -1.864747 0.212850 128 128 255 0.397308 -0.917685 0.000032
1.200798 -1.803602 0.212878 128 128 255 0.451001 -0.892523 0.000029
1.324470 -1.735322 0.212896 128 128 255 0.512361 -0.858770 0.000028
1.447844 -1.656207 0.212902 128 128 255 0.578689 -0.815548 0.000026
1.561744 -1.566956 0.212898 128 128 255 0.624123 -0.781326 0.000026
1.674863 -1.474863 0.212884 128 128 255 0.670089 -0.742280 0.000024
1.778167 -1.371576 0.212859 128 128 255 0.712030 -0.702149 0.000023
1.880414 -1.266418 0.212825 128 128 255 0.743367 -0.668884 0.000021
1.974784 -1.153059 0.212782 128 128 255 0.792398 -0.610004 0.000019
2.061062 -1.031750 0.212730 128 128 255 0.818870 -0.573979 0.000018
2.145611 -0.909347 0.212671 128 128 255 0.846273 -0.532750 0.000014
2.221351 -0.777121 0.212605 128 128 255 0.883026 -0.469323 0.000010
2.287750 -0.641907 0.212533 128 128 255 0.906494 -0.422218 0.000007
2.348598 -0.503919 0.212456 128 128 255 0.926959 -0.375163 0.000006
2.403139 -0.356791 0.212376 128 128 255 0.949197 -0.314684 0.000004
2.446090 -0.209834 0.212292 128 128 255 0.971697 -0.236230 -0.000002
2.476568 -0.054730 0.212207 128 128 255 0.986084 -0.166250 -0.000008
2.498112 0.098732 0.212316 128 128 255 0.990289 -0.139027 -0.000009
2.498128 0.100000 0.240035 128 128 255 0.998139 -0.060987 -0.000014
2.507707 0.256771 0.240260 128 128 255 0.999796 -0.020210 -0.000016
2.504557 0.417823 0.240481 128 128 255 0.998091 0.061758 -0.000020
2.488074 0.574127 0.240698 128 128 255 0.990057 0.140670 -0.000020
2.460067 0.730969 0.240909 128 128 255 0.974389 0.224868 -0.000021
2.415902 0.886877 0.241112 128 128 255 0.947451 0.319901 -0.000024
2.357866 1.033668 0.241305 128 128 255 0.911331 0.411675 -0.000024
2.284070 1.178723 0.241486 128 128 255 0.871993 0.489519 -0.000021
2.201781 1.311711 0.241655 128 128 255 0.825341 0.564635 -0.000018
2.105192 1.440195 0.241809 128 128 255 0.761425 0.648253 -0.000015
1.995395 1.554129 0.241948 128 128 255 0.701396 0.712772 -0.000010
1.880343 1.661456 0.242070 128 128 255 0.632831 0.774290 -0.000004
1.752581 1.752581 0.242174 128 128 255 0.555598 0.831451 0.000003
1.622529 1.833733 0.242260 128 128 255 0.491348 0.870964 0.000012
1.482862 1.904740 0.242327 128 128 255 0.413570 0.910472 0.000019
1.341794 1.961251 0.242375 128 128 255 0.330769 0.943712 0.000028
1.200797 2.003601 0.242403 128 128 255 0.254313 0.967122 0.000034
1.054552 2.036782 0.242411 128 128 255 0.190057 0.981773 0.000044
0.913134 2.059286 0.242400 128 128 255 0.122099 0.992518 0.000055
0.768653 2.071950 0.242369 128 128 255 0.057956 0.998319 0.000060
0.630789 2.075675 0.242319 128 128 255 -0.002062 0.999998 0.000064
0.491241 2.071375 0.242250 128 128 255 -0.057891 0.998323 0.000073
0.359287 2.059928 0.242164 128 128 255 -0.109708 0.993964 0.000079
0.226255 2.042125 0.242060 128 128 255 -0.157906 0.987454 0.000086
0.101111 2.018640 0.241941 128 128 255 -0.203091 0.979160 0.000093
-0.025061 1.989997 0.241806 128 128 255 -0.237716 0.971335 0.000095
-0.143456 1.958785 0.241658 128 128 255 -0.279313 0.960200 0.000099
-0.263062 1.920762 0.241497 128 128 255 -0.328591 0.944472 0.000101
-0.375060 1.878205 0.241326 128 128 255 -0.377875 0.925856 0.000104
-0.488342 1.828815 0.241145 128 128 255 -0.420152 0.907454 0.000105
-0.593930 1.776866 0.240956 128 128 255 -0.449250 0.893406 0.000107
-0.700507 1.722127 0.240762 128 128 255 -0.495663 0.868515 0.000108
-0.798860 1.659908 0.240642 128 128 255 -0.561547 0.827445 0.000109
-0.895211 1.589991 0.240777 128 128 255 -0.601679 0.798738 0.000111
-0.989013 1.516670 0.240907 128 128 255 -0.645144 0.764061 0.000110
-1.072974 1.439898 0.241030 128 128 255 -0.696360 0.717693 0.000111
-1.155314 1.355314 0.241146 128 128 255 -0.750340 0.661052 0.000112
-1.228695 1.263148 0.241254 128 128 255 -0.803087 0.595862 0.000113
-1.292479 1.170450 0.241351 128 128 255 -0.847155 0.531346 0.000114
-1.350556 1.068861 0.241437 128 128 255 -0.878731 0.477318 0.000114
-1.402486 0.967931 0.241510 128 128 255 -0.912279 0.409570 0.000115
-1.443539 0.861752 0.241570 128 128 255 -0.947265 0.320452 0.000115
-1.475821 0.751155 0.241616 128 128 255 -0.968727 0.248130 0.000116
-1.499402 0.643658 0.241647 128 128 255 -0.984856 0.173376 0.000118
-1.514541 0.531206 0.241662 128 128 255 -0.994926 0.100606 0.000118
-1.521668 0.423460 0.241662 128 128 255 -0.999514 0.031159 0.000119
-1.521367 0.312200 0.241645 128 128 255 -0.999428 -0.033810 0.000118
-1.514339 0.206848 0.241611 128 128 255 -0.995539 -0.094353 0.000119
-1.501361 0.101111 0.241562 128 128 255 -0.989375 -0.145388 0.000120
-1.483236 -0.004809 0.241495 128 128 255 -0.980996 -0.194030 0.000120
-1.460748 -0.104219 0.241413 128 128 255 -0.972050 -0.234772 0.000120
-1.434608 -0.206143 0.241316 128 128 255 -0.963011 -0.269462 0.000120
-1.405414 -0.301966 0.241203 128 128 255 -0.950118 -0.311892 0.000121
-1.371386 -0.398734 0.241077 128 128 255 -0.943914 -0.330191 0.000122
-1.337228 -0.496891 0.240937 128 128 255 -0.938256 -0.345942 0.000121
-1.300781 -0.590225 0.240785 128 128 255 -0.934034 -0.357183 0.000121
-1.264128 -0.688049 0.240622 128 128 255 -0.925701 -0.378255 0.000120
-1.222494 -0.781809 0.240450 128 128 255 -0.910350 -0.413839 0.000121
-1.177605 -0.878377 0.240269 128 128 255 -0.898248 -0.439489 0.000121
-1.126605 -0.977789 0.240083 128 128 255 -0.881464 -0.472252 0.000119
-1.073217 -1.073217 0.239891 128 128 255 -0.871529 -0.490343 0.000116
-1.016678 -1.173172 0.239697 128 128 255 -0.851512 -0.524335 0.000113
-0.951798 -1.270393 0.239502 128 128 255 -0.808866 -0.587993 0.000111
-0.877897 -1.364078 0.239307 128 128 255 -0.778207 -0.628007 0.000108
-0.798860 -1.459908 0.239273 128 128 255 -0.746901 -0.664935 0.000103
-0.714291 -1.547855 0.239420 128 128 255 -0.690778 -0.723067 0.000099
-0.617323 -1.633343 0.239568 128 128 255 -0.646326 -0.763061 0.000094
-0.516869 -1.715076 0.239715 128 128 255 -0.584209 -0.811603 0.000090
-0.406518 -1.785091 0.239861 128 128 255 -0.502470 -0.864595 0.000085
-0.286753 -1.848814 0.240004 128 128 255 -0.444942 -0.895559 0.000078
-0.164943 -1.905115 0.240141 128 128 255 -0.365969 -0.930627 0.000072
-0.033087 -1.948572 0.240272 128 128 255 -0.275154 -0.961400 0.000067
0.098889 -1.980626 0.240396 128 128 255 -0.189881 -0.981807 0.000062
0.236504 -2.000713 0.240511 128 128 255 -0.099184 -0.995069 0.000059
0.378554 -2.008503 0.240616 128 128 255 -0.011360 -0.999935 0.000052
0.517160 -2.003902 0.240710 128 128 255 0.076034 -0.997105 0.000047
0.660034 -1.987039 0.240792 128 128 255 0.160923 -0.986967 0.000045
0.797191 -1.958243 0.240862 128 128 255 0.242208 -0.970224 0.000042
0.936539 -1.918011 0.240918 128 128 255 0.325974 -0.945379 0.000039
1.068343 -1.864746 0.240962 128 128 255 0.397307 -0.917686 0.000038
1.200797 -1.803601 0.240991 128 128 255 0.451000 -0.892524 0.000036
1.324469 -1.735322 0.241007 128 128 255 0.512360 -0.858771 0.000034
1.447843 -1.656206 0.241008 128 128 255 0.578688 -0.815549 0.000033
1.561744 -1.566955 0.240996 128 128 255 0.624123 -0.781326 0.000032
1.674863 -1.474862 0.240971 128 128 255 0.670088 -0.742281 0.000030
1.778166 -1.371576 0.240933 128 128 255 0.712030 -0.702149 0.000028
1.880414 -1.266418 0.240882 128 128 255 0.743366 -0.668885 0.000026
1.974784 -1.153059 0.240820 128 128 255 0.792398 -0.610005 0.000024
2.061061 -1.031750 0.240748 128 128 255 0.818870 -0.573979 0.000020
2.145611 -0.909347 0.240665 128 128 255 0.846272 -0.532750 0.000018
2.221351 -0.777121 0.240574 128 128 255 0.883026 -0.469324 0.000014
2.287749 -0.641907 0.240476 128 128 255 0.906494 -0.422218 0.000009
2.348598 -0.503919 0.240371 128 128 255 0.926959 -0.375163 0.000005
2.403139 -0.356791 0.240262 128 128 255 0.949197 -0.314683 0.000001
2.446090 -0.209834 0.240149 128 128 255 0.971697 -0.236230 -0.000003
2.476568 -0.054730 0.240033 128 128 255 0.986084 -0.166251 -0.000007
2.498113 0.098732 0.240154 128 128 255 0.990289 -0.139027 -0.000011
2.498129 0.100000 0.267851 128 128 255 0.998138 -0.060988 -0.000017
2.507708 0.256771 0.268102 128 128 255 0.999796 -0.020213 -0.000020
2.504558 0.417823 0.268350 128 128 255 0.998091 0.061756 -0.000024
2.488075 0.574128 0.268593 128 128 255 0.990057 0.140669 -0.000028
2.460068 0.730969 0.268828 128 128 255 0.974390 0.224866 -0.000028
2.415903 0.886877 0.269055 128 128 255 0.947452 0.319899 -0.000026
2.357867 1.033668 0.269270 128 128 255 0.911332 0.411673 -0.000026
2.284070 1.178723 0.269472 128 128 255 0.871994 0.489517 -0.000028
2.201781 1.311711 0.269659 128 128 255 0.825341 0.564634 -0.000024
2.105192 1.440195 0.269830 128 128 255 0.761427 0.648251 -0.000017
1.995395 1.554129 0.269983 128 128 255 0.701396 0.712772 -0.000011
1.880343 1.661456 0.270117 128 128 255 0.632833 0.774289 -0.000004
1.752581 1.752581 0.270231 128 128 255 0.555598 0.831451 0.000004
1.622529 1.833733 0.270325 128 128 255 0.491348 0.870963 0.000012
1.482862 1.904740 0.270396 128 128 255 0.413570 0.910473 0.000021
1.341794 1.961250 0.270446 128 128 255 0.330769 0.943712 0.000032
1.200797 2.003600 0.270473 128 128 255 0.254312 0.967122 0.000043
1.054551 2.036780 0.270478 128 128 255 0.190056 0.981773 0.000050
0.913134 2.059285 0.270460 128 128 255 0.122097 0.992518 0.000058
0.768652 2.071948 0.270421 128 128 255 0.057955 0.998319 0.000071
0.630789 2.075673 0.270359 128 128 255 -0.002063 0.999998 0.000082
0.491240 2.071373 0.270277 128 128 255 -0.057893 0.998323 0.000087
0.359286 2.059926 0.270174 128 128 255 -0.109710 0.993964 0.000095
0.226255 2.042123 0.270053 128 128 255 -0.157908 0.987454 0.000101
0.101111 2.018637 0.269913 128 128 255 -0.203092 0.979160 0.000108
-0.025061 1.989994 0.269756 128 128 255 -0.237718 0.971334 0.000114
-0.143456 1.958782 0.269584 128 128 255 -0.279314 0.960200 0.000119
-0.263062 1.920759 0.269398 128 128 255 -0.328593 0.944472 0.000121
-0.375059 1.878202 0.269200 128 128 255 -0.377877 0.925856 0.000124
-0.488341 1.828812 0.268992 128 128 255 -0.420153 0.907453 0.000126
-0.593928 1.776863 0.268776 128 128 255 -0.449251 0.893406 0.000128
-0.700506 1.722124 0.268553 128 128 255 -0.495664 0.868514 0.000131
-0.798859 1.659905 0.268418 128 128 255 -0.561547 0.827445 0.000131
-0.895209 1.589988 0.268578 128 128 255 -0.601678 0.798738 0.000133
-0.989011 1.516667 0.268734 128 128 255 -0.645143 0.764062 0.000134
-1.072972 1.439896 0.268882 128 128 255 -0.696359 0.717694 0.000133
-1.155312 1.355312 0.269023 128 128 255 -0.750339 0.661053 0.000133
-1.228692 1.263146 0.269154 128 128 255 -0.803086 0.595863 0.000133
-1.292476 1.170448 0.269273 128 128 255 -0.847154 0.531347 0.000136
-1.350553 1.068860 0.269380 128 128 255 -0.878730 0.477318 0.000136
-1.402483 0.967929 0.269472 128 128 255 -0.912278 0.409571 0.000138
-1.443536 0.861751 0.269549 128 128 255 -0.947264 0.320453 0.000139
-1.475817 0.751154 0.269611 128 128 255 -0.968727 0.248131 0.000139
-1.499399 0.643657 0.269655 128 128 255 -0.984856 0.173376 0.000140
-1.514537 0.531205 0.269681 128 128 255 -0.994926 0.100607 0.000141
-1.521664 0.423459 0.269689 128 128 255 -0.999514 0.031159 0.000144
-1.521364 0.312199 0.269678 128 128 255 -0.999428 -0.033809 0.000144
-1.514336 0.206847 0.269648 128 128 255 -0.995539 -0.094352 0.000143
-1.501357 0.101111 0.269599 128 128 255 -0.989375 -0.145388 0.000145
-1.483232 -0.004809 0.269531 128 128 255 -0.980996 -0.194029 0.000146
-1.460744 -0.104218 0.269445 128 128 255 -0.972050 -0.234772 0.000146
-1.434605 -0.206142 0.269341 128 128 255 -0.963011 -0.269462 0.000146
-1.405411 -0.301965 0.269219 128 128 255 -0.950118 -0.311892 0.000145
-1.371382 -0.398733 0.269081 128 128 255 -0.943914 -0.330191 0.000146
-1.337224 -0.496889 0.268927 128 128 255 -0.938256 -0.345941 0.000147
-1.300777 -0.590224 0.268760 128 128 255 -0.934034 -0.357183 0.000145
-1.264124 -0.688047 0.268579 128 128 255 -0.925701 -0.378255 0.000144
-1.222491 -0.781807 0.268387 128 128 255 -0.910350 -0.413839 0.000144
-1.177602 -0.878375 0.268186 128 128 255 -0.898248 -0.439489 0.000142
-1.126602 -0.977787 0.267977 128 128 255 -0.881464 -0.472252 0.000141
-1.073214 -1.073214 0.267762 128 128 255 -0.871530 -0.490342 0.000140
-1.016676 -1.173169 0.267544 128 128 255 -0.851512 -0.524335 0.000136
-0.951796 -1.270390 0.267324 128 128 255 -0.808866 -0.587994 0.000133
-0.877895 -1.364076 0.267104 128 128 255 -0.778208 -0.628006 0.000129
-0.798859 -1.459905 0.267070 128 128 255 -0.746903 -0.664934 0.000125
-0.714290 -1.547852 0.267245 128 128 255 -0.690781 -0.723064 0.000120
-0.617322 -1.633340 0.267422 128 128 255 -0.646328 -0.763059 0.000113
-0.516868 -1.715074 0.267597 128 128 255 -0.584212 -0.811601 0.000107
-0.406517 -1.785089 0.267770 128 128 255 -0.502473 -0.864593 0.000100
-0.286753 -1.848812 0.267938 128 128 255 -0.444945 -0.895558 0.000093
-0.164943 -1.905113 0.268100 128 128 255 -0.365973 -0.930625 0.000086
-0.033086 -1.948570 0.268254 128 128 255 -0.275158 -0.961399 0.000079
0.098889 -1.980624 0.268398 128 128 255 -0.189884 -0.981806 0.000073
0.236504 -2.000711 0.268532 128 128 255 -0.099187 -0.995069 0.000067
0.378554 -2.008501 0.268654 128 128 255 -0.011364 -0.999935 0.000062
0.517160 -2.003901 0.268762 128 128 255 0.076031 -0.997105 0.000057
0.660033 -1.987038 0.268856 128 128 255 0.160921 -0.986967 0.000054
0.797191 -1.958242 0.268935 128 128 255 0.242205 -0.970225 0.000051
0.936538 -1.918010 0.268998 128 128 255 0.325972 -0.945380 0.000047
1.068342 -1.864745 0.269045 128 128 255 0.397306 -0.917686 0.000045
1.200797 -1.803600 0.269076 128 128 255 0.450998 -0.892525 0.000044
1.324469 -1.735321 0.269090 128 128 255 0.512359 -0.858771 0.000041
1.447842 -1.656206 0.269087 128 128 255 0.578687 -0.815549 0.000040
1.561743 -1.566954 0.269068 128 128 255 0.624122 -0.781327 0.000039
1.674862 -1.474862 0.269033 128 128 255 0.670088 -0.742282 0.000036
1.778166 -1.371575 0.268982 128 128 255 0.712029 -0.702150 0.000033
1.880413 -1.266418 0.268917 128 128 255 0.743366 -0.668885 0.000031
1.974783 -1.153059 0.268838 128 128 255 0.792397 -0.610005 0.000029
2.061061 -1.031749 0.268746 128 128 255 0.818869 -0.573980 0.000025
2.145610 -0.909346 0.268643 128 128 255 0.846273 -0.532750 0.000020
2.221351 -0.777121 0.268530 128 128 255 0.883026 -0.469324 0.000016
2.287749 -0.641907 0.268407 128 128 255 0.906494 -0.422218 0.000010
2.348598 -0.503919 0.268277 128 128 255 0.926959 -0.375164 0.000007
2.403139 -0.356791 0.268141 128 128 255 0.949197 -0.314683 0.000001
2.446091 -0.209834 0.268001 128 128 255 0.971697 -0.236229 -0.000004
2.476568 -0.054730 0.267858 128 128 255 0.986083 -0.166251 -0.000010
2.498113 0.098732 0.267989 128 128 255 0.990288 -0.139028 -0.000011
2.498129 0.100000 0.295667 128 128 255 0.998138 -0.060989 -0.000017
2.507708 0.256771 0.295941 128 128 255 0.999796 -0.020215 -0.000021
2.504558 0.417823 0.296212 128 128 255 0.998091 0.061753 -0.000027
2.488076 0.574128 0.296477 128 128 255 0.990057 0.140667 -0.000031
2.460069 0.730970 0.296734 128 128 255 0.974390 0.224863 -0.000034
2.415904 0.886877 0.296980 128 128 255 0.947452 0.319897 -0.000036
2.357868 1.033668 0.297215 128 128 255 0.911333 0.411671 -0.000033
2.284071 1.178724 0.297434 128 128 255 0.871994 0.489516 -0.000028
2.201782 1.311712 0.297638 128 128 255 0.825342 0.564633 -0.000026
2.105193 1.440196 0.297823 128 128 255 0.761428 0.648250 -0.000021
1.995396 1.554130 0.297989 128 128 255 0.701396 0.712772 -0.000015
1.880343 1.661456 0.298133 128 128 255 0.632834 0.774288 -0.000007
1.752581 1.752581 0.298256 128 128 255 0.555597 0.831452 0.000003
1.622528 1.833733 0.298355 128 128 255 0.491348 0.870964 0.000015
1.482861 1.904739 0.298431 128 128 255 0.413569 0.910473 0.000025
1.341794 1.961249 0.298482 128 128 255 0.330768 0.943712 0.000036
1.200796 2.003599 0.298508 128 128 255 0.254311 0.967123 0.000048
1.054551 2.036779 0.298510 128 128 255 0.190055 0.981773 0.000061
0.913133 2.059283 0.298487 128 128 255 0.122096 0.992518 0.000072
0.768652 2.071946 0.298439 128 128 255 0.057952 0.998319 0.000081
0.630788 2.075670 0.298367 128 128 255 -0.002065 0.999998 0.000092
0.491240 2.071370 0.298273 128 128 255 -0.057895 0.998323 0.000106
0.359286 2.059923 0.298156 128 128 255 -0.109712 0.993963 0.000114
0.226255 2.042120 0.298018 128 128 255 -0.157909 0.987454 0.000119
0.101111 2.018634 0.297860 128 128 255 -0.203094 0.979159 0.000126
-0.025060 1.989991 0.297684 128 128 255 -0.237719 0.971334 0.000132
-0.143455 1.958778 0.297491 128 128 255 -0.279316 0.960199 0.000137
-0.263061 1.920756 0.297283 128 128 255 -0.328594 0.944471 0.000142
-0.375058 1.878198 0.297062 128 128 255 -0.377878 0.925855 0.000145
-0.488340 1.828808 0.296830 128 128 255 -0.420154 0.907453 0.000147
-0.593927 1.776859 0.296589 128 128 255 -0.449252 0.893405 0.000149
-0.700504 1.722120 0.296342 128 128 255 -0.495666 0.868513 0.000152
-0.798857 1.659901 0.296193 128 128 255 -0.561547 0.827445 0.000152
-0.895207 1.589985 0.296376 128 128 255 -0.601678 0.798739 0.000152
-0.989008 1.516664 0.296554 128 128 255 -0.645141 0.764063 0.000154
-1.072969 1.439893 0.296724 128 128 255 -0.696358 0.717695 0.000155
-1.155309 1.355309 0.296886 128 128 255 -0.750338 0.661055 0.000156
-1.228689 1.263143 0.297037 128 128 255 -0.803085 0.595864 0.000156
-1.292473 1.170446 0.297176 128 128 255 -0.847153 0.531348 0.000157
-1.350549 1.068857 0.297301 128 128 255 -0.878730 0.477319 0.000158
-1.402480 0.967927 0.297410 128 128 255 -0.912277 0.409573 0.000159
-1.443532 0.861749 0.297503 128 128 255 -0.947264 0.320454 0.000160
-1.475813 0.751152 0.297578 128 128 255 -0.968726 0.248131 0.000162
-1.499395 0.643655 0.297633 128 128 255 -0.984855 0.173377 0.000163
-1.514533 0.531204 0.297669 128 128 255 -0.994926 0.100607 0.000165
-1.521660 0.423458 0.297684 128 128 255 -0.999514 0.031160 0.000165
-1.521359 0.312199 0.297679 128 128 255 -0.999428 -0.033809 0.000167
-1.514331 0.206847 0.297652 128 128 255 -0.995539 -0.094352 0.000168
-1.501352 0.101111 0.297604 128 128 255 -0.989375 -0.145388 0.000167
-1.483227 -0.004808 0.297535 128 128 255 -0.980996 -0.194029 0.000168
-1.460739 -0.104218 0.297446 128 128 255 -0.972050 -0.234772 0.000170
-1.434600 -0.206141 0.297336 128 128 255 -0.963011 -0.269462 0.000170
-1.405407 -0.301964 0.297206 128 128 255 -0.950118 -0.311891 0.000172
-1.371378 -0.398732 0.297058 128 128 255 -0.943914 -0.330192 0.000171
-1.337220 -0.496887 0.296893 128 128 255 -0.938256 -0.345942 0.000171
-1.300773 -0.590222 0.296712 128 128 255 -0.934035 -0.357182 0.000170
-1.264121 -0.688045 0.296516 128 128 255 -0.925701 -0.378255 0.000168
-1.222488 -0.781805 0.296307 128 128 255 -0.910350 -0.413839 0.000168
-1.177599 -0.878372 0.296088 128 128 255 -0.898248 -0.439488 0.000167
-1.126599 -0.977784 0.295860 128 128 255 -0.881464 -0.472252 0.000163
-1.073211 -1.073211 0.295625 128 128 255 -0.871530 -0.490342 0.000160
-1.016673 -1.173166 0.295385 128 128 255 -0.851512 -0.524335 0.000158
-0.951793 -1.270387 0.295143 128 128 255 -0.808866 -0.587994 0.000155
-0.877893 -1.364072 0.294901 128 128 255 -0.778209 -0.628005 0.000150
-0.798857 -1.459901 0.294868 128 128 255 -0.746904 -0.664931 0.000144
-0.714288 -1.547848 0.295069 128 128 255 -0.690784 -0.723061 0.000139
-0.617321 -1.633337 0.295270 128 128 255 -0.646331 -0.763057 0.000132
-0.516867 -1.715070 0.295470 128 128 255 -0.584217 -0.811598 0.000123
-0.406516 -1.785086 0.295667 128 128 255 -0.502477 -0.864591 0.000116
-0.286752 -1.848809 0.295857 128 128 255 -0.444948 -0.895557 0.000109
-0.164943 -1.905110 0.296041 128 128 255 -0.365977 -0.930624 0.000100
-0.033086 -1.948568 0.296215 128 128 255 -0.275161 -0.961398 0.000093
0.098889 -1.980622 0.296378 128 128 255 -0.189888 -0.981806 0.000086
0.236504 -2.000709 0.296528 128 128 255 -0.099190 -0.995068 0.000079
0.378554 -2.008499 0.296664 128 128 255 -0.011367 -0.999935 0.000072
0.517159 -2.003899 0.296785 128 128 255 0.076029 -0.997106 0.000065
0.660033 -1.987036 0.296890 128 128 255 0.160918 -0.986968 0.000062
0.797190 -1.958240 0.296977 128 128 255 0.242204 -0.970225 0.000057
0.936538 -1.918009 0.297046 128 128 255 0.325969 -0.945380 0.000054
1.068341 -1.864744 0.297097 128 128 255 0.397306 -0.917686 0.000052
1.200796 -1.803599 0.297128 128 128 255 0.450997 -0.892525 0.000051
1.324468 -1.735320 0.297141 128 128 255 0.512358 -0.858772 0.000049
1.447842 -1.656205 0.297134 128 128 255 0.578687 -0.815550 0.000046
1.561742 -1.566953 0.297109 128 128 255 0.624122 -0.781327 0.000043
1.674861 -1.474861 0.297065 128 128 255 0.670087 -0.742283 0.000042
1.778165 -1.371574 0.297004 128 128 255 0.712029 -0.702150 0.000039
1.880412 -1.266417 0.296926 128 128 255 0.743366 -0.668885 0.000035
1.974782 -1.153058 0.296832 128 128 255 0.792397 -0.610005 0.000031
2.061060 -1.031749 0.296723 128 128 255 0.818869 -0.573981 0.000028
2.145610 -0.909346 0.296602 128 128 255 0.846272 -0.532750 0.000024
2.221350 -0.777121 0.296468 128 128 255 0.883026 -0.469325 0.000017
2.287749 -0.641907 0.296325 128 128 255 0.906494 -0.422219 0.000009
2.348598 -0.503919 0.296172 128 128 255 0.926959 -0.375163 0.000004
2.403139 -0.356791 0.296013 128 128 255 0.949197 -0.314683 -0.000000
2.446091 -0.209834 0.295849 128 128 255 0.971698 -0.236228 -0.000004
2.476568 -0.054730 0.295681 128 128 255 0.986083 -0.166252 -0.000009
2.498113 0.098732 0.295822 128 128 255 0.990288 -0.139029 -0.000014
2.498130 0.100000 0.323483 128 128 255 0.998138 -0.060990 -0.000026
2.507709 0.256771 0.323776 128 128 255 0.999796 -0.020218 -0.000026
2.504559 0.417824 0.324066 128 128 255 0.998092 0.061750 -0.000029
2.488077 0.574128 0.324349 128 128 255 0.990057 0.140664 -0.000033
2.460070 0.730970 0.324624 128 128 255 0.974391 0.224860 -0.000036
2.415905 0.886878 0.324887 128 128 255 0.947453 0.319894 -0.000036
2.357869 1.033669 0.325137 128 128 255 0.911333 0.411669 -0.000037
2.284072 1.178724 0.325372 128 128 255 0.871995 0.489515 -0.000035
2.201782 1.311712 0.325588 128 128 255 0.825343 0.564632 -0.000030
2.105193 1.440196 0.325786 128 128 255 0.761429 0.648248 -0.000023
1.995396 1.554130 0.325961 128 128 255 0.701396 0.712772 -0.000016
1.880343 1.661456 0.326115 128 128 255 0.632835 0.774287 -0.000006
1.752581 1.752581 0.326244 128 128 255 0.555597 0.831452 0.000003
1.622528 1.833732 0.326348 128 128 255 0.491347 0.870964 0.000015
1.482861 1.904739 0.326426 128 128 255 0.413568 0.910473 0.000028
1.341793 1.961248 0.326478 128 128 255 0.330767 0.943713 0.000040
1.200795 2.003598 0.326504 128 128 255 0.254309 0.967123 0.000054
1.054550 2.036777 0.326502 128 128 255 0.190053 0.981774 0.000069
0.913132 2.059281 0.326474 128 128 255 0.122094 0.992519 0.000083
0.768651 2.071944 0.326419 128 128 255 0.057950 0.998319 0.000095
0.630787 2.075668 0.326339 128 128 255 -0.002068 0.999998 0.000105
0.491239 2.071367 0.326234 128 128 255 -0.057898 0.998322 0.000116
0.359286 2.059919 0.326105 128 128 255 -0.109714 0.993963 0.000128
0.226255 2.042116 0.325953 128 128 255 -0.157912 0.987453 0.000139
0.101111 2.018630 0.325780 128 128 255 -0.203096 0.979159 0.000147
-0.025060 1.989987 0.325587 128 128 255 -0.237721 0.971333 0.000151
-0.143455 1.958774 0.325376 128 128 255 -0.279318 0.960199 0.000156
-0.263060 1.920751 0.325150 128 128 255 -0.328596 0.944470 0.000159
-0.375057 1.878194 0.324909 128 128 255 -0.377880 0.925855 0.000163
-0.488338 1.828804 0.324657 128 128 255 -0.420156 0.907452 0.000166
-0.593925 1.776855 0.324396 128 128 255 -0.449253 0.893405 0.000169
-0.700502 1.722116 0.324127 128 128 255 -0.495668 0.868512 0.000172
-0.798855 1.659897 0.323967 128 128 255 -0.561547 0.827445 0.000173
-0.895205 1.589981 0.324169 128 128 255 -0.601678 0.798739 0.000174
-0.989006 1.516661 0.324365 128 128 255 -0.645140 0.764064 0.000175
-1.072966 1.439889 0.324555 128 128 255 -0.696357 0.717695 0.000176
-1.155306 1.355306 0.324734 128 128 255 -0.750336 0.661056 0.000177
-1.228685 1.263140 0.324903 128 128 255 -0.803085 0.595865 0.000179
-1.292469 1.170443 0.325058 128 128 255 -0.847153 0.531350 0.000180
-1.350545 1.068855 0.325198 128 128 255 -0.878730 0.477319 0.000181
-1.402476 0.967924 0.325322 128 128 255 -0.912277 0.409574 0.000183
-1.443528 0.861747 0.325427 128 128 255 -0.947264 0.320455 0.000183
-1.475809 0.751150 0.325513 128 128 255 -0.968726 0.248132 0.000183
-1.499390 0.643654 0.325579 128 128 255 -0.984855 0.173378 0.000185
-1.514528 0.531203 0.325623 128 128 255 -0.994926 0.100608 0.000187
-1.521655 0.423457 0.325645 128 128 255 -0.999514 0.031160 0.000189
-1.521354 0.312198 0.325644 128 128 255 -0.999428 -0.033809 0.000189
-1.514326 0.206847 0.325620 128 128 255 -0.995539 -0.094352 0.000192
-1.501347 0.101111 0.325573 128 128 255 -0.989375 -0.145388 0.000193
-1.483222 -0.004808 0.325504 128 128 255 -0.980996 -0.194030 0.000192
-1.460734 -0.104217 0.325411 128 128 255 -0.972050 -0.234772 0.000194
-1.434595 -0.206140 0.325297 128 128 255 -0.963011 -0.269462 0.000193
-1.405402 -0.301962 0.325161 128 128 255 -0.950117 -0.311892 0.000194
-1.371373 -0.398730 0.325005 128 128 255 -0.943914 -0.330191 0.000196
-1.337216 -0.496886 0.324830 128 128 255 -0.938256 -0.345942 0.000194
-1.300769 -0.590219 0.324637 128 128 255 -0.934035 -0.357182 0.000194
-1.264116 -0.688042 0.324429 128 128 255 -0.925701 -0.378255 0.000194
-1.222484 -0.781802 0.324207 128 128 255 -0.910350 -0.413839 0.000192
-1.177595 -0.878369 0.323972 128 128 255 -0.898248 -0.439488 0.000190
-1.126595 -0.977781 0.323728 128 128 255 -0.881464 -0.472251 0.000189
-1.073207 -1.073207 0.323476 128 128 255 -0.871531 -0.490341 0.000184
-1.016670 -1.173162 0.323219 128 128 255 -0.851512 -0.524335 0.000179
-0.951790 -1.270383 0.322960 128 128 255 -0.808865 -0.587994 0.000177
-0.877890 -1.364068 0.322700 128 128 255 -0.778210 -0.628004 0.000171
-0.798855 -1.459897 0.322667 128 128 255 -0.746906 -0.664929 0.000164
-0.714286 -1.547845 0.322889 128 128 255 -0.690787 -0.723058 0.000157
-0.617319 -1.633333 0.323112 128 128 255 -0.646333 -0.763055 0.000150
-0.516866 -1.715067 0.323333 128 128 255 -0.584221 -0.811594 0.000141
-0.406515 -1.785082 0.323549 128 128 255 -0.502480 -0.864589 0.000132
-0.286752 -1.848806 0.323759 128 128 255 -0.444951 -0.895555 0.000123
-0.164942 -1.905107 0.323961 128 128 255 -0.365982 -0.930622 0.000114
-0.033086 -1.948565 0.324152 128 128 255 -0.275165 -0.961397 0.000105
0.098889 -1.980619 0.324331 128 128 255 -0.189892 -0.981805 0.000096
0.236504 -2.000706 0.324495 128 128 255 -0.099194 -0.995068 0.000089
0.378554 -2.008497 0.324644 128 128 255 -0.011370 -0.999935 0.000082
0.517159 -2.003897 0.324776 128 128 255 0.076026 -0.997106 0.000077
0.660033 -1.987034 0.324889 128 128 255 0.160916 -0.986968 0.000070
0.797190 -1.958239 0.324984 128 128 255 0.242201 -0.970226 0.000065
0.936537 -1.918007 0.325058 128 128 255 0.325967 -0.945381 0.000061
1.068341 -1.864743 0.325111 128 128 255 0.397305 -0.917687 0.000058
1.200795 -1.803598 0.325144 128 128 255 0.450996 -0.892526 0.000056
1.324467 -1.735319 0.325155 128 128 255 0.512357 -0.858773 0.000053
1.447841 -1.656204 0.325145 128 128 255 0.578686 -0.815551 0.000051
1.561741 -1.566952 0.325114 128 128 255 0.624121 -0.781327 0.000048
1.674860 -1.474860 0.325064 128 128 255 0.670087 -0.742283 0.000045
1.778164 -1.371574 0.324993 128 128 255 0.712029 -0.702151 0.000043
1.880411 -1.266416 0.324904 128 128 255 0.743365 -0.668886 0.000039
1.974781 -1.153058 0.324798 128 128 255 0.792397 -0.610006 0.000035
2.061059 -1.031749 0.324676 128 128 255 0.818868 -0.573981 0.000029
2.145609 -0.909346 0.324538 128 128 255 0.846272 -0.532750 0.000024
2.221350 -0.777120 0.324388 128 128 255 0.883026 -0.469325 0.000020
2.287749 -0.641907 0.324226 128 128 255 0.906494 -0.422220 0.000014
2.348598 -0.503919 0.324055 128 128 255 0.926959 -0.375163 0.000005
2.403139 -0.356791 0.323876 128 128 255 0.949197 -0.314683 -0.000001
2.446091 -0.209834 0.323692 128 128 255 0.971698 -0.236227 -0.000009
2.476569 -0.054730 0.323504 128 128 255 0.986083 -0.166253 -0.000014
2.498114 0.098732 0.323651 128 128 255 0.990288 -0.139030 -0.000017
2.498130 0.100000 0.351298 128 128 255 0.998138 -0.060991 -0.000028
2.507710 0.256771 0.351606 128 128 255 0.999796 -0.020221 -0.000033
2.504560 0.417824 0.351911 128 128 255 0.998092 0.061747 -0.000036
2.488078 0.574128 0.352208 128 128 255 0.990058 0.140662 -0.000041
2.460071 0.730970 0.352497 128 128 255 0.974392 0.224858 -0.000044
2.415906 0.886878 0.352774 128 128 255 0.947454 0.319891 -0.000045
2.357870 1.033669 0.353036 128 128 255 0.911334 0.411667 -0.000044
2.284073 1.178725 0.353281 128 128 255 0.871996 0.489513 -0.000040
2.201783 1.311713 0.353508 128 128 255 0.825343 0.564631 -0.000037
2.105194 1.440196 0.353714 128 128 255 0.761430 0.648247 -0.000030
1.995396 1.554130 0.353898 128 128 255 0.701395 0.712772 -0.000021
1.880343 1.661456 0.354058 128 128 255 0.632835 0.774287 -0.000010
1.752581 1.752581 0.354192 128 128 255 0.555596 0.831452 0.000003
1.622528 1.833732 0.354299 128 128 255 0.491346 0.870964 0.000014
1.482860 1.904738 0.354380 128 128 255 0.413567 0.910474 0.000029
1.341792 1.961247 0.354432 128 128 255 0.330765 0.943713 0.000044
1.200794 2.003596 0.354456 128 128 255 0.254307 0.967124 0.000060
1.054549 2.036775 0.354452 128 128 255 0.190050 0.981774 0.000073
0.913131 2.059278 0.354419 128 128 255 0.122091 0.992519 0.000089
0.768650 2.071941 0.354359 128 128 255 0.057947 0.998320 0.000103
0.630787 2.075665 0.354271 128 128 255 -0.002071 0.999998 0.000118
0.491239 2.071364 0.354158 128 128 255 -0.057901 0.998322 0.000129
0.359285 2.059915 0.354018 128 128 255 -0.109717 0.993963 0.000140
0.226254 2.042112 0.353855 128 128 255 -0.157915 0.987453 0.000150
0.101111 2.018625 0.353670 128 128 255 -0.203098 0.979158 0.000161
-0.025060 1.989982 0.353464 128 128 255 -0.237723 0.971333 0.000168
-0.143454 1.958770 0.353239 128 128 255 -0.279320 0.960198 0.000175
-0.263059 1.920747 0.352997 128 128 255 -0.328598 0.944470 0.000180
-0.375056 1.878189 0.352741 128 128 255 -0.377882 0.925854 0.000183
-0.488337 1.828800 0.352473 128 128 255 -0.420158 0.907451 0.000187
-0.593923 1.776850 0.352195 128 128 255 -0.449254 0.893404 0.000189
-0.700500 1.722111 0.351910 128 128 255 -0.495670 0.868511 0.000191
-0.798852 1.659893 0.351740 128 128 255 -0.561547 0.827445 0.000193
-0.895202 1.589977 0.351957 128 128 255 -0.601677 0.798739 0.000195
-0.989002 1.516656 0.352168 128 128 255 -0.645139 0.764065 0.000196
-1.072962 1.439885 0.352372 128 128 255 -0.696356 0.717696 0.000198
-1.155302 1.355302 0.352566 128 128 255 -0.750335 0.661058 0.000199
-1.228681 1.263137 0.352749 128 128 255 -0.803084 0.595866 0.000199
-1.292465 1.170440 0.352917 128 128 255 -0.847152 0.531351 0.000200
-1.350541 1.068852 0.353069 128 128 255 -0.878730 0.477320 0.000202
-1.402471 0.967922 0.353204 128 128 255 -0.912276 0.409576 0.000203
-1.443523 0.861744 0.353320 128 128 255 -0.947263 0.320456 0.000206
-1.475804 0.751148 0.353415 128 128 255 -0.968726 0.248133 0.000208
-1.499385 0.643652 0.353489 128 128 255 -0.984855 0.173378 0.000209
-1.514523 0.531201 0.353540 128 128 255 -0.994926 0.100608 0.000209
-1.521650 0.423456 0.353567 128 128 255 -0.999514 0.031160 0.000211
-1.521349 0.312197 0.353570 128 128 255 -0.999428 -0.033809 0.000213
-1.514320 0.206846 0.353549 128 128 255 -0.995539 -0.094352 0.000213
-1.501342 0.101111 0.353503 128 128 255 -0.989375 -0.145389 0.000215
-1.483217 -0.004808 0.353433 128 128 255 -0.980996 -0.194030 0.000217
-1.460729 -0.104216 0.353338 128 128 255 -0.972050 -0.234773 0.000217
-1.434590 -0.206139 0.353220 128 128 255 -0.963011 -0.269462 0.000219
-1.405396 -0.301961 0.353080 128 128 255 -0.950117 -0.311893 0.000217
-1.371368 -0.398728 0.352918 128 128 255 -0.943914 -0.330192 0.000218
-1.337210 -0.496883 0.352736 128 128 255 -0.938256 -0.345942 0.000219
-1.300763 -0.590217 0.352535 128 128 255 -0.934035 -0.357182 0.000217
-1.264111 -0.688040 0.352317 128 128 255 -0.925701 -0.378256 0.000216
-1.222479 -0.781798 0.352084 128 128 255 -0.910351 -0.413838 0.000215
-1.177590 -0.878366 0.351838 128 128 255 -0.898248 -0.439488 0.000213
-1.126591 -0.977777 0.351581 128 128 255 -0.881464 -0.472251 0.000210
-1.073203 -1.073203 0.351317 128 128 255 -0.871531 -0.490340 0.000206
-1.016666 -1.173158 0.351046 128 128 255 -0.851512 -0.524335 0.000202
-0.951787 -1.270379 0.350773 128 128 255 -0.808865 -0.587994 0.000198
-0.877887 -1.364064 0.350499 128 128 255 -0.778211 -0.628003 0.000192
-0.798852 -1.459893 0.350467 128 128 255 -0.746909 -0.664927 0.000183
-0.714284 -1.547840 0.350707 128 128 255 -0.690790 -0.723055 0.000177
-0.617317 -1.633329 0.350946 128 128 255 -0.646336 -0.763053 0.000167
-0.516865 -1.715063 0.351184 128 128 255 -0.584226 -0.811591 0.000158
-0.406514 -1.785078 0.351417 128 128 255 -0.502485 -0.864586 0.000149
-0.286751 -1.848802 0.351642 128 128 255 -0.444955 -0.895553 0.000136
-0.164942 -1.905103 0.351859 128 128 255 -0.365988 -0.930620 0.000126
-0.033086 -1.948562 0.352063 128 128 255 -0.275169 -0.961396 0.000117
0.098889 -1.980616 0.352255 128 128 255 -0.189896 -0.981804 0.000106
0.236503 -2.000704 0.352431 128 128 255 -0.099198 -0.995068 0.000097
0.378553 -2.008495 0.352590 128 128 255 -0.011373 -0.999935 0.000090
0.517159 -2.003895 0.352730 128 128 255 0.076023 -0.997106 0.000085
0.660032 -1.987032 0.352851 128 128 255 0.160913 -0.986969 0.000078
0.797189 -1.958237 0.352951 128 128 255 0.242199 -0.970227 0.000074
0.936536 -1.918006 0.353029 128 128 255 0.325965 -0.945382 0.000069
1.068340 -1.864741 0.353085 128 128 255 0.397303 -0.917687 0.000064
1.200794 -1.803596 0.353119 128 128 255 0.450996 -0.892526 0.000061
1.324466 -1.735317 0.353129 128 128 255 0.512356 -0.858773 0.000059
1.447840 -1.656202 0.353117 128 128 255 0.578685 -0.815551 0.000056
1.561740 -1.566951 0.353082 128 128 255 0.624121 -0.781328 0.000053
1.674859 -1.474859 0.353026 128 128 255 0.670086 -0.742283 0.000051
1.778163 -1.371573 0.352948 128 128 255 0.712028 -0.702151 0.000046
1.880411 -1.266416 0.352851 128 128 255 0.743365 -0.668886 0.000043
1.974781 -1.153057 0.352734 128 128 255 0.792397 -0.610006 0.000038
2.061059 -1.031748 0.352601 128 128 255 0.818868 -0.573982 0.000034
2.145608 -0.909346 0.352451 128 128 255 0.846273 -0.532750 0.000025
2.221349 -0.777120 0.352287 128 128 255 0.883026 -0.469325 0.000017
2.287748 -0.641906 0.352111 128 128 255 0.906493 -0.422220 0.000013
2.348597 -0.503919 0.351925 128 128 255 0.926959 -0.375164 0.000007
2.403139 -0.356791 0.351730 128 128 255 0.949197 -0.314682 -0.000004
2.446091 -0.209834 0.351529 128 128 255 0.971698 -0.236227 -0.000013
2.476569 -0.054730 0.351325 128 128 255 0.986083 -0.166253 -0.000020
2.498115 0.098732 0.351477 128 128 255 0.990288 -0.139032 -0.000023
2.498131 0.100000 0.379113 128 128 255 0.998138 -0.060992 -0.000031
2.507711 0.256771 0.379432 128 128 255 0.999795 -0.020224 -0.000036
2.504561 0.417824 0.379746 128 128 255 0.998092 0.061744 -0.000043
2.488079 0.574128 0.380054 128 128 255 0.990058 0.140659 -0.000047
2.460072 0.730971 0.380352 128 128 255 0.974392 0.224854 -0.000052
2.415907 0.886878 0.380638 128 128 255 0.947455 0.319889 -0.000053
2.357871 1.033669 0.380908 128 128 255 0.911335 0.411665 -0.000051
2.284074 1.178725 0.381162 128 128 255 0.871996 0.489512 -0.000047
2.201784 1.311713 0.381395 128 128 255 0.825344 0.564630 -0.000040
2.105195 1.440197 0.381608 128 128 255 0.761431 0.648246 -0.000034
1.995397 1.554131 0.381796 128 128 255 0.701395 0.712773 -0.000025
1.880344 1.661456 0.381960 128 128 255 0.632835 0.774287 -0.000014
1.752581 1.752581 0.382097 128 128 255 0.555595 0.831453 0.000000
1.622527 1.833732 0.382207 128 128 255 0.491345 0.870965 0.000015
1.482860 1.904737 0.382288 128 128 255 0.413565 0.910474 0.000030
1.341792 1.961246 0.382340 128 128 255 0.330762 0.943714 0.000047
1.200794 2.003595 0.382363 128 128 255 0.254304 0.967124 0.000065
1.054548 2.036773 0.382356 128 128 255 0.190047 0.981775 0.000081
0.913130 2.059276 0.382320 128 128 255 0.122088 0.992519 0.000098
0.768649 2.071938 0.382255 128 128 255 0.057944 0.998320 0.000113
0.630786 2.075661 0.382162 128 128 255 -0.002074 0.999998 0.000130
0.491238 2.071360 0.382041 128 128 255 -0.057904 0.998322 0.000142
0.359285 2.059911 0.381894 128 128 255 -0.109720 0.993963 0.000155
0.226254 2.042107 0.381723 128 128 255 -0.157918 0.987452 0.000166
0.101111 2.018621 0.381528 128 128 255 -0.203101 0.979158 0.000176
-0.025060 1.989977 0.381312 128 128 255 -0.237725 0.971332 0.000184
-0.143454 1.958764 0.381076 128 128 255 -0.279323 0.960197 0.000191
-0.263058 1.920742 0.380824 128 128 255 -0.328601 0.944469 0.000197
-0.375054 1.878184 0.380556 128 128 255 -0.377884 0.925853 0.000203
-0.488335 1.828794 0.380276 128 128 255 -0.420160 0.907450 0.000206
-0.593921 1.776845 0.379986 128 128 255 -0.449255 0.893404 0.000210
-0.700498 1.722106 0.379689 128 128 255 -0.495672 0.868510 0.000211
-0.798849 1.659888 0.379513 128 128 255 -0.561548 0.827444 0.000213
-0.895199 1.589972 0.379740 128 128 255 -0.601677 0.798740 0.000215
-0.988999 1.516652 0.379962 128 128 255 -0.645138 0.764066 0.000216
-1.072959 1.439881 0.380177 128 128 255 -0.696356 0.717697 0.000217
-1.155298 1.355298 0.380381 128 128 255 -0.750334 0.661059 0.000219
-1.228677 1.263133 0.380573 128 128 255 -0.803083 0.595867 0.000221
-1.292460 1.170436 0.380751 128 128 255 -0.847151 0.531352 0.000222
-1.350536 1.068848 0.380912 128 128 255 -0.878730 0.477320 0.000224
-1.402466 0.967919 0.381056 128 128 255 -0.912275 0.409577 0.000226
-1.443517 0.861742 0.381179 128 128 255 -0.947263 0.320457 0.000227
-1.475798 0.751146 0.381281 128 128 255 -0.968726 0.248133 0.000229
-1.499379 0.643650 0.381361 128 128 255 -0.984855 0.173379 0.000232
-1.514517 0.531200 0.381417 128 128 255 -0.994926 0.100608 0.000232
-1.521644 0.423455 0.381448 128 128 255 -0.999514 0.031160 0.000233
-1.521342 0.312196 0.381454 128 128 255 -0.999428 -0.033810 0.000236
-1.514314 0.206846 0.381435 128 128 255 -0.995539 -0.094353 0.000237
-1.501335 0.101111 0.381390 128 128 255 -0.989375 -0.145389 0.000237
-1.483210 -0.004807 0.381320 128 128 255 -0.980995 -0.194031 0.000238
-1.460722 -0.104216 0.381225 128 128 255 -0.972050 -0.234773 0.000240
-1.434583 -0.206138 0.381105 128 128 255 -0.963011 -0.269463 0.000241
-1.405390 -0.301959 0.380961 128 128 255 -0.950117 -0.311893 0.000243
-1.371362 -0.398726 0.380795 128 128 255 -0.943914 -0.330192 0.000241
-1.337204 -0.496881 0.380608 128 128 255 -0.938256 -0.345942 0.000241
-1.300758 -0.590214 0.380402 128 128 255 -0.934035 -0.357181 0.000241
-1.264106 -0.688036 0.380177 128 128 255 -0.925701 -0.378256 0.000240
-1.222473 -0.781795 0.379937 128 128 255 -0.910351 -0.413838 0.000238
-1.177585 -0.878362 0.379683 128 128 255 -0.898248 -0.439488 0.000235
-1.126586 -0.977773 0.379418 128 128 255 -0.881464 -0.472251 0.000233
-1.073199 -1.073199 0.379145 128 128 255 -0.871532 -0.490338 0.000227
-1.016662 -1.173153 0.378865 128 128 255 -0.851512 -0.524335 0.000222
-0.951783 -1.270374 0.378582 128 128 255 -0.808865 -0.587994 0.000219
-0.877884 -1.364059 0.378299 128 128 255 -0.778213 -0.628001 0.000211
-0.798849 -1.459888 0.378267 128 128 255 -0.746911 -0.664924 0.000202
-0.714281 -1.547835 0.378520 128 128 255 -0.690794 -0.723052 0.000194
-0.617316 -1.633324 0.378773 128 128 255 -0.646339 -0.763050 0.000183
-0.516863 -1.715058 0.379023 128 128 255 -0.584231 -0.811587 0.000173
-0.406513 -1.785074 0.379268 128 128 255 -0.502489 -0.864584 0.000163
-0.286750 -1.848798 0.379505 128 128 255 -0.444959 -0.895551 0.000150
-0.164941 -1.905100 0.379732 128 128 255 -0.365993 -0.930618 0.000138
-0.033086 -1.948558 0.379947 128 128 255 -0.275174 -0.961395 0.000129
0.098889 -1.980613 0.380148 128 128 255 -0.189901 -0.981803 0.000118
0.236503 -2.000701 0.380333 128 128 255 -0.099202 -0.995067 0.000106
