ply
format ascii 1.0
element vertex 701
property float x
property float y
property float z
property uchar red
property uchar green
property uchar blue
property float nx
property float ny
property float nz
end_header
0.974574 0.974574 0.185385 128 128 255 -0.102257 -0.101484 0.989568
1.000216 1.000216 0.190678 128 128 255 -0.107496 -0.107137 0.988416
1.025609 1.025609 0.196531 128 128 255 -0.115341 -0.115021 0.986644
1.050746 1.050746 0.202553 128 128 255 -0.120804 -0.121703 0.985188
1.075621 1.075621 0.208741 128 128 255 -0.121030 -0.123113 0.984985
1.102447 1.102447 0.215094 128 128 255 -0.124757 -0.126449 0.984097
1.126772 1.126772 0.221609 128 128 255 -0.134228 -0.135565 0.981634
1.150812 1.150812 0.228283 128 128 255 -0.138873 -0.140332 0.980317
1.174559 1.174559 0.235116 128 128 255 -0.142810 -0.143806 0.979247
1.198005 1.198005 0.242105 128 128 255 -0.146930 -0.147429 0.978098
1.221143 1.221143 0.249249 128 128 255 -0.157363 -0.156698 0.975030
1.241744 1.241744 0.256546 128 128 255 -0.162596 -0.161950 0.973311
1.264243 1.264243 0.263995 128 128 255 -0.162370 -0.162981 0.973177
1.286412 1.286412 0.271595 128 128 255 -0.168850 -0.170080 0.970856
1.308244 1.308244 0.279345 128 128 255 -0.174509 -0.175762 0.968842
1.329729 1.329729 0.287245 128 128 255 -0.175036 -0.178140 0.968312
1.353085 1.353085 0.295294 128 128 255 -0.182101 -0.185857 0.965555
1.373857 1.373857 0.303492 128 128 255 -0.193917 -0.195854 0.961269
1.394262 1.394262 0.311840 128 128 255 -0.199092 -0.200366 0.959279
1.414292 1.414292 0.320338 128 128 255 -0.205931 -0.207173 0.956385
1.433939 1.433939 0.328986 128 128 255 -0.213066 -0.214268 0.953253
1.453195 1.453195 0.337785 128 128 255 -0.220521 -0.221674 0.949858
1.472053 1.472053 0.346737 128 128 255 -0.233967 -0.232149 0.944122
1.488284 1.488284 0.355843 128 128 255 -0.242483 -0.240546 0.939861
1.506324 1.506324 0.365104 128 128 255 -0.245291 -0.246214 0.937663
1.523943 1.523943 0.374523 128 128 255 -0.254274 -0.255123 0.932876
1.541134 1.541134 0.384100 128 128 255 -0.263705 -0.264477 0.927638
1.557889 1.557889 0.393839 128 128 255 -0.273614 -0.274306 0.921896
1.574201 1.574201 0.403740 128 128 255 -0.284030 -0.284640 0.915591
1.590061 1.590061 0.413808 128 128 255 -0.285344 -0.288345 0.914022
1.607685 1.607685 0.424043 128 128 255 -0.298648 -0.302528 0.905144
1.622620 1.622620 0.434449 128 128 255 -0.320942 -0.322247 0.890591
1.637081 1.637081 0.445028 128 128 255 -0.333943 -0.334443 0.881266
1.651060 1.651060 0.456022 128 128 255 -0.353302 -0.353840 0.866011
1.664549 1.664549 0.467461 128 128 255 -0.370310 -0.370762 0.851708
1.677541 1.677541 0.479074 128 128 255 -0.384683 -0.385221 0.838823
1.690029 1.690029 0.490858 128 128 255 -0.399625 -0.400242 0.824685
1.702003 1.702003 0.502810 128 128 255 -0.415148 -0.415836 0.809155
1.713457 1.713457 0.514929 128 128 255 -0.427126 -0.426743 0.797154
1.724383 1.724383 0.527212 128 128 255 -0.463937 -0.461093 0.756409
1.732550 1.732550 0.539657 128 128 255 -0.486389 -0.484674 0.726992
1.742396 1.742396 0.552262 128 128 255 -0.479007 -0.478594 0.735867
1.751690 1.751690 0.565025 128 128 255 -0.497177 -0.496745 0.711378
1.760426 1.760426 0.577944 128 128 255 -0.520170 -0.521009 0.676736
1.768594 1.768594 0.591019 128 128 255 -0.539140 -0.539977 0.646338
1.776187 1.776187 0.604248 128 128 255 -0.558280 -0.559101 0.612968
1.783198 1.783198 0.617629 128 128 255 -0.577409 -0.578204 0.576436
1.789619 1.789619 0.631162 128 128 255 -0.596317 -0.597073 0.536573
1.795442 1.795442 0.644847 128 128 255 -0.614745 -0.615452 0.493262
1.800659 1.800659 0.658682 128 128 255 -0.632397 -0.633045 0.446461
1.805263 1.805263 0.672669 128 128 255 -0.648944 -0.649524 0.396220
1.809245 1.809245 0.686806 128 128 255 -0.664036 -0.664541 0.342697
1.812598 1.812598 0.701094 128 128 255 -0.677321 -0.677747 0.286175
1.815315 1.815315 0.715534 128 128 255 -0.688463 -0.688807 0.227074
1.817387 1.817387 0.730127 128 128 255 -0.697173 -0.697435 0.165931
1.818808 1.818808 0.744873 128 128 255 -0.703225 -0.703407 0.103408
1.819568 1.819568 0.759774 128 128 255 -0.706481 -0.706588 0.040227
1.819661 1.819661 0.774830 128 128 255 -0.706902 -0.706942 -0.022854
1.819078 1.819078 0.790045 128 128 255 -0.704552 -0.704534 -0.085079
1.817813 1.817813 0.805418 128 128 255 -0.699589 -0.699524 -0.145743
1.815857 1.815857 0.820953 128 128 255 -0.692252 -0.692151 -0.204243
1.813203 1.813203 0.836652 128 128 255 -0.682834 -0.682709 -0.260089
1.809842 1.809842 0.852515 128 128 255 -0.671663 -0.671528 -0.312919
1.805768 1.805768 0.868546 128 128 255 -0.659080 -0.658947 -0.362495
1.800973 1.800973 0.884746 128 128 255 -0.646547 -0.646554 -0.404901
1.795455 1.795455 0.901461 128 128 255 -0.646925 -0.634521 -0.422932
0.100000 0.100000 0.101937 128 128 255 0.019568 -0.026647 0.999453
0.127905 0.133042 0.102308 128 128 255 0.002070 -0.016762 0.999857
0.154693 0.164967 0.102850 128 128 255 -0.004284 -0.016455 0.999855
0.181468 0.196877 0.103560 128 128 255 -0.008427 -0.018783 0.999788
0.208225 0.226542 0.104436 128 128 255 -0.011023 -0.021737 0.999703
0.232732 0.258397 0.105474 128 128 255 -0.014774 -0.023886 0.999606
0.259428 0.290212 0.106672 128 128 255 -0.016934 -0.026085 0.999516
0.286083 0.321978 0.108028 128 128 255 -0.019108 -0.028197 0.999420
0.312690 0.355910 0.109540 128 128 255 -0.022479 -0.030627 0.999278
0.339242 0.387553 0.111205 128 128 255 -0.023852 -0.033867 0.999142
0.367955 0.419123 0.113021 128 128 255 -0.026303 -0.037004 0.998969
0.394375 0.450610 0.114987 128 128 255 -0.030634 -0.040674 0.998703
0.420719 0.479783 0.117102 128 128 255 -0.032374 -0.043640 0.998523
0.446979 0.511078 0.119363 128 128 255 -0.035596 -0.045735 0.998319
0.473148 0.542265 0.121771 128 128 255 -0.038839 -0.047368 0.998122
0.496997 0.573335 0.124324 128 128 255 -0.041380 -0.050122 0.997886
0.522962 0.606502 0.127022 128 128 255 -0.042554 -0.052619 0.997708
0.548815 0.637312 0.129865 128 128 255 -0.046015 -0.056003 0.997370
0.574547 0.667979 0.132853 128 128 255 -0.046453 -0.059171 0.997166
0.602375 0.698495 0.135987 128 128 255 -0.049412 -0.063954 0.996729
0.627847 0.726628 0.139266 128 128 255 -0.052961 -0.067597 0.996306
0.653177 0.756815 0.142692 128 128 255 -0.054622 -0.069419 0.996091
0.678359 0.786826 0.146266 128 128 255 -0.059764 -0.072005 0.995612
0.703385 0.816651 0.149989 128 128 255 -0.064403 -0.074839 0.995114
0.726026 0.846281 0.153864 128 128 255 -0.066187 -0.077341 0.994805
0.750719 0.877932 0.157891 128 128 255 -0.068215 -0.080028 0.994456
0.775236 0.907150 0.162073 128 128 255 -0.073120 -0.086103 0.993599
0.799569 0.936149 0.166412 128 128 255 -0.072457 -0.089095 0.993384
0.823710 0.964920 0.170910 128 128 255 -0.077836 -0.095848 0.992348
0.847654 0.991233 0.175570 128 128 255 -0.080123 -0.098869 0.991870
0.873616 1.019524 0.180395 128 128 255 -0.081838 -0.100710 0.991544
0.897143 1.047563 0.185386 128 128 255 -0.091333 -0.108357 0.989908
0.920452 1.075342 0.190672 128 128 255 -0.096853 -0.113992 0.988749
0.943536 1.105074 0.196536 128 128 255 -0.105254 -0.122801 0.986834
0.966387 1.132306 0.202569 128 128 255 -0.113467 -0.132020 0.984731
0.986776 1.159254 0.208768 128 128 255 -0.115945 -0.136380 0.983848
1.009142 1.185909 0.215131 128 128 255 -0.115349 -0.138729 0.983590
1.031255 1.212262 0.221656 128 128 255 -0.122958 -0.148460 0.981245
1.053108 1.236083 0.228340 128 128 255 -0.127270 -0.153695 0.979888
1.074695 1.261809 0.235181 128 128 255 -0.129047 -0.156427 0.979223
1.096008 1.287210 0.242179 128 128 255 -0.131722 -0.160006 0.978288
1.119264 1.312276 0.249330 128 128 255 -0.136174 -0.165393 0.976781
1.140010 1.337001 0.256634 128 128 255 -0.143615 -0.171931 0.974584
1.160464 1.363598 0.264089 128 128 255 -0.147730 -0.176305 0.973187
1.180616 1.387615 0.271694 128 128 255 -0.153473 -0.183890 0.970892
1.200462 1.411266 0.279448 128 128 255 -0.158599 -0.190018 0.968886
1.219993 1.434543 0.287351 128 128 255 -0.165855 -0.197405 0.966190
1.236982 1.457437 0.295402 128 128 255 -0.172578 -0.206159 0.963180
1.255865 1.477719 0.303602 128 128 255 -0.177726 -0.214362 0.960449
1.274414 1.499825 0.311950 128 128 255 -0.178797 -0.215593 0.959975
1.292621 1.521524 0.320446 128 128 255 -0.187466 -0.224349 0.956307
1.310481 1.542808 0.329093 128 128 255 -0.193928 -0.232026 0.953182
1.327986 1.563669 0.337889 128 128 255 -0.200680 -0.240041 0.949794
1.345129 1.584100 0.346837 128 128 255 -0.200988 -0.242587 0.949081
1.364125 1.606313 0.355938 128 128 255 -0.212650 -0.255682 0.943084
1.380524 1.625857 0.365194 128 128 255 -0.222670 -0.266174 0.937854
1.396541 1.644944 0.374605 128 128 255 -0.230807 -0.275822 0.933086
1.412168 1.663568 0.384176 128 128 255 -0.239352 -0.285954 0.927869
1.427399 1.681720 0.393906 128 128 255 -0.248333 -0.296604 0.922148
1.442227 1.699391 0.403799 128 128 255 -0.257776 -0.307803 0.915865
1.456645 1.716573 0.413858 128 128 255 -0.274040 -0.326102 0.904743
1.470645 1.731036 0.424084 128 128 255 -0.280253 -0.335327 0.899452
1.482000 1.747216 0.434480 128 128 255 -0.293829 -0.352364 0.888541
1.495145 1.762882 0.445049 128 128 255 -0.300116 -0.359891 0.883408
1.507853 1.778027 0.456045 128 128 255 -0.321561 -0.383642 0.865689
1.520115 1.792640 0.467497 128 128 255 -0.337138 -0.402176 0.851230
1.531926 1.806715 0.479123 128 128 255 -0.350205 -0.417813 0.838325
1.543277 1.820243 0.490919 128 128 255 -0.363784 -0.434056 0.824170
1.554162 1.833216 0.502883 128 128 255 -0.377886 -0.450915 0.808627
1.564574 1.845624 0.515014 128 128 255 -0.386833 -0.464339 0.796712
1.574506 1.859683 0.527307 128 128 255 -0.395777 -0.477852 0.784231
1.583950 1.870939 0.539763 128 128 255 -0.432625 -0.515292 0.739803
1.592901 1.881605 0.552377 128 128 255 -0.432312 -0.513521 0.741217
1.603572 1.891674 0.565149 128 128 255 -0.448700 -0.532990 0.717349
1.611513 1.901138 0.578076 128 128 255 -0.474756 -0.562580 0.676839
1.618938 1.909987 0.591157 128 128 255 -0.492048 -0.583059 0.646476
1.625841 1.918213 0.604391 128 128 255 -0.509496 -0.603712 0.613144
1.632214 1.925809 0.617777 128 128 255 -0.526941 -0.624351 0.576645
1.638051 1.932765 0.631313 128 128 255 -0.547467 -0.650143 0.526872
1.643344 1.939073 0.645000 128 128 255 -0.558708 -0.666532 0.493538
1.648086 1.944725 0.658836 128 128 255 -0.574758 -0.685611 0.446756
1.652271 1.949712 0.672822 128 128 255 -0.589808 -0.703490 0.396521
1.655891 1.954026 0.686958 128 128 255 -0.603537 -0.719790 0.342994
1.658940 1.957659 0.701243 128 128 255 -0.615627 -0.734132 0.286452
1.661409 1.960602 0.715679 128 128 255 -0.625770 -0.746151 0.227312
1.663293 1.962847 0.730267 128 128 255 -0.633700 -0.755532 0.166119
1.664584 1.964386 0.745006 128 128 255 -0.639211 -0.762031 0.103528
1.665275 1.965210 0.759900 128 128 255 -0.642176 -0.765499 0.040266
1.665360 1.965310 0.774948 128 128 255 -0.642558 -0.765895 -0.022899
1.664830 1.964679 0.790154 128 128 255 -0.640414 -0.763288 -0.085215
1.663680 1.963308 0.805518 128 128 255 -0.635890 -0.757850 -0.145974
1.661902 1.961189 0.821042 128 128 255 -0.629200 -0.749842 -0.204560
1.659489 1.958314 0.836729 128 128 255 -0.620615 -0.739584 -0.260486
1.656435 1.954673 0.852581 128 128 255 -0.610434 -0.727434 -0.313383
1.652731 1.950260 0.868599 128 128 255 -0.598968 -0.713763 -0.363015
1.648372 1.945065 0.884787 128 128 255 -0.587500 -0.700402 -0.405316
1.643356 1.939087 0.901505 128 128 255 -0.595957 -0.682511 -0.423100
0.100000 0.100000 0.101974 128 128 255 0.020206 -0.024010 0.999507
0.125020 0.135256 0.102351 128 128 255 0.002232 -0.015802 0.999873
0.148923 0.169394 0.102898 128 128 255 -0.004040 -0.016084 0.999862
0.172816 0.203516 0.103614 128 128 255 -0.007930 -0.018782 0.999792
0.196691 0.235392 0.104494 128 128 255 -0.010859 -0.021451 0.999711
0.220543 0.269455 0.105537 128 128 255 -0.014120 -0.023674 0.999620
0.242142 0.303476 0.106740 128 128 255 -0.016908 -0.026282 0.999512
0.265927 0.337444 0.108100 128 128 255 -0.018477 -0.028874 0.999412
0.289670 0.373574 0.109615 128 128 255 -0.019947 -0.032076 0.999286
0.313363 0.407412 0.111282 128 128 255 -0.022716 -0.035715 0.999104
0.337000 0.441170 0.113101 128 128 255 -0.023862 -0.039114 0.998950
0.362798 0.474839 0.115069 128 128 255 -0.025959 -0.042923 0.998741
0.386306 0.506189 0.117185 128 128 255 -0.029585 -0.045684 0.998518
0.409738 0.539654 0.119447 128 128 255 -0.031774 -0.047071 0.998386
0.433090 0.573003 0.121854 128 128 255 -0.034023 -0.049509 0.998194
0.456353 0.608449 0.124407 128 128 255 -0.037466 -0.052900 0.997897
0.477301 0.641539 0.127103 128 128 255 -0.039713 -0.056182 0.997630
0.500370 0.674485 0.129944 128 128 255 -0.041393 -0.060151 0.997331
0.523332 0.707278 0.132929 128 128 255 -0.043800 -0.064529 0.996954
0.546180 0.737687 0.136059 128 128 255 -0.044920 -0.067710 0.996693
0.568909 0.770148 0.139334 128 128 255 -0.047350 -0.070797 0.996366
0.591512 0.802428 0.142756 128 128 255 -0.048904 -0.072034 0.996203
0.616204 0.834518 0.146325 128 128 255 -0.051255 -0.074676 0.995890
0.638536 0.868633 0.150043 128 128 255 -0.054518 -0.078811 0.995398
0.660722 0.900318 0.153911 128 128 255 -0.059126 -0.083972 0.994712
0.682757 0.931787 0.157932 128 128 255 -0.060293 -0.086757 0.994403
0.704633 0.963030 0.162107 128 128 255 -0.065577 -0.093696 0.993439
0.724124 0.991817 0.166439 128 128 255 -0.068561 -0.097850 0.992837
0.745666 1.022583 0.170931 128 128 255 -0.068961 -0.098764 0.992719
0.767032 1.053097 0.175583 128 128 255 -0.074439 -0.103821 0.991806
0.788215 1.083349 0.180400 128 128 255 -0.074922 -0.105425 0.991601
0.809210 1.115554 0.185385 128 128 255 -0.079560 -0.112901 0.990416
0.830009 1.145259 0.190667 128 128 255 -0.086940 -0.125041 0.988335
0.852829 1.174675 0.196537 128 128 255 -0.090724 -0.133276 0.986918
0.873219 1.203796 0.202576 128 128 255 -0.097910 -0.143225 0.984835
0.893397 1.230390 0.208781 128 128 255 -0.102690 -0.149066 0.983481
0.913354 1.258892 0.215150 128 128 255 -0.103322 -0.149417 0.983361
0.933086 1.287072 0.221681 128 128 255 -0.108721 -0.155617 0.981816
0.952586 1.314921 0.228371 128 128 255 -0.113769 -0.160692 0.980426
0.971849 1.342431 0.235218 128 128 255 -0.117601 -0.164493 0.979343
0.988645 1.371814 0.242220 128 128 255 -0.121555 -0.170131 0.977896
1.007414 1.398619 0.249376 128 128 255 -0.125683 -0.177774 0.976012
1.025926 1.425058 0.256684 128 128 255 -0.128493 -0.184059 0.974480
1.044177 1.451123 0.264143 128 128 255 -0.133666 -0.192331 0.972184
1.062160 1.474582 0.271752 128 128 255 -0.139015 -0.200891 0.969700
1.079869 1.499873 0.279509 128 128 255 -0.139718 -0.201867 0.969396
1.097297 1.524763 0.287414 128 128 255 -0.145035 -0.208974 0.967106
1.116661 1.549245 0.295467 128 128 255 -0.149918 -0.215974 0.964821
1.133511 1.573309 0.303668 128 128 255 -0.158841 -0.225623 0.961178
1.150063 1.596948 0.312016 128 128 255 -0.159529 -0.226643 0.960824
1.166310 1.622373 0.320513 128 128 255 -0.166145 -0.236992 0.957199
1.182247 1.645133 0.329158 128 128 255 -0.172954 -0.247662 0.953284
1.197867 1.667441 0.337953 128 128 255 -0.178956 -0.256225 0.949907
1.213164 1.689287 0.346900 128 128 255 -0.188301 -0.268835 0.944601
1.225910 1.710664 0.355998 128 128 255 -0.194504 -0.280185 0.940034
1.240543 1.729340 0.365251 128 128 255 -0.200013 -0.289861 0.935936
1.254835 1.749751 0.374660 128 128 255 -0.202886 -0.292425 0.934519
1.268780 1.769666 0.384226 128 128 255 -0.213761 -0.305789 0.927793
1.282371 1.789076 0.393952 128 128 255 -0.221757 -0.317186 0.922072
1.295602 1.807973 0.403841 128 128 255 -0.230167 -0.329172 0.915789
1.308468 1.826346 0.413895 128 128 255 -0.239015 -0.341784 0.908876
1.320961 1.844188 0.424116 128 128 255 -0.245963 -0.350471 0.903699
1.333075 1.863712 0.434508 128 128 255 -0.258764 -0.366923 0.893537
1.344805 1.880464 0.445072 128 128 255 -0.267142 -0.380285 0.885448
1.358367 1.896659 0.456068 128 128 255 -0.282971 -0.402834 0.870432
1.369309 1.912285 0.467529 128 128 255 -0.302182 -0.428996 0.851263
1.379848 1.927336 0.479163 128 128 255 -0.313891 -0.445666 0.838364
1.389977 1.941802 0.490967 128 128 255 -0.328074 -0.466930 0.821184
1.399690 1.955674 0.502939 128 128 255 -0.337117 -0.482040 0.808697
1.408981 1.968943 0.515077 128 128 255 -0.359552 -0.512431 0.779831
1.417843 1.979377 0.527378 128 128 255 -0.363777 -0.520140 0.772736
1.426271 1.991413 0.539839 128 128 255 -0.377832 -0.540207 0.751943
1.434258 2.002819 0.552460 128 128 255 -0.392232 -0.560784 0.729161
1.441797 2.013587 0.565237 128 128 255 -0.402352 -0.577798 0.710114
1.448883 2.023706 0.578169 128 128 255 -0.420273 -0.604806 0.676447
1.455508 2.033169 0.591255 128 128 255 -0.435573 -0.626775 0.646088
1.461668 2.041965 0.604493 128 128 255 -0.451006 -0.648930 0.612767
1.467355 2.050087 0.617881 128 128 255 -0.466433 -0.671070 0.576286
1.472563 2.057525 0.631420 128 128 255 -0.489164 -0.702168 0.517376
1.475064 2.064271 0.645108 128 128 255 -0.503793 -0.723108 0.472555
1.479296 2.070315 0.658945 128 128 255 -0.510797 -0.734685 0.446458
1.483030 2.075648 0.672931 128 128 255 -0.524148 -0.753821 0.396262
1.486261 2.080261 0.687065 128 128 255 -0.536328 -0.771269 0.342777
1.488981 2.084146 0.701349 128 128 255 -0.547053 -0.786626 0.286275
1.491184 2.087293 0.715783 128 128 255 -0.556050 -0.799498 0.227180
1.492865 2.089694 0.730367 128 128 255 -0.563086 -0.809550 0.166019
1.494017 2.091339 0.745104 128 128 255 -0.567973 -0.816517 0.103469
1.494634 2.092220 0.759993 128 128 255 -0.570601 -0.820241 0.040241
1.494709 2.092327 0.775036 128 128 255 -0.570937 -0.820674 -0.022900
1.494237 2.091653 0.790236 128 128 255 -0.569031 -0.817892 -0.085186
1.493211 2.090187 0.805594 128 128 255 -0.565011 -0.812077 -0.145925
1.491624 2.087921 0.821111 128 128 255 -0.559068 -0.803506 -0.204500
1.489471 2.084846 0.836791 128 128 255 -0.551443 -0.792525 -0.260413
1.486745 2.080953 0.852636 128 128 255 -0.542400 -0.779515 -0.313303
1.483441 2.076234 0.868647 128 128 255 -0.532216 -0.764873 -0.362925
1.479551 2.070678 0.884827 128 128 255 -0.522093 -0.750518 -0.405144
1.475075 2.064286 0.901547 128 128 255 -0.525475 -0.738315 -0.422809
0.100000 0.100000 0.102009 128 128 255 0.020540 -0.021328 0.999561
0.121953 0.137210 0.102387 128 128 255 0.002277 -0.014827 0.999887
0.142790 0.173302 0.102936 128 128 255 -0.003854 -0.015689 0.999870
0.163618 0.209376 0.103652 128 128 255 -0.007455 -0.018732 0.999797
0.184431 0.243202 0.104533 128 128 255 -0.010116 -0.021663 0.999714
0.205223 0.279215 0.105577 128 128 255 -0.012199 -0.024304 0.999630
0.225988 0.315182 0.106780 128 128 255 -0.014895 -0.026743 0.999531
0.244500 0.353317 0.108140 128 128 255 -0.017897 -0.029776 0.999396
0.265197 0.389165 0.109655 128 128 255 -0.018734 -0.033326 0.999269
0.285851 0.424939 0.111322 128 128 255 -0.020311 -0.037473 0.999091
0.306456 0.460628 0.113140 128 128 255 -0.022135 -0.041198 0.998906
0.327008 0.494002 0.115107 128 128 255 -0.023634 -0.044463 0.998731
0.347500 0.529495 0.117222 128 128 255 -0.025269 -0.047095 0.998571
0.370149 0.564876 0.119483 128 128 255 -0.026644 -0.048522 0.998467
0.390505 0.602355 0.121889 128 128 255 -0.029884 -0.051710 0.998215
0.410784 0.637480 0.124440 128 128 255 -0.032208 -0.055556 0.997936
0.430981 0.672463 0.127135 128 128 255 -0.034567 -0.060208 0.997587
0.451091 0.707294 0.129974 128 128 255 -0.036530 -0.063863 0.997290
0.471108 0.739742 0.132958 128 128 255 -0.039127 -0.067836 0.996929
0.488803 0.774240 0.136085 128 128 255 -0.041218 -0.070597 0.996653
0.508617 0.808558 0.139358 128 128 255 -0.042702 -0.072067 0.996485
0.528320 0.842685 0.142777 128 128 255 -0.044750 -0.075312 0.996155
0.547908 0.878835 0.146344 128 128 255 -0.045684 -0.078650 0.995855
0.567375 0.912552 0.150059 128 128 255 -0.048007 -0.084612 0.995257
0.586715 0.946050 0.153925 128 128 255 -0.049795 -0.089653 0.994727
0.608145 0.977097 0.157943 128 128 255 -0.052137 -0.093716 0.994233
0.627216 1.010129 0.162116 128 128 255 -0.054009 -0.097290 0.993790
0.646143 1.042912 0.166445 128 128 255 -0.058116 -0.101167 0.993171
0.664922 1.075438 0.170933 128 128 255 -0.060274 -0.102935 0.992860
0.683547 1.109920 0.175584 128 128 255 -0.062795 -0.106825 0.992293
0.702013 1.141904 0.180398 128 128 255 -0.067646 -0.113424 0.991241
0.720314 1.173602 0.185380 128 128 255 -0.071265 -0.121659 0.990010
0.736223 1.205006 0.190660 128 128 255 -0.078557 -0.136032 0.987585
0.754179 1.233884 0.196532 128 128 255 -0.082643 -0.144535 0.986042
0.771954 1.264672 0.202573 128 128 255 -0.083797 -0.147011 0.985579
0.789543 1.295136 0.208780 128 128 255 -0.090107 -0.154188 0.983924
0.806940 1.325270 0.215151 128 128 255 -0.090861 -0.155545 0.983641
0.824141 1.357284 0.221683 128 128 255 -0.094265 -0.161973 0.982283
0.841140 1.386727 0.228375 128 128 255 -0.097935 -0.170008 0.980564
0.860153 1.415811 0.235224 128 128 255 -0.099520 -0.174689 0.979581
0.876732 1.444526 0.242229 128 128 255 -0.103566 -0.182046 0.977821
0.893093 1.472865 0.249387 128 128 255 -0.109777 -0.192303 0.975176
0.909231 1.498594 0.256697 128 128 255 -0.113499 -0.198787 0.973448
0.925141 1.526151 0.264157 128 128 255 -0.113962 -0.199538 0.973241
0.940817 1.553302 0.271767 128 128 255 -0.121902 -0.209133 0.970259
0.956254 1.580040 0.279526 128 128 255 -0.122328 -0.209933 0.970033
0.971447 1.608577 0.287433 128 128 255 -0.128084 -0.219235 0.967228
0.984168 1.634459 0.295487 128 128 255 -0.134503 -0.230940 0.963626
0.998856 1.659901 0.303689 128 128 255 -0.136594 -0.236778 0.961914
1.013285 1.684891 0.312038 128 128 255 -0.141194 -0.244763 0.959247
1.027448 1.709422 0.320535 128 128 255 -0.147087 -0.256155 0.955380
1.041340 1.731263 0.329182 128 128 255 -0.153269 -0.268116 0.951117
1.054957 1.754847 0.337977 128 128 255 -0.153584 -0.268621 0.950923
1.068291 1.777943 0.346924 128 128 255 -0.161783 -0.280458 0.946134
1.081340 1.800544 0.356023 128 128 255 -0.169254 -0.291952 0.941338
1.094096 1.822638 0.365276 128 128 255 -0.174829 -0.299056 0.938083
1.108777 1.844217 0.374685 128 128 255 -0.175203 -0.299781 0.937782
1.120932 1.867494 0.384251 128 128 255 -0.184252 -0.314564 0.931182
1.132780 1.888014 0.393977 128 128 255 -0.198715 -0.340161 0.919132
1.144314 1.907992 0.403866 128 128 255 -0.200484 -0.347679 0.915929
1.155529 1.927417 0.413919 128 128 255 -0.208175 -0.361020 0.909026
1.166420 1.946280 0.424140 128 128 255 -0.216271 -0.375062 0.901418
1.176980 1.964571 0.434531 128 128 255 -0.227090 -0.395372 0.890006
1.187206 1.980060 0.445095 128 128 255 -0.240533 -0.420577 0.874791
1.197090 1.997181 0.456093 128 128 255 -0.242825 -0.426389 0.871337
1.206629 2.013702 0.467557 128 128 255 -0.261061 -0.455628 0.851029
1.215816 2.029614 0.479194 128 128 255 -0.271206 -0.473294 0.838117
1.224645 2.044908 0.491001 128 128 255 -0.286350 -0.498586 0.818178
1.230890 2.059573 0.502977 128 128 255 -0.297483 -0.517939 0.802024
1.238989 2.073601 0.515118 128 128 255 -0.304043 -0.530460 0.791309
1.246715 2.086982 0.527422 128 128 255 -0.312534 -0.543237 0.779241
1.254062 2.101929 0.539886 128 128 255 -0.321426 -0.556644 0.766050
1.261024 2.113988 0.552509 128 128 255 -0.343112 -0.592035 0.729225
1.267596 2.125371 0.565289 128 128 255 -0.359607 -0.622743 0.694891
1.273773 2.136070 0.578224 128 128 255 -0.366235 -0.638795 0.676619
1.279549 2.146074 0.591311 128 128 255 -0.377782 -0.657524 0.651877
1.284918 2.155374 0.604551 128 128 255 -0.394853 -0.684362 0.612976
1.289876 2.163960 0.617941 128 128 255 -0.408350 -0.707728 0.576517
1.294416 2.171824 0.631481 128 128 255 -0.421692 -0.730823 0.536725
1.298533 2.178956 0.645170 128 128 255 -0.438789 -0.757306 0.483685
1.302222 2.185345 0.659007 128 128 255 -0.449217 -0.773711 0.446739
1.305477 2.190984 0.672993 128 128 255 -0.460952 -0.793902 0.396538
1.308293 2.195861 0.687128 128 128 255 -0.471655 -0.812315 0.343054
1.310665 2.199968 0.701412 128 128 255 -0.481082 -0.828526 0.286539
1.312585 2.203295 0.715845 128 128 255 -0.488992 -0.842120 0.227423
1.314051 2.205833 0.730428 128 128 255 -0.495175 -0.852739 0.166246
1.315055 2.207573 0.745163 128 128 255 -0.499472 -0.860107 0.103655
1.315593 2.208504 0.760051 128 128 255 -0.501782 -0.864050 0.040394
1.315658 2.208618 0.775093 128 128 255 -0.502077 -0.864523 -0.022788
1.315247 2.207904 0.790290 128 128 255 -0.500401 -0.861599 -0.085124
1.314352 2.206355 0.805646 128 128 255 -0.496866 -0.855474 -0.145903
1.312969 2.203959 0.821161 128 128 255 -0.491642 -0.846439 -0.204522
1.311092 2.200708 0.836838 128 128 255 -0.484938 -0.834858 -0.260475
1.308716 2.196593 0.852680 128 128 255 -0.476990 -0.821133 -0.313401
1.305835 2.191603 0.868688 128 128 255 -0.468040 -0.805684 -0.363059
1.302444 2.185730 0.884865 128 128 255 -0.459073 -0.790551 -0.405316
1.298542 2.178972 0.901584 128 128 255 -0.468299 -0.775740 -0.422995
0.100000 0.100000 0.102044 128 128 255 0.020577 -0.018644 0.999614
0.118727 0.138889 0.102419 128 128 255 0.002212 -0.013857 0.999902
0.136340 0.176659 0.102963 128 128 255 -0.003715 -0.015282 0.999876
0.153944 0.214412 0.103676 128 128 255 -0.006997 -0.018645 0.999802
0.171536 0.249915 0.104553 128 128 255 -0.009366 -0.021815 0.999718
0.189110 0.287603 0.105592 128 128 255 -0.011183 -0.024637 0.999634
0.206662 0.325243 0.106792 128 128 255 -0.012757 -0.027276 0.999547
0.224187 0.365048 0.108148 128 128 255 -0.015311 -0.030686 0.999412
0.239458 0.402563 0.109659 128 128 255 -0.017384 -0.034849 0.999241
0.256916 0.440001 0.111323 128 128 255 -0.018722 -0.039033 0.999063
0.274332 0.475129 0.113138 128 128 255 -0.019447 -0.042451 0.998909
0.291703 0.512381 0.115102 128 128 255 -0.021341 -0.045290 0.998746
0.309024 0.549525 0.117214 128 128 255 -0.023340 -0.047547 0.998596
0.326289 0.586551 0.119472 128 128 255 -0.024621 -0.050299 0.998431
0.343495 0.625670 0.121876 128 128 255 -0.024874 -0.053517 0.998257
0.362858 0.662429 0.124425 128 128 255 -0.027042 -0.058204 0.997938
0.379930 0.699039 0.127118 128 128 255 -0.029758 -0.063691 0.997526
0.396927 0.733268 0.129955 128 128 255 -0.030481 -0.066697 0.997308
0.413846 0.769551 0.132937 128 128 255 -0.032704 -0.069657 0.997035
0.430681 0.805654 0.136064 128 128 255 -0.035016 -0.071913 0.996796
0.447428 0.841568 0.139337 128 128 255 -0.036773 -0.074458 0.996546
0.464082 0.879505 0.142756 128 128 255 -0.038967 -0.078763 0.996131
0.478416 0.915010 0.146322 128 128 255 -0.040658 -0.084392 0.995603
0.494870 0.950296 0.150038 128 128 255 -0.041966 -0.089645 0.995089
0.511217 0.983130 0.153904 128 128 255 -0.043870 -0.093847 0.994620
0.527453 1.017946 0.157924 128 128 255 -0.045278 -0.096896 0.994264
0.543572 1.052514 0.162097 128 128 255 -0.047227 -0.099719 0.993894
0.559570 1.086822 0.166428 128 128 255 -0.049200 -0.103596 0.993402
0.575443 1.123084 0.170919 128 128 255 -0.050750 -0.107929 0.992862
0.591185 1.156844 0.175571 128 128 255 -0.052483 -0.114194 0.992071
0.609015 1.190315 0.180388 128 128 255 -0.053580 -0.119629 0.991372
0.624484 1.223488 0.185372 128 128 255 -0.058682 -0.129473 0.989845
0.639809 1.254131 0.190653 128 128 255 -0.064885 -0.142180 0.987712
0.654986 1.286678 0.196522 128 128 255 -0.069425 -0.148828 0.986423
0.670010 1.318897 0.202560 128 128 255 -0.071685 -0.151351 0.985877
0.684877 1.353001 0.208765 128 128 255 -0.074328 -0.156912 0.984812
0.699582 1.384536 0.215133 128 128 255 -0.078869 -0.165359 0.983075
0.714121 1.415714 0.221664 128 128 255 -0.081181 -0.172655 0.981631
0.726266 1.446526 0.228354 128 128 255 -0.085490 -0.183109 0.979368
0.740459 1.474741 0.235201 128 128 255 -0.086591 -0.187158 0.978506
0.754472 1.504792 0.242204 128 128 255 -0.087612 -0.191101 0.977653
0.768301 1.534448 0.249361 128 128 255 -0.090210 -0.195394 0.976567
0.781942 1.563700 0.256670 128 128 255 -0.097074 -0.205072 0.973921
0.795389 1.592538 0.264130 128 128 255 -0.097324 -0.205665 0.973771
0.808639 1.623175 0.271740 128 128 255 -0.100518 -0.212482 0.971981
0.821687 1.651156 0.279499 128 128 255 -0.107001 -0.226314 0.968159
0.834528 1.678695 0.287406 128 128 255 -0.106245 -0.230025 0.967368
0.847159 1.705782 0.295461 128 128 255 -0.113072 -0.244148 0.963123
0.861797 1.730184 0.303664 128 128 255 -0.116777 -0.252176 0.960609
0.873992 1.756337 0.312015 128 128 255 -0.118007 -0.256914 0.959202
0.885963 1.782009 0.320515 128 128 255 -0.121208 -0.262408 0.957314
0.897705 1.807191 0.329163 128 128 255 -0.130403 -0.276395 0.952156
0.909214 1.831872 0.337961 128 128 255 -0.130476 -0.276668 0.952067
0.920486 1.858265 0.346910 128 128 255 -0.134959 -0.286283 0.948593
0.931514 1.881917 0.356012 128 128 255 -0.143434 -0.302865 0.942178
0.942296 1.905039 0.365268 128 128 255 -0.149718 -0.317869 0.936239
0.952827 1.927621 0.374680 128 128 255 -0.150476 -0.324275 0.933918
0.963101 1.949655 0.384250 128 128 255 -0.153608 -0.335134 0.929564
0.973115 1.971130 0.393980 128 128 255 -0.167524 -0.364639 0.915955
0.980642 1.989815 0.403873 128 128 255 -0.173946 -0.378627 0.909057
0.990121 2.010143 0.413930 128 128 255 -0.171635 -0.374395 0.911246
0.999327 2.029884 0.424155 128 128 255 -0.182024 -0.393305 0.901209
1.008253 2.049026 0.434551 128 128 255 -0.189179 -0.408797 0.892803
1.016896 2.067561 0.445118 128 128 255 -0.202562 -0.433835 0.877927
1.025251 2.085478 0.456118 128 128 255 -0.205621 -0.439522 0.874380
1.033313 2.104990 0.467580 128 128 255 -0.217657 -0.463039 0.859198
1.041078 2.121642 0.479216 128 128 255 -0.232824 -0.493080 0.838251
1.048541 2.137647 0.491023 128 128 255 -0.244204 -0.519488 0.818839
1.055698 2.152995 0.502997 128 128 255 -0.251067 -0.536585 0.805632
1.062544 2.167675 0.515137 128 128 255 -0.259438 -0.553306 0.791545
1.069074 2.181679 0.527439 128 128 255 -0.269459 -0.574658 0.772761
1.075283 2.194995 0.539903 128 128 255 -0.274225 -0.589948 0.759448
1.081168 2.207615 0.552525 128 128 255 -0.287408 -0.620955 0.729255
1.086723 2.219528 0.565304 128 128 255 -0.307276 -0.660927 0.684659
1.091944 2.228502 0.578238 128 128 255 -0.318543 -0.685128 0.655080
1.096826 2.238971 0.591326 128 128 255 -0.316426 -0.684837 0.656409
1.103586 2.248704 0.604565 128 128 255 -0.327740 -0.709280 0.624106
1.107777 2.257690 0.617955 128 128 255 -0.343368 -0.741604 0.576301
1.111614 2.265919 0.631495 128 128 255 -0.351750 -0.756433 0.551436
1.115094 2.273383 0.645184 128 128 255 -0.369356 -0.787630 0.493168
1.118212 2.280069 0.659023 128 128 255 -0.379919 -0.810166 0.446422
1.120964 2.285970 0.673009 128 128 255 -0.389821 -0.831294 0.396220
1.123344 2.291074 0.687145 128 128 255 -0.398852 -0.850561 0.342730
1.125348 2.295372 0.701429 128 128 255 -0.406800 -0.867517 0.286233
1.126972 2.298854 0.715864 128 128 255 -0.413467 -0.881737 0.227123
1.128210 2.301510 0.730449 128 128 255 -0.418674 -0.892842 0.165968
1.129059 2.303331 0.745185 128 128 255 -0.422289 -0.900544 0.103407
1.129514 2.304305 0.760074 128 128 255 -0.424227 -0.904664 0.040174
1.129569 2.304424 0.775117 128 128 255 -0.424464 -0.905153 -0.022976
1.129221 2.303678 0.790317 128 128 255 -0.423039 -0.902090 -0.085276
1.128465 2.302056 0.805674 128 128 255 -0.420048 -0.895677 -0.146021
1.127296 2.299549 0.821191 128 128 255 -0.415631 -0.886221 -0.204602
1.125709 2.296147 0.836869 128 128 255 -0.409968 -0.874100 -0.260528
1.123701 2.291840 0.852713 128 128 255 -0.403256 -0.859738 -0.313425
1.121266 2.286618 0.868722 128 128 255 -0.395700 -0.843570 -0.363057
1.118400 2.280472 0.884900 128 128 255 -0.388140 -0.827681 -0.405329
1.115102 2.273399 0.901617 128 128 255 -0.394875 -0.815602 -0.422927
0.100000 0.100000 0.102079 128 128 255 0.020328 -0.015997 0.999665
0.115368 0.140281 0.102444 128 128 255 0.002052 -0.012910 0.999915
0.129621 0.179442 0.102980 128 128 255 -0.003614 -0.014877 0.999883
0.143868 0.218586 0.103684 128 128 255 -0.006546 -0.018528 0.999807
0.158105 0.255478 0.104553 128 128 255 -0.008602 -0.021912 0.999723
0.172328 0.294554 0.105584 128 128 255 -0.010140 -0.024896 0.999639
0.186532 0.333581 0.106775 128 128 255 -0.011448 -0.027669 0.999552
0.200715 0.374771 0.108124 128 128 255 -0.012898 -0.031179 0.999431
0.214872 0.413668 0.109628 128 128 255 -0.015264 -0.035607 0.999249
0.226778 0.452484 0.111286 128 128 255 -0.017131 -0.040028 0.999052
0.240873 0.488988 0.113094 128 128 255 -0.018152 -0.043329 0.998896
0.254931 0.527612 0.115053 128 128 255 -0.018907 -0.046012 0.998762
0.268949 0.566124 0.117160 128 128 255 -0.019334 -0.048225 0.998649
0.282921 0.606736 0.119414 128 128 255 -0.021496 -0.051870 0.998423
0.296846 0.644993 0.121814 128 128 255 -0.022495 -0.055986 0.998178
0.310718 0.683106 0.124360 128 128 255 -0.022955 -0.060758 0.997889
0.324533 0.721065 0.127051 128 128 255 -0.023986 -0.065403 0.997571
0.338289 0.756636 0.129888 128 128 255 -0.025944 -0.069032 0.997277
0.354204 0.794255 0.132869 128 128 255 -0.026762 -0.070257 0.997170
0.367828 0.831688 0.135997 128 128 255 -0.028482 -0.073683 0.996875
0.381381 0.871147 0.139270 128 128 255 -0.029775 -0.077502 0.996547
0.394859 0.908178 0.142691 128 128 255 -0.030977 -0.082273 0.996128
0.408258 0.944991 0.146260 128 128 255 -0.033520 -0.089844 0.995392
0.421574 0.979354 0.149980 128 128 255 -0.033934 -0.092823 0.995104
0.434804 1.015702 0.153850 128 128 255 -0.035896 -0.096338 0.994701
0.447943 1.051801 0.157874 128 128 255 -0.037547 -0.098733 0.994405
0.460988 1.087642 0.162053 128 128 255 -0.039136 -0.102221 0.993992
0.473935 1.125436 0.166390 128 128 255 -0.041145 -0.107514 0.993352
0.484558 1.160729 0.170886 128 128 255 -0.042739 -0.114692 0.992481
0.497299 1.195733 0.175545 128 128 255 -0.044017 -0.121512 0.991614
0.509930 1.228215 0.180369 128 128 255 -0.045370 -0.126479 0.990931
0.522449 1.262610 0.185360 128 128 255 -0.046540 -0.131773 0.990187
0.534851 1.296686 0.190646 128 128 255 -0.052196 -0.143462 0.988278
0.547134 1.330431 0.196508 128 128 255 -0.056091 -0.151058 0.986932
0.559292 1.366059 0.202538 128 128 255 -0.058246 -0.156731 0.985922
0.571324 1.399116 0.208736 128 128 255 -0.060514 -0.164206 0.984568
0.583224 1.431812 0.215098 128 128 255 -0.063008 -0.174456 0.982647
0.594990 1.464139 0.221622 128 128 255 -0.064277 -0.180989 0.981382
0.608841 1.493864 0.228306 128 128 255 -0.067231 -0.187938 0.979877
0.620327 1.525422 0.235149 128 128 255 -0.070000 -0.192728 0.978752
0.631667 1.556580 0.242147 128 128 255 -0.072002 -0.194989 0.978159
0.642859 1.587329 0.249300 128 128 255 -0.074220 -0.199457 0.977092
0.653898 1.619880 0.256606 128 128 255 -0.076687 -0.206141 0.975513
0.664781 1.649781 0.264064 128 128 255 -0.081356 -0.217216 0.972727
0.675504 1.679242 0.271672 128 128 255 -0.082495 -0.225269 0.970798
0.686063 1.708254 0.279429 128 128 255 -0.085924 -0.238122 0.967427
0.696456 1.734585 0.287336 128 128 255 -0.088814 -0.246142 0.965156
0.706678 1.762669 0.295392 128 128 255 -0.089271 -0.249144 0.964343
0.716725 1.790275 0.303596 128 128 255 -0.094077 -0.257783 0.961612
0.724373 1.817391 0.311949 128 128 255 -0.099258 -0.267359 0.958471
0.734061 1.844009 0.320451 128 128 255 -0.098681 -0.268349 0.958254
0.743564 1.872340 0.329102 128 128 255 -0.101988 -0.277503 0.955296
0.752878 1.897931 0.337905 128 128 255 -0.108289 -0.292296 0.950177
0.761999 1.922992 0.346859 128 128 255 -0.111037 -0.304286 0.946087
0.770925 1.947515 0.355966 128 128 255 -0.112982 -0.315731 0.942098
0.779650 1.971488 0.365229 128 128 255 -0.120611 -0.335019 0.934460
0.788173 1.992681 0.374647 128 128 255 -0.125002 -0.347331 0.929374
0.796488 2.015526 0.384224 128 128 255 -0.125725 -0.351581 0.927677
0.804592 2.037792 0.393962 128 128 255 -0.129460 -0.359884 0.923972
0.812482 2.059469 0.403863 128 128 255 -0.141982 -0.383860 0.912410
0.820153 2.080547 0.413928 128 128 255 -0.141287 -0.381417 0.913542
0.827603 2.103236 0.424162 128 128 255 -0.146655 -0.396131 0.906406
0.834827 2.123084 0.434566 128 128 255 -0.157136 -0.422264 0.892749
0.841821 2.142301 0.445143 128 128 255 -0.164716 -0.443063 0.881228
0.848583 2.160878 0.456144 128 128 255 -0.173796 -0.471230 0.864718
0.857330 2.178805 0.467600 128 128 255 -0.174096 -0.482382 0.858486
0.863614 2.196070 0.479230 128 128 255 -0.184503 -0.512884 0.838396
0.869654 2.212665 0.491030 128 128 255 -0.198089 -0.547375 0.813106
0.875446 2.226356 0.502999 128 128 255 -0.205843 -0.568672 0.796392
0.880986 2.241577 0.515133 128 128 255 -0.207037 -0.575001 0.791524
0.886270 2.256097 0.527431 128 128 255 -0.215072 -0.597192 0.772726
0.891296 2.269904 0.539890 128 128 255 -0.223370 -0.620125 0.752031
0.896058 2.282988 0.552508 128 128 255 -0.229810 -0.634429 0.738030
0.900554 2.295340 0.565283 128 128 255 -0.244152 -0.666818 0.704090
0.904779 2.306948 0.578214 128 128 255 -0.258899 -0.699699 0.665877
0.908730 2.317803 0.591298 128 128 255 -0.266043 -0.715341 0.646149
0.912403 2.327894 0.604536 128 128 255 -0.273102 -0.737206 0.618015
0.915794 2.337212 0.617924 128 128 255 -0.283393 -0.766502 0.576336
0.918900 2.345744 0.631464 128 128 255 -0.284530 -0.773592 0.566214
0.921716 2.355705 0.645153 128 128 255 -0.293674 -0.798513 0.525483
0.924240 2.362638 0.658991 128 128 255 -0.310187 -0.839240 0.446610
0.926466 2.368756 0.672979 128 128 255 -0.318643 -0.863829 0.390214
0.928392 2.374048 0.687116 128 128 255 -0.324017 -0.881736 0.342862
0.930014 2.378504 0.701403 128 128 255 -0.330463 -0.899334 0.286344
0.931328 2.382115 0.715841 128 128 255 -0.335866 -0.914091 0.227228
0.932331 2.384869 0.730429 128 128 255 -0.340085 -0.925618 0.166053
0.933018 2.386756 0.745169 128 128 255 -0.343011 -0.933614 0.103481
0.933386 2.387766 0.760062 128 128 255 -0.344576 -0.937896 0.040242
0.933430 2.387890 0.775111 128 128 255 -0.344762 -0.938410 -0.022913
0.933149 2.387116 0.790315 128 128 255 -0.343601 -0.935241 -0.085217
0.932537 2.385434 0.805678 128 128 255 -0.341170 -0.928600 -0.145962
0.931591 2.382835 0.821200 128 128 255 -0.337585 -0.918802 -0.204546
0.930307 2.379308 0.836885 128 128 255 -0.332991 -0.906240 -0.260474
0.928681 2.374842 0.852734 128 128 255 -0.328767 -0.892998 -0.307353
0.926711 2.369428 0.868750 128 128 255 -0.323023 -0.874024 -0.362957
0.924391 2.363055 0.884934 128 128 255 -0.316791 -0.857499 -0.405388
0.921722 2.355722 0.901646 128 128 255 -0.327917 -0.844658 -0.423112
0.100000 0.100000 0.102112 128 128 255 0.019809 -0.013424 0.999714
0.111900 0.141374 0.102465 128 128 255 0.001809 -0.012000 0.999926
0.122686 0.181629 0.102987 128 128 255 -0.003538 -0.014479 0.999889
0.133467 0.221865 0.103678 128 128 255 -0.006094 -0.018386 0.999812
0.144240 0.259850 0.104534 128 128 255 -0.007816 -0.021957 0.999728
0.155003 0.300017 0.105553 128 128 255 -0.009062 -0.025080 0.999644
0.165752 0.340133 0.106732 128 128 255 -0.010095 -0.027969 0.999558
0.176485 0.382410 0.108070 128 128 255 -0.011208 -0.031613 0.999437
0.187198 0.422393 0.109563 128 128 255 -0.012478 -0.036037 0.999273
0.197890 0.462294 0.111211 128 128 255 -0.014119 -0.040823 0.999067
0.208556 0.499878 0.113011 128 128 255 -0.015201 -0.044306 0.998902
0.219194 0.539581 0.114961 128 128 255 -0.016054 -0.047094 0.998761
0.227579 0.579168 0.117061 128 128 255 -0.016598 -0.049433 0.998640
0.238153 0.620852 0.119310 128 128 255 -0.017265 -0.052832 0.998454
0.248690 0.660176 0.121706 128 128 255 -0.018526 -0.057889 0.998151
0.259187 0.699353 0.124248 128 128 255 -0.019870 -0.063327 0.997795
0.269642 0.736149 0.126937 128 128 255 -0.019767 -0.066809 0.997570
0.280052 0.774999 0.129773 128 128 255 -0.020866 -0.070177 0.997316
0.290413 0.813668 0.132755 128 128 255 -0.020905 -0.071140 0.997247
0.300723 0.854368 0.135884 128 128 255 -0.022701 -0.075706 0.996872
0.310980 0.892644 0.139160 128 128 255 -0.023397 -0.080474 0.996482
0.321179 0.930708 0.142585 128 128 255 -0.023939 -0.086321 0.995980
0.331318 0.968549 0.146160 128 128 255 -0.024738 -0.091545 0.995494
0.341395 1.003934 0.149885 128 128 255 -0.026561 -0.096130 0.995014
0.353628 1.041296 0.153763 128 128 255 -0.026908 -0.097982 0.994824
0.363571 1.078403 0.157795 128 128 255 -0.027463 -0.100191 0.994589
0.373443 1.117467 0.161984 128 128 255 -0.029606 -0.105564 0.993972
0.383240 1.154032 0.166330 128 128 255 -0.030588 -0.111483 0.993295
0.392961 1.190310 0.170837 128 128 255 -0.032891 -0.121424 0.992056
0.402602 1.224069 0.175507 128 128 255 -0.032967 -0.125351 0.991565
0.412161 1.259742 0.180343 128 128 255 -0.034389 -0.129416 0.990994
0.421634 1.295098 0.185346 128 128 255 -0.036341 -0.133728 0.990352
0.431020 1.330124 0.190638 128 128 255 -0.039593 -0.144354 0.988734
0.440314 1.367034 0.196488 128 128 255 -0.042662 -0.154960 0.986999
0.449515 1.401373 0.202507 128 128 255 -0.044287 -0.162535 0.985708
0.458620 1.435352 0.208694 128 128 255 -0.045893 -0.172184 0.983995
0.467625 1.468961 0.215045 128 128 255 -0.048039 -0.180843 0.982338
0.474307 1.499968 0.221559 128 128 255 -0.050255 -0.187707 0.980939
0.483106 1.532807 0.228234 128 128 255 -0.051249 -0.190676 0.980314
0.491798 1.565246 0.235068 128 128 255 -0.053091 -0.193669 0.979629
0.500380 1.597274 0.242059 128 128 255 -0.054892 -0.198120 0.978639
0.508849 1.631103 0.249205 128 128 255 -0.056745 -0.204834 0.977150
0.517203 1.662280 0.256505 128 128 255 -0.058689 -0.214080 0.975051
0.525438 1.693015 0.263958 128 128 255 -0.060812 -0.226368 0.972142
0.533553 1.723298 0.271563 128 128 255 -0.062977 -0.236761 0.969525
0.541543 1.750898 0.279318 128 128 255 -0.065103 -0.244763 0.967395
0.549408 1.780248 0.287224 128 128 255 -0.067150 -0.250058 0.965900
0.557143 1.809117 0.295279 128 128 255 -0.069037 -0.252453 0.965143
0.564746 1.837493 0.303485 128 128 255 -0.071096 -0.257887 0.963556
0.572215 1.867589 0.311840 128 128 255 -0.074006 -0.267449 0.960726
0.579546 1.894949 0.320345 128 128 255 -0.078691 -0.281703 0.956270
0.586738 1.921787 0.329002 128 128 255 -0.079398 -0.292035 0.953106
0.593786 1.948092 0.337810 128 128 255 -0.079431 -0.300793 0.950376
0.602911 1.973853 0.346771 128 128 255 -0.084875 -0.318905 0.943979
0.609665 1.996838 0.355887 128 128 255 -0.088618 -0.332498 0.938931
0.616268 2.021481 0.365158 128 128 255 -0.088818 -0.336247 0.937576
0.622717 2.045549 0.374586 128 128 255 -0.094083 -0.347717 0.932867
0.629009 2.069032 0.384174 128 128 255 -0.099704 -0.360196 0.927533
0.635142 2.091920 0.393923 128 128 255 -0.099953 -0.364348 0.925883
0.641113 2.116425 0.403836 128 128 255 -0.103599 -0.378038 0.919975
0.646918 2.138090 0.413914 128 128 255 -0.111069 -0.402655 0.908588
0.652555 2.159129 0.424160 128 128 255 -0.112186 -0.413328 0.903645
0.658022 2.179531 0.434577 128 128 255 -0.118183 -0.443381 0.888508
0.663315 2.199285 0.445167 128 128 255 -0.119488 -0.457607 0.881089
0.668432 2.218380 0.456170 128 128 255 -0.130973 -0.497520 0.857508
0.673369 2.234585 0.467616 128 128 255 -0.136373 -0.519381 0.843591
0.678125 2.252333 0.479235 128 128 255 -0.137241 -0.527303 0.838521
0.682695 2.269391 0.491025 128 128 255 -0.142662 -0.547782 0.824368
0.687078 2.285748 0.502983 128 128 255 -0.152432 -0.576423 0.802809
0.691271 2.301394 0.515108 128 128 255 -0.156069 -0.581498 0.798438
0.695270 2.316319 0.527397 128 128 255 -0.166674 -0.612203 0.772934
0.699073 2.330511 0.539847 128 128 255 -0.173099 -0.635757 0.752230
0.702676 2.343961 0.552458 128 128 255 -0.173606 -0.642014 0.746779
0.706078 2.358880 0.565226 128 128 255 -0.180212 -0.666417 0.723472
0.709276 2.370812 0.578151 128 128 255 -0.193383 -0.710320 0.676792
0.712266 2.381970 0.591231 128 128 255 -0.200416 -0.736206 0.646401
0.715045 2.392344 0.604464 128 128 255 -0.207502 -0.762312 0.613044
0.717611 2.401921 0.617850 128 128 255 -0.214580 -0.788407 0.576515
0.719961 2.410692 0.631387 128 128 255 -0.221567 -0.814192 0.536655
0.722093 2.418646 0.645076 128 128 255 -0.223045 -0.830854 0.509836
0.724002 2.425772 0.658915 128 128 255 -0.231378 -0.873922 0.427462
0.725687 2.432061 0.672904 128 128 255 -0.233471 -0.892490 0.385943
0.724923 2.437501 0.687044 128 128 255 -0.238725 -0.912640 0.331811
0.726150 2.442082 0.701334 128 128 255 -0.242048 -0.927055 0.286325
0.727144 2.445793 0.715776 128 128 255 -0.245999 -0.942262 0.227215
0.727903 2.448624 0.730370 128 128 255 -0.249081 -0.954139 0.166065
0.728423 2.450564 0.745116 128 128 255 -0.251215 -0.962380 0.103514
0.728701 2.451602 0.760017 128 128 255 -0.252353 -0.966796 0.040303
0.728735 2.451729 0.775073 128 128 255 -0.252480 -0.967333 -0.022804
0.728522 2.450934 0.790286 128 128 255 -0.251623 -0.964079 -0.085070
0.728059 2.449205 0.805658 128 128 255 -0.249837 -0.957252 -0.145776
0.727343 2.446533 0.821190 128 128 255 -0.247208 -0.947175 -0.204322
0.726371 2.442907 0.836885 128 128 255 -0.243841 -0.934253 -0.260216
0.725141 2.438317 0.852745 128 128 255 -0.240266 -0.922188 -0.303054
0.725872 2.432752 0.868771 128 128 255 -0.239149 -0.911493 -0.334648
0.724117 2.426202 0.884966 128 128 255 -0.235279 -0.883352 -0.405381
0.722097 2.418663 0.901671 128 128 255 -0.246454 -0.871879 -0.423187
0.100000 0.100000 0.102145 128 128 255 0.019040 -0.010958 0.999759
0.108349 0.142161 0.102479 128 128 255 0.001501 -0.011138 0.999937
0.115586 0.183203 0.102985 128 128 255 -0.003474 -0.014093 0.999895
0.122820 0.224226 0.103658 128 128 255 -0.005628 -0.018221 0.999818
0.130048 0.262996 0.104497 128 128 255 -0.007000 -0.021949 0.999735
0.137269 0.303948 0.105500 128 128 255 -0.007943 -0.025190 0.999651
0.144480 0.344849 0.106663 128 128 255 -0.008694 -0.028176 0.999565
0.151681 0.387909 0.107986 128 128 255 -0.009459 -0.031926 0.999445
0.158869 0.428674 0.109465 128 128 255 -0.010312 -0.036484 0.999281
0.166042 0.469354 0.111100 128 128 255 -0.011165 -0.041374 0.999081
0.173199 0.507717 0.112889 128 128 255 -0.011797 -0.045140 0.998911
0.180336 0.548195 0.114829 128 128 255 -0.012182 -0.047739 0.998786
0.187453 0.588557 0.116920 128 128 255 -0.012748 -0.050206 0.998658
0.194547 0.631012 0.119162 128 128 255 -0.013363 -0.053852 0.998460
0.201616 0.671105 0.121552 128 128 255 -0.014135 -0.059049 0.998155
0.208659 0.711048 0.124091 128 128 255 -0.014969 -0.064691 0.997793
0.215674 0.748607 0.126778 128 128 255 -0.015481 -0.068580 0.997525
0.222658 0.788215 0.129613 128 128 255 -0.015817 -0.070988 0.997352
0.227387 0.827640 0.132596 128 128 255 -0.015963 -0.072966 0.997207
0.234305 0.869093 0.135728 128 128 255 -0.016328 -0.076719 0.996919
0.241186 0.908117 0.139009 128 128 255 -0.017221 -0.082941 0.996406
0.248029 0.946925 0.142440 128 128 255 -0.018202 -0.089692 0.995803
0.254832 0.983283 0.146022 128 128 255 -0.017731 -0.093409 0.995470
0.261592 1.021626 0.149756 128 128 255 -0.018608 -0.096960 0.995114
0.268309 1.059718 0.153645 128 128 255 -0.019535 -0.099368 0.994859
0.274980 1.097551 0.157689 128 128 255 -0.020339 -0.103185 0.994454
0.281603 1.137335 0.161890 128 128 255 -0.019939 -0.107088 0.994050
0.288177 1.174615 0.166250 128 128 255 -0.021139 -0.115097 0.993129
0.294698 1.211602 0.170772 128 128 255 -0.022472 -0.123826 0.992049
0.301167 1.246064 0.175458 128 128 255 -0.023231 -0.129272 0.991337
0.307580 1.282435 0.180309 128 128 255 -0.023352 -0.131024 0.991104
0.313936 1.318481 0.185329 128 128 255 -0.023713 -0.134138 0.990679
0.320233 1.356415 0.190631 128 128 255 -0.026873 -0.147006 0.988770
0.326469 1.391780 0.196464 128 128 255 -0.028734 -0.159231 0.986823
0.332642 1.426790 0.202468 128 128 255 -0.029495 -0.168792 0.985210
0.338750 1.461433 0.208639 128 128 255 -0.030515 -0.177002 0.983737
0.344792 1.493478 0.214976 128 128 255 -0.031508 -0.183126 0.982584
0.352988 1.527356 0.221476 128 128 255 -0.032996 -0.187773 0.981658
0.358892 1.560838 0.228138 128 128 255 -0.034872 -0.190471 0.981073
0.364724 1.593910 0.234960 128 128 255 -0.036307 -0.195043 0.980122
0.370482 1.628787 0.241941 128 128 255 -0.037570 -0.201751 0.978716
0.376164 1.661012 0.249077 128 128 255 -0.038696 -0.210987 0.976723
0.381768 1.692797 0.256370 128 128 255 -0.039703 -0.223125 0.973981
0.387294 1.724133 0.263816 128 128 255 -0.040910 -0.233339 0.971534
0.392738 1.752787 0.271415 128 128 255 -0.042308 -0.241283 0.969532
0.398099 1.783192 0.279167 128 128 255 -0.043858 -0.246500 0.968150
0.403376 1.813116 0.287071 128 128 255 -0.045525 -0.248950 0.967446
0.408565 1.842548 0.295126 128 128 255 -0.047088 -0.254424 0.965946
0.413667 1.873701 0.303333 128 128 255 -0.048592 -0.263001 0.963571
0.418678 1.902120 0.311691 128 128 255 -0.050090 -0.275248 0.960068
0.423596 1.930015 0.320201 128 128 255 -0.051619 -0.291758 0.955098
0.428421 1.957378 0.328863 128 128 255 -0.053299 -0.305682 0.950641
0.433150 1.981974 0.337679 128 128 255 -0.055106 -0.316472 0.947000
