ply
format ascii 1.0
element vertex 690
property float x
property float y
property float z
property uchar red
property uchar green
property uchar blue
property float nx
property float ny
property float nz
end_header
0.506777 1.623371 -0.292747 128 128 255 0.808111 0.589030 -0.000266
0.426285 1.733647 -0.174150 128 128 255 0.796491 0.604650 -0.000179
0.329969 1.856340 -0.079159 128 128 255 0.770154 0.637858 -0.000113
0.224249 1.977615 -0.017867 128 128 255 0.726801 0.686849 -0.000068
0.101111 2.098520 0.003209 128 128 255 0.669084 0.743187 -0.000045
-0.037316 2.213101 -0.018185 128 128 255 0.582803 0.812614 -0.000038
-0.192048 2.308772 -0.079794 128 128 255 0.485404 0.874290 -0.000029
-0.353958 2.388899 -0.175096 128 128 255 0.370493 0.928835 0.000003
-0.526139 2.442041 -0.293996 128 128 255 0.216808 0.976214 0.000068
-0.704117 2.466690 -0.423893 128 128 255 0.052206 0.998636 0.000167
-0.876133 2.460388 -0.551020 128 128 255 -0.130477 0.991451 0.000289
-1.043477 2.422107 -0.661906 128 128 255 -0.316064 0.948738 0.000406
-1.200838 2.352305 -0.744713 128 128 255 -0.504897 0.863180 0.000487
-1.336669 2.250679 -0.790464 128 128 255 -0.662068 0.749444 0.000507
-1.455740 2.127143 -0.794580 128 128 255 -0.793924 0.608017 0.000462
-1.546097 1.977170 -0.756609 128 128 255 -0.894819 0.446428 0.000356
-1.612608 1.812608 -0.680569 128 128 255 -0.951899 0.306413 0.000220
-1.654867 1.639114 -0.574516 128 128 255 -0.987388 0.158320 0.000077
-1.669441 1.457998 -0.449694 128 128 255 -0.999863 0.016575 -0.000037
-1.660910 1.274749 -0.319341 128 128 255 -0.994203 -0.107522 -0.000100
-1.630601 1.098693 -0.197282 128 128 255 -0.977565 -0.210632 -0.000114
-1.587475 0.933829 -0.096462 128 128 255 -0.958304 -0.285750 -0.000101
-1.534508 0.776385 -0.027576 128 128 255 -0.939757 -0.341843 -0.000081
-1.479468 0.636891 0.002073 128 128 255 -0.924595 -0.380951 -0.000070
-1.423431 0.506793 -0.010659 128 128 255 -0.913821 -0.406118 -0.000084
-1.371532 0.394038 -0.064417 128 128 255 -0.923842 -0.382773 -0.000127
-1.332613 0.287642 -0.153495 128 128 255 -0.953138 -0.302534 -0.000203
-1.307823 0.193458 -0.268438 128 128 255 -0.984476 -0.175520 -0.000307
-1.299283 0.101111 -0.397049 128 128 255 -1.000000 -0.000009 -0.000415
-1.307717 0.006549 -0.525680 128 128 255 -0.984832 0.173511 -0.000494
-1.332413 -0.087616 -0.640684 128 128 255 -0.953128 0.302567 -0.000526
-1.371265 -0.193985 -0.729862 128 128 255 -0.923810 0.382852 -0.000512
-1.423135 -0.306714 -0.783757 128 128 255 -0.913758 0.406258 -0.000473
-1.479183 -0.436794 -0.796657 128 128 255 -0.924519 0.381136 -0.000423
-1.534274 -0.576288 -0.767206 128 128 255 -0.939680 0.342055 -0.000353
-1.587315 -0.733751 -0.698541 128 128 255 -0.958243 0.285954 -0.000279
-1.630520 -0.898647 -0.597967 128 128 255 -0.977532 0.210788 -0.000200
-1.660890 -1.074736 -0.476173 128 128 255 -0.994195 0.107595 -0.000123
-1.669446 -1.258002 -0.346103 128 128 255 -0.999862 -0.016602 -0.000056
-1.654859 -1.439106 -0.221581 128 128 255 -0.987370 -0.158430 -0.000006
-1.612562 -1.612562 -0.115842 128 128 255 -0.951850 -0.306563 0.000023
-1.546012 -1.777073 -0.040127 128 128 255 -0.894751 -0.446566 0.000033
-1.455632 -1.927002 -0.002492 128 128 255 -0.793852 -0.608111 0.000036
-1.336561 -2.050517 -0.006950 128 128 255 -0.662030 -0.749477 0.000046
-1.200751 -2.152153 -0.052869 128 128 255 -0.504914 -0.863170 0.000066
-1.043421 -2.221993 -0.135353 128 128 255 -0.316104 -0.948725 0.000096
-0.876109 -2.260329 -0.245830 128 128 255 -0.130522 -0.991445 0.000124
-0.704114 -2.266681 -0.372558 128 128 255 0.052194 -0.998637 0.000134
-0.526145 -2.242062 -0.502066 128 128 255 0.216869 -0.976201 0.000126
-0.353961 -2.188914 -0.620591 128 128 255 0.370636 -0.928778 0.000084
-0.192044 -2.108745 -0.715534 128 128 255 0.485613 -0.874174 0.000014
-0.037310 -2.013007 -0.776803 128 128 255 0.585958 -0.810341 -0.000075
0.098889 -1.898353 -0.797876 128 128 255 0.669299 -0.742993 -0.000174
0.224235 -1.777400 -0.776503 128 128 255 0.723651 -0.690166 -0.000271
0.329940 -1.656120 -0.714938 128 128 255 0.770272 -0.637715 -0.000345
0.426251 -1.533476 -0.619701 128 128 255 0.796558 -0.604562 -0.000382
0.506755 -1.423287 -0.500891 128 128 255 0.808140 -0.588991 -0.000373
0.581501 -1.320618 -0.371108 128 128 255 0.783558 -0.621319 -0.000335
0.654499 -1.237108 -0.244119 128 128 255 0.728428 -0.685122 -0.000273
0.725619 -1.167488 -0.133396 128 128 255 0.655127 -0.755518 -0.000199
0.799133 -1.111747 -0.050686 128 128 255 0.508957 -0.860792 -0.000134
0.885582 -1.072933 -0.004764 128 128 255 0.342168 -0.939639 -0.000094
0.979230 -1.046172 -0.000502 128 128 255 0.216821 -0.976211 -0.000086
1.088895 -1.027774 -0.038352 128 128 255 0.128613 -0.991695 -0.000108
1.215516 -1.015516 -0.114297 128 128 255 0.103654 -0.994613 -0.000152
1.354258 -1.000091 -0.220279 128 128 255 0.126341 -0.991987 -0.000203
1.503370 -0.978807 -0.345054 128 128 255 0.167273 -0.985911 -0.000241
1.666480 -0.947057 -0.475383 128 128 255 0.237811 -0.971311 -0.000245
1.830520 -0.898647 -0.597442 128 128 255 0.321002 -0.947078 -0.000194
1.997062 -0.834964 -0.698283 128 128 255 0.401370 -0.915916 -0.000092
2.160371 -0.754084 -0.767215 128 128 255 0.514224 -0.857656 0.000039
2.307746 -0.648695 -0.796931 128 128 255 0.628937 -0.777456 0.000173
2.442124 -0.526161 -0.784291 128 128 255 0.735982 -0.677001 0.000276
2.549123 -0.386271 -0.730649 128 128 255 0.836786 -0.547529 0.000335
2.632957 -0.234435 -0.641713 128 128 255 0.921230 -0.389018 0.000342
2.683398 -0.068141 -0.526937 128 128 255 0.980052 -0.198743 0.000308
2.700442 0.098719 -0.398380 128 128 255 0.994803 -0.101817 0.000268
2.700435 0.100000 -0.370577 128 128 255 0.994882 0.101039 0.000197
2.683333 0.268137 -0.241796 128 128 255 0.980213 0.197946 0.000149
2.632851 0.434421 -0.126668 128 128 255 0.921270 0.388924 0.000083
2.549005 0.586247 -0.037393 128 128 255 0.836884 0.547380 0.000038
2.442030 0.726136 0.016574 128 128 255 0.736155 0.676813 0.000014
2.307707 0.848681 0.029522 128 128 255 0.629167 0.777270 -0.000002
2.160396 0.954095 0.000096 128 128 255 0.514487 0.857498 -0.000022
1.997137 1.035001 -0.068566 128 128 255 0.401601 0.915815 -0.000057
1.830604 1.098695 -0.169159 128 128 255 0.321167 0.947022 -0.000117
1.666526 1.147088 -0.290993 128 128 255 0.237893 0.971291 -0.000195
1.503348 1.178791 -0.421122 128 128 255 0.167269 0.985911 -0.000280
1.354163 1.200008 -0.545725 128 128 255 0.126281 0.991995 -0.000366
1.215365 1.215365 -0.651566 128 128 255 0.103568 0.994622 -0.000441
1.088714 1.227568 -0.727404 128 128 255 0.128513 0.991708 -0.000514
0.979047 1.245933 -0.765184 128 128 255 0.216735 0.976230 -0.000584
0.885417 1.272686 -0.760892 128 128 255 0.342111 0.939660 -0.000629
0.799002 1.311520 -0.714981 128 128 255 0.508918 0.860815 -0.000625
0.725531 1.367310 -0.632324 128 128 255 0.655120 0.755525 -0.000560
0.654456 1.437003 -0.521696 128 128 255 0.728425 0.685125 -0.000466
0.581498 1.520609 -0.394840 128 128 255 0.783542 0.621338 -0.000354
0.506779 1.623379 -0.265227 128 128 255 0.808109 0.589033 -0.000249
0.426286 1.733653 -0.146620 128 128 255 0.796489 0.604653 -0.000163
0.329970 1.856344 -0.051615 128 128 255 0.770152 0.637861 -0.000097
0.224249 1.977617 0.009694 128 128 255 0.726798 0.686851 -0.000053
0.101111 2.098521 0.030788 128 128 255 0.669080 0.743190 -0.000035
-0.037316 2.213103 0.009415 128 128 255 0.582798 0.812617 -0.000030
-0.192048 2.308773 -0.052172 128 128 255 0.485398 0.874293 -0.000025
-0.353958 2.388899 -0.147450 128 128 255 0.370486 0.928838 -0.000001
-0.526139 2.442039 -0.266324 128 128 255 0.216799 0.976216 0.000059
-0.704115 2.466685 -0.396194 128 128 255 0.052196 0.998637 0.000154
-0.876130 2.460381 -0.523294 128 128 255 -0.130486 0.991450 0.000271
-1.043472 2.422096 -0.634152 128 128 255 -0.316068 0.948736 0.000381
-1.200832 2.352293 -0.716943 128 128 255 -0.504895 0.863180 0.000462
-1.336661 2.250667 -0.762721 128 128 255 -0.662063 0.749448 0.000482
-1.455732 2.127133 -0.766863 128 128 255 -0.793918 0.608025 0.000438
-1.546090 1.977162 -0.728917 128 128 255 -0.894814 0.446438 0.000335
-1.612604 1.812604 -0.652900 128 128 255 -0.951895 0.306425 0.000202
-1.654865 1.639112 -0.546870 128 128 255 -0.987386 0.158333 0.000067
-1.669442 1.457999 -0.422070 128 128 255 -0.999862 0.016588 -0.000039
-1.660913 1.274751 -0.291737 128 128 255 -0.994204 -0.107512 -0.000095
-1.630604 1.098695 -0.169696 128 128 255 -0.977567 -0.210626 -0.000106
-1.587478 0.933831 -0.068892 128 128 255 -0.958305 -0.285747 -0.000088
-1.534511 0.776386 -0.000019 128 128 255 -0.939758 -0.341840 -0.000064
-1.479470 0.636892 0.029618 128 128 255 -0.924596 -0.380950 -0.000052
-1.423434 0.506794 0.016877 128 128 255 -0.913821 -0.406117 -0.000063
-1.371536 0.394039 -0.036888 128 128 255 -0.923843 -0.382772 -0.000107
-1.332619 0.287643 -0.125969 128 128 255 -0.953139 -0.302533 -0.000182
-1.307832 0.193458 -0.240913 128 128 255 -0.984476 -0.175517 -0.000284
-1.299294 0.101111 -0.369523 128 128 255 -1.000000 -0.000005 -0.000395
-1.307731 0.006548 -0.498150 128 128 255 -0.984831 0.173514 -0.000477
-1.332429 -0.087618 -0.613148 128 128 255 -0.953128 0.302567 -0.000514
-1.371282 -0.193988 -0.702317 128 128 255 -0.923812 0.382847 -0.000504
-1.423151 -0.306718 -0.756199 128 128 255 -0.913763 0.406247 -0.000468
-1.479198 -0.436799 -0.769086 128 128 255 -0.924524 0.381123 -0.000420
-1.534286 -0.576293 -0.739618 128 128 255 -0.939686 0.342039 -0.000354
-1.587325 -0.733756 -0.670935 128 128 255 -0.958248 0.285937 -0.000280
-1.630527 -0.898651 -0.570341 128 128 255 -0.977535 0.210772 -0.000199
-1.660894 -1.074738 -0.448524 128 128 255 -0.994196 0.107579 -0.000123
-1.669447 -1.258003 -0.318431 128 128 255 -0.999862 -0.016615 -0.000056
-1.654859 -1.439106 -0.193884 128 128 255 -0.987369 -0.158440 -0.000007
-1.612562 -1.612562 -0.088118 128 128 255 -0.951848 -0.306571 0.000018
-1.546011 -1.777072 -0.012376 128 128 255 -0.894748 -0.446572 0.000025
-1.455631 -1.927001 0.025287 128 128 255 -0.793849 -0.608115 0.000027
-1.336560 -2.050516 0.020856 128 128 255 -0.662028 -0.749479 0.000035
-1.200750 -2.152152 -0.025060 128 128 255 -0.504915 -0.863169 0.000057
-1.043420 -2.221991 -0.107570 128 128 255 -0.316108 -0.948723 0.000085
-0.876108 -2.260326 -0.218075 128 128 255 -0.130527 -0.991445 0.000114
-0.704113 -2.266678 -0.344828 128 128 255 0.052189 -0.998637 0.000128
-0.526144 -2.242058 -0.474361 128 128 255 0.216857 -0.976203 0.000114
-0.353961 -2.188911 -0.592910 128 128 255 0.370622 -0.928784 0.000074
-0.192044 -2.108744 -0.687876 128 128 255 0.485599 -0.874182 0.000007
-0.037310 -2.013010 -0.749165 128 128 255 0.585943 -0.810352 -0.000082
0.098889 -1.898360 -0.770258 128 128 255 0.669286 -0.743005 -0.000182
0.224236 -1.777410 -0.748902 128 128 255 0.723639 -0.690179 -0.000273
0.329942 -1.656134 -0.687351 128 128 255 0.770263 -0.637727 -0.000341
0.426253 -1.533490 -0.592128 128 128 255 0.796552 -0.604570 -0.000373
0.506758 -1.423300 -0.473328 128 128 255 0.808136 -0.588995 -0.000361
0.581505 -1.320629 -0.343553 128 128 255 0.783556 -0.621321 -0.000319
0.654502 -1.237115 -0.216569 128 128 255 0.728426 -0.685124 -0.000251
0.725622 -1.167493 -0.105849 128 128 255 0.655125 -0.755520 -0.000176
0.799135 -1.111750 -0.023138 128 128 255 0.508955 -0.860793 -0.000112
0.885584 -1.072935 0.022786 128 128 255 0.342167 -0.939639 -0.000072
0.979232 -1.046174 0.027053 128 128 255 0.216819 -0.976212 -0.000065
1.088897 -1.027777 -0.010789 128 128 255 0.128613 -0.991695 -0.000087
1.215520 -1.015520 -0.086724 128 128 255 0.103656 -0.994613 -0.000132
1.354263 -1.000096 -0.192694 128 128 255 0.126345 -0.991986 -0.000189
1.503377 -0.978813 -0.317453 128 128 255 0.167281 -0.985909 -0.000230
1.666488 -0.947062 -0.447766 128 128 255 0.237824 -0.971308 -0.000239
1.830527 -0.898651 -0.569806 128 128 255 0.321017 -0.947073 -0.000195
1.997065 -0.834966 -0.670627 128 128 255 0.401387 -0.915909 -0.000097
2.160370 -0.754084 -0.739537 128 128 255 0.514242 -0.857645 0.000029
2.307741 -0.648693 -0.769230 128 128 255 0.628952 -0.777444 0.000156
2.442115 -0.526159 -0.756566 128 128 255 0.735993 -0.676989 0.000259
2.549113 -0.386269 -0.702899 128 128 255 0.836793 -0.547520 0.000317
2.632947 -0.234434 -0.613938 128 128 255 0.921234 -0.389010 0.000323
2.683389 -0.068140 -0.499136 128 128 255 0.980053 -0.198736 0.000286
2.700435 0.098719 -0.370592 128 128 255 0.994803 -0.101814 0.000248
2.700429 0.100000 -0.342771 128 128 255 0.994882 0.101041 0.000180
2.683329 0.268136 -0.214022 128 128 255 0.980214 0.197940 0.000138
2.632849 0.434421 -0.098926 128 128 255 0.921272 0.388919 0.000073
2.549005 0.586247 -0.009682 128 128 255 0.836885 0.547378 0.000027
2.442030 0.726136 0.044255 128 128 255 0.736156 0.676812 0.000007
2.307707 0.848681 0.057174 128 128 255 0.629169 0.777268 -0.000001
2.160397 0.954095 0.027719 128 128 255 0.514489 0.857497 -0.000016
1.997139 1.035002 -0.040968 128 128 255 0.401605 0.915813 -0.000049
1.830608 1.098697 -0.141586 128 128 255 0.321173 0.947021 -0.000107
1.666532 1.147092 -0.263441 128 128 255 0.237900 0.971290 -0.000183
1.503356 1.178797 -0.393591 128 128 255 0.167276 0.985910 -0.000267
1.354173 1.200017 -0.518211 128 128 255 0.126288 0.991994 -0.000353
1.215376 1.215376 -0.624066 128 128 255 0.103576 0.994621 -0.000431
1.088725 1.227581 -0.699916 128 128 255 0.128522 0.991707 -0.000506
0.979057 1.245947 -0.737704 128 128 255 0.216743 0.976229 -0.000575
0.885427 1.272701 -0.733418 128 128 255 0.342116 0.939657 -0.000616
0.799011 1.311535 -0.687510 128 128 255 0.508921 0.860813 -0.000611
0.725538 1.367324 -0.604852 128 128 255 0.655119 0.755525 -0.000545
0.654461 1.437016 -0.494220 128 128 255 0.728425 0.685125 -0.000447
0.581501 1.520620 -0.367358 128 128 255 0.783542 0.621339 -0.000336
0.506782 1.623388 -0.237735 128 128 255 0.808107 0.589036 -0.000232
0.426287 1.733659 -0.119115 128 128 255 0.796487 0.604656 -0.000146
0.329970 1.856347 -0.024095 128 128 255 0.770149 0.637864 -0.000082
0.224250 1.977619 0.037232 128 128 255 0.726795 0.686854 -0.000040
0.101111 2.098522 0.058347 128 128 255 0.669078 0.743192 -0.000022
-0.037316 2.213104 0.036996 128 128 255 0.582793 0.812621 -0.000021
-0.192048 2.308774 -0.024565 128 128 255 0.485393 0.874296 -0.000020
-0.353958 2.388899 -0.119817 128 128 255 0.370476 0.928842 0.000001
-0.526138 2.442038 -0.238663 128 128 255 0.216789 0.976219 0.000053
-0.704114 2.466681 -0.368503 128 128 255 0.052187 0.998637 0.000140
-0.876127 2.460374 -0.495572 128 128 255 -0.130493 0.991449 0.000252
-1.043468 2.422087 -0.606399 128 128 255 -0.316072 0.948735 0.000359
-1.200825 2.352282 -0.689173 128 128 255 -0.504894 0.863181 0.000434
-1.336654 2.250656 -0.734980 128 128 255 -0.662059 0.749451 0.000458
-1.455725 2.127123 -0.739150 128 128 255 -0.793913 0.608032 0.000417
-1.546084 1.977155 -0.701232 128 128 255 -0.894810 0.446448 0.000317
-1.612599 1.812599 -0.625242 128 128 255 -0.951891 0.306437 0.000189
-1.654864 1.639111 -0.519237 128 128 255 -0.987384 0.158346 0.000058
-1.669443 1.458000 -0.394460 128 128 255 -0.999862 0.016599 -0.000042
-1.660916 1.274753 -0.264149 128 128 255 -0.994205 -0.107504 -0.000091
-1.630608 1.098697 -0.142127 128 128 255 -0.977568 -0.210620 -0.000095
-1.587481 0.933832 -0.041341 128 128 255 -0.958306 -0.285744 -0.000074
-1.534513 0.776386 0.027517 128 128 255 -0.939758 -0.341839 -0.000048
-1.479471 0.636892 0.057142 128 128 255 -0.924596 -0.380949 -0.000035
-1.423435 0.506794 0.044391 128 128 255 -0.913821 -0.406117 -0.000045
-1.371539 0.394039 -0.009381 128 128 255 -0.923844 -0.382770 -0.000086
-1.332624 0.287644 -0.098467 128 128 255 -0.953139 -0.302531 -0.000160
-1.307839 0.193459 -0.213413 128 128 255 -0.984477 -0.175515 -0.000261
-1.299305 0.101111 -0.342021 128 128 255 -1.000000 -0.000003 -0.000372
-1.307745 0.006548 -0.470644 128 128 255 -0.984831 0.173514 -0.000456
-1.332445 -0.087620 -0.585634 128 128 255 -0.953129 0.302564 -0.000498
-1.371298 -0.193992 -0.674793 128 128 255 -0.923814 0.382841 -0.000493
-1.423167 -0.306723 -0.728663 128 128 255 -0.913767 0.406237 -0.000462
-1.479213 -0.436804 -0.741534 128 128 255 -0.924530 0.381110 -0.000418
-1.534299 -0.576298 -0.712049 128 128 255 -0.939691 0.342024 -0.000352
-1.587334 -0.733760 -0.643346 128 128 255 -0.958253 0.285921 -0.000279
-1.630533 -0.898654 -0.542729 128 128 255 -0.977539 0.210756 -0.000198
-1.660897 -1.074740 -0.420889 128 128 255 -0.994198 0.107564 -0.000122
-1.669449 -1.258004 -0.290770 128 128 255 -0.999862 -0.016627 -0.000054
-1.654859 -1.439106 -0.166195 128 128 255 -0.987367 -0.158449 -0.000008
-1.612561 -1.612561 -0.060401 128 128 255 -0.951846 -0.306577 0.000014
-1.546011 -1.777072 0.015371 128 128 255 -0.894746 -0.446576 0.000018
-1.455631 -1.927000 0.053064 128 128 255 -0.793846 -0.608119 0.000018
-1.336560 -2.050515 0.048664 128 128 255 -0.662027 -0.749480 0.000023
-1.200749 -2.152150 0.002750 128 128 255 -0.504917 -0.863168 0.000042
-1.043419 -2.221989 -0.079790 128 128 255 -0.316111 -0.948722 0.000075
-0.876106 -2.260323 -0.190324 128 128 255 -0.130534 -0.991444 0.000102
-0.704112 -2.266674 -0.317106 128 128 255 0.052178 -0.998638 0.000114
-0.526143 -2.242054 -0.446667 128 128 255 0.216847 -0.976206 0.000104
-0.353960 -2.188909 -0.565242 128 128 255 0.370607 -0.928790 0.000062
-0.192044 -2.108744 -0.660233 128 128 255 0.485584 -0.874190 -0.000005
-0.037310 -2.013012 -0.721546 128 128 255 0.585928 -0.810363 -0.000089
0.098889 -1.898367 -0.742660 128 128 255 0.669273 -0.743016 -0.000186
0.224237 -1.777420 -0.721323 128 128 255 0.723628 -0.690190 -0.000275
0.329944 -1.656147 -0.659789 128 128 255 0.770254 -0.637737 -0.000338
0.426256 -1.533503 -0.564579 128 128 255 0.796545 -0.604579 -0.000363
0.506761 -1.423313 -0.445791 128 128 255 0.808132 -0.589001 -0.000346
0.581508 -1.320638 -0.316025 128 128 255 0.783553 -0.621325 -0.000300
0.654505 -1.237122 -0.189047 128 128 255 0.728425 -0.685125 -0.000231
0.725624 -1.167497 -0.078329 128 128 255 0.655123 -0.755522 -0.000152
0.799136 -1.111752 0.004381 128 128 255 0.508951 -0.860795 -0.000087
0.885584 -1.072936 0.050308 128 128 255 0.342164 -0.939640 -0.000048
0.979233 -1.046175 0.054581 128 128 255 0.216817 -0.976212 -0.000043
1.088899 -1.027779 0.016747 128 128 255 0.128612 -0.991695 -0.000069
1.215523 -1.015523 -0.059176 128 128 255 0.103658 -0.994613 -0.000114
1.354268 -1.000101 -0.165132 128 128 255 0.126350 -0.991986 -0.000170
1.503384 -0.978818 -0.289876 128 128 255 0.167289 -0.985908 -0.000217
1.666495 -0.947067 -0.420170 128 128 255 0.237837 -0.971305 -0.000230
1.830533 -0.898654 -0.542190 128 128 255 0.321032 -0.947068 -0.000193
1.997069 -0.834968 -0.642988 128 128 255 0.401403 -0.915902 -0.000104
2.160369 -0.754084 -0.711874 128 128 255 0.514259 -0.857635 0.000017
2.307736 -0.648691 -0.741542 128 128 255 0.628966 -0.777433 0.000142
2.442107 -0.526157 -0.728851 128 128 255 0.736004 -0.676977 0.000239
2.549103 -0.386267 -0.675157 128 128 255 0.836800 -0.547509 0.000297
2.632938 -0.234432 -0.586167 128 128 255 0.921236 -0.389003 0.000308
2.683381 -0.068140 -0.471337 128 128 255 0.980053 -0.198736 0.000274
2.700429 0.098719 -0.342808 128 128 255 0.994804 -0.101813 0.000231
2.700424 0.100000 -0.314966 128 128 255 0.994882 0.101040 0.000165
2.683326 0.268136 -0.186252 128 128 255 0.980214 0.197939 0.000122
2.632847 0.434420 -0.071190 128 128 255 0.921274 0.388913 0.000066
2.549004 0.586247 0.018021 128 128 255 0.836888 0.547375 0.000024
2.442030 0.726136 0.071925 128 128 255 0.736157 0.676810 0.000004
2.307707 0.848681 0.084813 128 128 255 0.629170 0.777268 -0.000001
2.160397 0.954095 0.055328 128 128 255 0.514491 0.857496 -0.000011
1.997140 1.035003 -0.013387 128 128 255 0.401607 0.915812 -0.000040
1.830611 1.098699 -0.114031 128 128 255 0.321177 0.947019 -0.000096
1.666538 1.147096 -0.235910 128 128 255 0.237906 0.971288 -0.000172
1.503364 1.178803 -0.366080 128 128 255 0.167285 0.985909 -0.000257
1.354182 1.200025 -0.490719 128 128 255 0.126296 0.991992 -0.000343
1.215386 1.215386 -0.596590 128 128 255 0.103584 0.994621 -0.000420
1.088736 1.227593 -0.672452 128 128 255 0.128530 0.991706 -0.000493
0.979068 1.245961 -0.710249 128 128 255 0.216750 0.976227 -0.000563
0.885437 1.272715 -0.705969 128 128 255 0.342121 0.939656 -0.000604
0.799019 1.311550 -0.660063 128 128 255 0.508924 0.860811 -0.000595
0.725545 1.367338 -0.577405 128 128 255 0.655119 0.755526 -0.000528
0.654466 1.437028 -0.466769 128 128 255 0.728423 0.685127 -0.000431
0.581505 1.520630 -0.339899 128 128 255 0.783541 0.621340 -0.000318
0.506784 1.623395 -0.210266 128 128 255 0.808105 0.589039 -0.000214
0.426288 1.733664 -0.091632 128 128 255 0.796485 0.604658 -0.000128
0.329970 1.856350 0.003405 128 128 255 0.770148 0.637866 -0.000064
0.224250 1.977620 0.064752 128 128 255 0.726793 0.686856 -0.000025
0.101111 2.098523 0.085888 128 128 255 0.669076 0.743194 -0.000011
-0.037316 2.213104 0.064563 128 128 255 0.582790 0.812623 -0.000013
-0.192048 2.308774 0.003028 128 128 255 0.485389 0.874299 -0.000014
-0.353958 2.388899 -0.092195 128 128 255 0.370469 0.928845 0.000000
-0.526138 2.442036 -0.211010 128 128 255 0.216780 0.976221 0.000048
-0.704113 2.466677 -0.340818 128 128 255 0.052175 0.998638 0.000133
-0.876125 2.460367 -0.467855 128 128 255 -0.130502 0.991448 0.000237
-1.043463 2.422078 -0.578647 128 128 255 -0.316078 0.948733 0.000342
-1.200819 2.352272 -0.661403 128 128 255 -0.504895 0.863181 0.000414
-1.336647 2.250645 -0.707240 128 128 255 -0.662056 0.749454 0.000432
-1.455717 2.127113 -0.711441 128 128 255 -0.793908 0.608038 0.000395
-1.546078 1.977148 -0.673552 128 128 255 -0.894805 0.446457 0.000300
-1.612595 1.812595 -0.597591 128 128 255 -0.951887 0.306448 0.000174
-1.654863 1.639110 -0.491612 128 128 255 -0.987382 0.158357 0.000049
-1.669445 1.458001 -0.366861 128 128 255 -0.999862 0.016609 -0.000043
-1.660919 1.274755 -0.236573 128 128 255 -0.994205 -0.107497 -0.000087
-1.630611 1.098699 -0.114572 128 128 255 -0.977569 -0.210616 -0.000086
-1.587483 0.933834 -0.013805 128 128 255 -0.958307 -0.285741 -0.000059
-1.534514 0.776387 0.055037 128 128 255 -0.939759 -0.341838 -0.000030
-1.479472 0.636892 0.084648 128 128 255 -0.924596 -0.380949 -0.000014
-1.423437 0.506795 0.071887 128 128 255 -0.913821 -0.406117 -0.000025
-1.371541 0.394040 0.018107 128 128 255 -0.923844 -0.382769 -0.000066
-1.332628 0.287644 -0.070983 128 128 255 -0.953140 -0.302530 -0.000138
-1.307846 0.193459 -0.185930 128 128 255 -0.984477 -0.175511 -0.000240
-1.299314 0.101111 -0.314537 128 128 255 -1.000000 0.000000 -0.000349
-1.307757 0.006547 -0.443155 128 128 255 -0.984831 0.173516 -0.000436
-1.332460 -0.087622 -0.558138 128 128 255 -0.953130 0.302562 -0.000482
-1.371314 -0.193995 -0.647287 128 128 255 -0.923816 0.382837 -0.000483
-1.423183 -0.306727 -0.701144 128 128 255 -0.913772 0.406228 -0.000454
-1.479227 -0.436809 -0.713998 128 128 255 -0.924535 0.381098 -0.000412
-1.534311 -0.576303 -0.684494 128 128 255 -0.939696 0.342009 -0.000350
-1.587344 -0.733765 -0.615770 128 128 255 -0.958258 0.285906 -0.000277
-1.630540 -0.898658 -0.515130 128 128 255 -0.977542 0.210741 -0.000196
-1.660901 -1.074743 -0.393264 128 128 255 -0.994200 0.107551 -0.000120
-1.669450 -1.258005 -0.263117 128 128 255 -0.999862 -0.016639 -0.000055
-1.654859 -1.439106 -0.138513 128 128 255 -0.987366 -0.158457 -0.000008
-1.612561 -1.612561 -0.032688 128 128 255 -0.951845 -0.306581 0.000013
-1.546011 -1.777071 0.043115 128 128 255 -0.894744 -0.446579 0.000011
-1.455630 -1.927000 0.080841 128 128 255 -0.793844 -0.608122 0.000006
-1.336559 -2.050515 0.076474 128 128 255 -0.662026 -0.749481 0.000012
-1.200749 -2.152150 0.030562 128 128 255 -0.504918 -0.863167 0.000030
-1.043418 -2.221987 -0.052011 128 128 255 -0.316115 -0.948721 0.000062
-0.876105 -2.260320 -0.162576 128 128 255 -0.130537 -0.991443 0.000093
-0.704110 -2.266671 -0.289389 128 128 255 0.052171 -0.998638 0.000104
-0.526142 -2.242051 -0.418980 128 128 255 0.216834 -0.976209 0.000090
-0.353960 -2.188907 -0.537584 128 128 255 0.370594 -0.928795 0.000051
-0.192044 -2.108744 -0.632603 128 128 255 0.485569 -0.874198 -0.000016
-0.037310 -2.013016 -0.693940 128 128 255 0.585914 -0.810373 -0.000098
0.098889 -1.898374 -0.715077 128 128 255 0.669261 -0.743028 -0.000192
0.224237 -1.777431 -0.693761 128 128 255 0.723618 -0.690201 -0.000277
0.329945 -1.656159 -0.632245 128 128 255 0.770247 -0.637746 -0.000335
0.426259 -1.533517 -0.537051 128 128 255 0.796540 -0.604586 -0.000354
0.506765 -1.423324 -0.418276 128 128 255 0.808129 -0.589005 -0.000332
0.581511 -1.320647 -0.288519 128 128 255 0.783551 -0.621328 -0.000282
0.654507 -1.237128 -0.161547 128 128 255 0.728424 -0.685127 -0.000210
0.725625 -1.167501 -0.050833 128 128 255 0.655121 -0.755524 -0.000130
0.799137 -1.111754 0.031877 128 128 255 0.508947 -0.860798 -0.000064
0.885585 -1.072937 0.077807 128 128 255 0.342162 -0.939641 -0.000026
0.979233 -1.046176 0.082086 128 128 255 0.216815 -0.976213 -0.000021
1.088900 -1.027780 0.044262 128 128 255 0.128611 -0.991695 -0.000047
1.215525 -1.015525 -0.031650 128 128 255 0.103660 -0.994613 -0.000095
1.354273 -1.000105 -0.137592 128 128 255 0.126354 -0.991985 -0.000154
1.503391 -0.978823 -0.262318 128 128 255 0.167297 -0.985907 -0.000202
1.666502 -0.947072 -0.392592 128 128 255 0.237849 -0.971302 -0.000222
1.830540 -0.898658 -0.514589 128 128 255 0.321047 -0.947063 -0.000191
1.997072 -0.834969 -0.615364 128 128 255 0.401420 -0.915894 -0.000107
2.160368 -0.754083 -0.684223 128 128 255 0.514275 -0.857625 0.000007
2.307732 -0.648690 -0.713864 128 128 255 0.628979 -0.777423 0.000128
2.442100 -0.526155 -0.701144 128 128 255 0.736014 -0.676966 0.000225
2.549095 -0.386265 -0.647420 128 128 255 0.836807 -0.547498 0.000277
2.632929 -0.234431 -0.558401 128 128 255 0.921241 -0.388992 0.000286
2.683374 -0.068139 -0.443540 128 128 255 0.980054 -0.198733 0.000256
2.700424 0.098719 -0.315026 128 128 255 0.994803 -0.101817 0.000220
2.700418 0.100000 -0.287163 128 128 255 0.994883 0.101037 0.000154
2.683323 0.268136 -0.158485 128 128 255 0.980215 0.197937 0.000109
2.632846 0.434420 -0.043458 128 128 255 0.921275 0.388912 0.000054
2.549003 0.586247 0.045718 128 128 255 0.836889 0.547372 0.000020
2.442030 0.726136 0.099587 128 128 255 0.736158 0.676810 0.000002
2.307707 0.848681 0.112442 128 128 255 0.629170 0.777267 0.000000
2.160397 0.954095 0.082926 128 128 255 0.514491 0.857496 -0.000005
1.997141 1.035003 0.014181 128 128 255 0.401609 0.915811 -0.000032
1.830614 1.098701 -0.086490 128 128 255 0.321181 0.947018 -0.000085
1.666543 1.147099 -0.208394 128 128 255 0.237911 0.971287 -0.000159
1.503372 1.178809 -0.338586 128 128 255 0.167291 0.985907 -0.000245
1.354192 1.200033 -0.463244 128 128 255 0.126305 0.991991 -0.000333
1.215397 1.215397 -0.569131 128 128 255 0.103593 0.994620 -0.000410
1.088747 1.227606 -0.645006 128 128 255 0.128539 0.991704 -0.000484
0.979078 1.245974 -0.682813 128 128 255 0.216758 0.976225 -0.000551
0.885446 1.272729 -0.678539 128 128 255 0.342126 0.939654 -0.000590
0.799027 1.311564 -0.632636 128 128 255 0.508927 0.860809 -0.000581
0.725551 1.367351 -0.549977 128 128 255 0.655120 0.755525 -0.000510
0.654471 1.437040 -0.439336 128 128 255 0.728423 0.685128 -0.000411
0.581508 1.520639 -0.312459 128 128 255 0.783540 0.621342 -0.000301
0.506786 1.623402 -0.182814 128 128 255 0.808103 0.589041 -0.000197
0.426289 1.733668 -0.064165 128 128 255 0.796483 0.604661 -0.000111
0.329971 1.856352 0.030890 128 128 255 0.770146 0.637867 -0.000048
0.224250 1.977620 0.092257 128 128 255 0.726792 0.686858 -0.000010
0.101111 2.098523 0.113417 128 128 255 0.669074 0.743196 0.000003
-0.037316 2.213104 0.092117 128 128 255 0.582787 0.812625 -0.000005
-0.192048 2.308775 0.030611 128 128 255 0.485386 0.874300 -0.000013
-0.353958 2.388899 -0.064581 128 128 255 0.370462 0.928847 0.000002
-0.526138 2.442035 -0.183364 128 128 255 0.216771 0.976222 0.000044
-0.704111 2.466674 -0.313138 128 128 255 0.052168 0.998638 0.000120
-0.876122 2.460361 -0.440140 128 128 255 -0.130511 0.991447 0.000225
-1.043459 2.422070 -0.550897 128 128 255 -0.316083 0.948732 0.000323
-1.200814 2.352262 -0.633632 128 128 255 -0.504895 0.863181 0.000395
-1.336640 2.250635 -0.679502 128 128 255 -0.662054 0.749456 0.000416
-1.455711 2.127105 -0.683734 128 128 255 -0.793904 0.608043 0.000373
-1.546072 1.977141 -0.645877 128 128 255 -0.894802 0.446464 0.000279
-1.612592 1.812592 -0.569945 128 128 255 -0.951884 0.306459 0.000161
-1.654862 1.639109 -0.463994 128 128 255 -0.987380 0.158369 0.000043
-1.669446 1.458002 -0.339269 128 128 255 -0.999862 0.016620 -0.000042
-1.660922 1.274757 -0.209005 128 128 255 -0.994206 -0.107490 -0.000080
-1.630614 1.098701 -0.087027 128 128 255 -0.977569 -0.210613 -0.000077
-1.587485 0.933834 0.013721 128 128 255 -0.958307 -0.285740 -0.000046
-1.534514 0.776387 0.082546 128 128 255 -0.939759 -0.341838 -0.000015
-1.479472 0.636892 0.112144 128 128 255 -0.924596 -0.380949 0.000002
-1.423437 0.506795 0.099371 128 128 255 -0.913821 -0.406117 -0.000006
-1.371543 0.394040 0.045584 128 128 255 -0.923845 -0.382767 -0.000046
-1.332632 0.287645 -0.043511 128 128 255 -0.953140 -0.302529 -0.000115
-1.307853 0.193459 -0.158460 128 128 255 -0.984478 -0.175508 -0.000217
-1.299324 0.101111 -0.287065 128 128 255 -1.000000 0.000005 -0.000327
-1.307769 0.006546 -0.415679 128 128 255 -0.984830 0.173519 -0.000416
-1.332474 -0.087624 -0.530654 128 128 255 -0.953130 0.302560 -0.000465
-1.371330 -0.193998 -0.619792 128 128 255 -0.923818 0.382831 -0.000469
-1.423199 -0.306731 -0.673635 128 128 255 -0.913776 0.406218 -0.000446
-1.479241 -0.436814 -0.686473 128 128 255 -0.924539 0.381086 -0.000406
-1.534323 -0.576308 -0.656949 128 128 255 -0.939701 0.341996 -0.000345
-1.587353 -0.733769 -0.588203 128 128 255 -0.958262 0.285892 -0.000273
-1.630546 -0.898662 -0.487538 128 128 255 -0.977545 0.210727 -0.000194
-1.660904 -1.074745 -0.365645 128 128 255 -0.994201 0.107538 -0.000117
-1.669451 -1.258006 -0.235469 128 128 255 -0.999861 -0.016649 -0.000053
-1.654859 -1.439107 -0.110835 128 128 255 -0.987364 -0.158466 -0.000010
-1.612561 -1.612561 -0.004978 128 128 255 -0.951843 -0.306585 0.000009
-1.546010 -1.777071 0.070858 128 128 255 -0.894744 -0.446580 0.000008
-1.455630 -1.927000 0.108618 128 128 255 -0.793843 -0.608123 -0.000002
-1.336559 -2.050515 0.104285 128 128 255 -0.662026 -0.749481 -0.000000
-1.200748 -2.152149 0.058376 128 128 255 -0.504919 -0.863167 0.000020
-1.043418 -2.221986 -0.024231 128 128 255 -0.316118 -0.948720 0.000048
-0.876104 -2.260318 -0.134831 128 128 255 -0.130543 -0.991443 0.000079
-0.704109 -2.266668 -0.261677 128 128 255 0.052166 -0.998638 0.000097
-0.526141 -2.242049 -0.391300 128 128 255 0.216826 -0.976210 0.000083
-0.353959 -2.188905 -0.509934 128 128 255 0.370582 -0.928800 0.000042
-0.192044 -2.108745 -0.604981 128 128 255 0.485556 -0.874205 -0.000022
-0.037311 -2.013019 -0.666345 128 128 255 0.585901 -0.810382 -0.000105
0.098889 -1.898381 -0.687507 128 128 255 0.669248 -0.743039 -0.000193
0.224238 -1.777442 -0.666212 128 128 255 0.723608 -0.690212 -0.000275
0.329947 -1.656172 -0.604716 128 128 255 0.770239 -0.637755 -0.000329
0.426261 -1.533530 -0.509538 128 128 255 0.796535 -0.604592 -0.000344
0.506768 -1.423336 -0.390776 128 128 255 0.808126 -0.589010 -0.000317
0.581514 -1.320656 -0.261029 128 128 255 0.783548 -0.621331 -0.000263
0.654510 -1.237133 -0.134064 128 128 255 0.728423 -0.685128 -0.000188
0.725627 -1.167504 -0.023354 128 128 255 0.655120 -0.755525 -0.000107
0.799138 -1.111755 0.059356 128 128 255 0.508944 -0.860800 -0.000040
0.885585 -1.072937 0.105289 128 128 255 0.342159 -0.939642 -0.000003
0.979233 -1.046176 0.109574 128 128 255 0.216813 -0.976213 0.000000
1.088900 -1.027781 0.071759 128 128 255 0.128610 -0.991695 -0.000027
1.215527 -1.015527 -0.004140 128 128 255 0.103662 -0.994613 -0.000076
1.354277 -1.000108 -0.110066 128 128 255 0.126358 -0.991985 -0.000137
1.503397 -0.978828 -0.234774 128 128 255 0.167303 -0.985905 -0.000190
1.666509 -0.947077 -0.365027 128 128 255 0.237859 -0.971300 -0.000213
1.830546 -0.898662 -0.487001 128 128 255 0.321061 -0.947059 -0.000188
1.997076 -0.834971 -0.587750 128 128 255 0.401435 -0.915888 -0.000111
2.160368 -0.754083 -0.656582 128 128 255 0.514291 -0.857616 -0.000001
2.307728 -0.648689 -0.686194 128 128 255 0.628992 -0.777412 0.000113
2.442093 -0.526153 -0.673444 128 128 255 0.736024 -0.676955 0.000208
2.549087 -0.386264 -0.619689 128 128 255 0.836812 -0.547490 0.000262
2.632921 -0.234430 -0.530638 128 128 255 0.921244 -0.388985 0.000269
2.683367 -0.068139 -0.415745 128 128 255 0.980055 -0.198727 0.000237
2.700418 0.098719 -0.287247 128 128 255 0.994803 -0.101815 0.000203
2.700414 0.100000 -0.259361 128 128 255 0.994883 0.101039 0.000137
2.683320 0.268136 -0.130720 128 128 255 0.980212 0.197950 0.000097
2.632844 0.434420 -0.015731 128 128 255 0.921265 0.388934 0.000042
2.549003 0.586247 0.073409 128 128 255 0.836877 0.547391 0.000012
2.442030 0.726136 0.127243 128 128 255 0.736136 0.676834 0.000002
2.307707 0.848681 0.140064 128 128 255 0.629150 0.777284 0.000000
2.160397 0.954095 0.110516 128 128 255 0.514457 0.857516 -0.000002
1.997142 1.035004 0.041740 128 128 255 0.401586 0.915821 -0.000023
1.830616 1.098702 -0.058959 128 128 255 0.321162 0.947024 -0.000075
1.666548 1.147102 -0.180888 128 128 255 0.237887 0.971293 -0.000148
1.503379 1.178814 -0.311104 128 128 255 0.167279 0.985910 -0.000230
1.354201 1.200041 -0.435781 128 128 255 0.126300 0.991992 -0.000318
1.215407 1.215407 -0.541685 128 128 255 0.103594 0.994620 -0.000398
1.088757 1.227618 -0.617573 128 128 255 0.128573 0.991700 -0.000471
0.979088 1.245987 -0.655390 128 128 255 0.216807 0.976214 -0.000537
0.885455 1.272743 -0.651122 128 128 255 0.342185 0.939632 -0.000572
0.799035 1.311578 -0.605221 128 128 255 0.509009 0.860761 -0.000561
0.725558 1.367364 -0.522561 128 128 255 0.655157 0.755493 -0.000491
0.654476 1.437051 -0.411916 128 128 255 0.728444 0.685106 -0.000391
0.581511 1.520648 -0.285031 128 128 255 0.783560 0.621316 -0.000280
0.506787 1.623409 -0.155374 128 128 255 0.808102 0.589043 -0.000178
0.426290 1.733672 -0.036710 128 128 255 0.796475 0.604671 -0.000093
0.329971 1.856353 0.058364 128 128 255 0.770135 0.637881 -0.000032
0.224250 1.977620 0.119752 128 128 255 0.726776 0.686874 0.000004
0.101111 2.098522 0.140937 128 128 255 0.669058 0.743210 0.000012
-0.037316 2.213104 0.119664 128 128 255 0.582761 0.812644 0.000007
-0.192048 2.308775 0.058188 128 128 255 0.485367 0.874310 -0.000003
-0.353958 2.388899 -0.036973 128 128 255 0.370438 0.928857 -0.000001
-0.526137 2.442034 -0.155722 128 128 255 0.216750 0.976227 0.000036
-0.704110 2.466671 -0.285462 128 128 255 0.052150 0.998639 0.000109
-0.876120 2.460355 -0.412427 128 128 255 -0.130520 0.991446 0.000205
-1.043455 2.422062 -0.523146 128 128 255 -0.316088 0.948730 0.000305
-1.200808 2.352253 -0.605861 128 128 255 -0.504905 0.863175 0.000375
-1.336633 2.250626 -0.651764 128 128 255 -0.662062 0.749449 0.000393
-1.455704 2.127096 -0.656029 128 128 255 -0.793917 0.608026 0.000355
-1.546066 1.977135 -0.618203 128 128 255 -0.894809 0.446449 0.000262
-1.612588 1.812588 -0.542301 128 128 255 -0.951890 0.306441 0.000147
-1.654861 1.639108 -0.436380 128 128 255 -0.987384 0.158343 0.000036
-1.669448 1.458003 -0.311682 128 128 255 -0.999862 0.016595 -0.000042
-1.660924 1.274758 -0.181443 128 128 255 -0.994203 -0.107518 -0.000073
-1.630616 1.098702 -0.059486 128 128 255 -0.977565 -0.210635 -0.000064
-1.587486 0.933835 0.041242 128 128 255 -0.958301 -0.285762 -0.000033
-1.534515 0.776387 0.110050 128 128 255 -0.939752 -0.341856 0.000002
-1.479471 0.636892 0.139633 128 128 255 -0.924591 -0.380960 0.000020
-1.423437 0.506795 0.126850 128 128 255 -0.913817 -0.406126 0.000013
-1.371544 0.394040 0.073054 128 128 255 -0.923857 -0.382737 -0.000025
-1.332635 0.287645 -0.016046 128 128 255 -0.953152 -0.302491 -0.000095
-1.307859 0.193460 -0.130997 128 128 255 -0.984490 -0.175442 -0.000193
-1.299332 0.101111 -0.259600 128 128 255 -1.000000 0.000076 -0.000303
-1.307781 0.006545 -0.388209 128 128 255 -0.984819 0.173582 -0.000394
-1.332488 -0.087626 -0.503176 128 128 255 -0.953120 0.302591 -0.000448
-1.371345 -0.194001 -0.592302 128 128 255 -0.923809 0.382853 -0.000456
-1.423214 -0.306735 -0.646131 128 128 255 -0.913783 0.406202 -0.000436
-1.479256 -0.436819 -0.658952 128 128 255 -0.924548 0.381066 -0.000399
-1.534335 -0.576313 -0.629408 128 128 255 -0.939711 0.341970 -0.000339
-1.587362 -0.733774 -0.560639 128 128 255 -0.958271 0.285861 -0.000268
-1.630552 -0.898665 -0.459949 128 128 255 -0.977552 0.210694 -0.000189
-1.660908 -1.074747 -0.338029 128 128 255 -0.994205 0.107501 -0.000114
-1.669453 -1.258007 -0.207824 128 128 255 -0.999861 -0.016679 -0.000051
-1.654859 -1.439107 -0.083158 128 128 255 -0.987360 -0.158493 -0.000011
-1.612560 -1.612560 0.022731 128 128 255 -0.951837 -0.306603 0.000004
-1.546010 -1.777071 0.098602 128 128 255 -0.894738 -0.446591 -0.000000
-1.455631 -1.927000 0.136396 128 128 255 -0.793839 -0.608128 -0.000009
-1.336559 -2.050515 0.132099 128 128 255 -0.662023 -0.749484 -0.000008
-1.200748 -2.152149 0.086191 128 128 255 -0.504908 -0.863173 0.000010
-1.043417 -2.221985 0.003548 128 128 255 -0.316101 -0.948726 0.000040
-0.876103 -2.260316 -0.107087 128 128 255 -0.130521 -0.991446 0.000069
-0.704109 -2.266665 -0.233967 128 128 255 0.052188 -0.998637 0.000085
-0.526141 -2.242046 -0.363623 128 128 255 0.216851 -0.976205 0.000078
-0.353959 -2.188904 -0.482289 128 128 255 0.370608 -0.928789 0.000039
-0.192044 -2.108745 -0.577365 128 128 255 0.485565 -0.874200 -0.000029
-0.037311 -2.013023 -0.638757 128 128 255 0.585923 -0.810367 -0.000111
0.098889 -1.898388 -0.659944 128 128 255 0.669253 -0.743035 -0.000196
0.224239 -1.777452 -0.638672 128 128 255 0.723618 -0.690201 -0.000274
0.329949 -1.656185 -0.577196 128 128 255 0.770244 -0.637750 -0.000322
0.426264 -1.533542 -0.482035 128 128 255 0.796538 -0.604589 -0.000332
0.506771 -1.423347 -0.363286 128 128 255 0.808123 -0.589014 -0.000301
0.581517 -1.320664 -0.233550 128 128 255 0.783524 -0.621362 -0.000243
0.654512 -1.237138 -0.106593 128 128 255 0.728400 -0.685152 -0.000166
0.725628 -1.167506 0.004114 128 128 255 0.655080 -0.755559 -0.000084
0.799138 -1.111756 0.086823 128 128 255 0.508864 -0.860847 -0.000017
0.885585 -1.072937 0.132759 128 128 255 0.342106 -0.939662 0.000020
0.979233 -1.046176 0.137051 128 128 255 0.216771 -0.976222 0.000022
1.088901 -1.027781 0.099245 128 128 255 0.128585 -0.991698 -0.000006
1.215529 -1.015529 0.023359 128 128 255 0.103668 -0.994612 -0.000057
1.354281 -1.000111 -0.082551 128 128 255 0.126371 -0.991983 -0.000120
1.503402 -0.978832 -0.207240 128 128 255 0.167324 -0.985902 -0.000175
1.666516 -0.947081 -0.337472 128 128 255 0.237893 -0.971291 -0.000204
1.830552 -0.898665 -0.459422 128 128 255 0.321090 -0.947049 -0.000185
1.997080 -0.834973 -0.560144 128 128 255 0.401466 -0.915874 -0.000114
2.160368 -0.754083 -0.628948 128 128 255 0.514328 -0.857593 -0.000011
2.307724 -0.648687 -0.658530 128 128 255 0.629015 -0.777393 0.000101
2.442087 -0.526152 -0.645749 128 128 255 0.736044 -0.676933 0.000191
2.549079 -0.386262 -0.591962 128 128 255 0.836822 -0.547475 0.000244
2.632914 -0.234429 -0.502877 128 128 255 0.921247 -0.388977 0.000252
2.683360 -0.068138 -0.387951 128 128 255 0.980057 -0.198718 0.000220
2.700414 0.098719 -0.259471 128 128 255 0.994804 -0.101812 0.000185
2.700409 0.100000 -0.231560 128 128 255 0.994882 0.101039 0.000122
2.683317 0.268136 -0.102945 128 128 255 0.980199 0.198017 0.000084
2.632843 0.434420 0.012020 128 128 255 0.921226 0.389028 0.000033
2.549003 0.586247 0.101135 128 128 255 0.836826 0.547469 0.000004
2.442030 0.726136 0.154945 128 128 255 0.736045 0.676932 -0.000001
2.307707 0.848681 0.167743 128 128 255 0.629070 0.777349 0.000004
2.160397 0.954095 0.138173 128 128 255 0.514322 0.857597 0.000002
1.997142 1.035004 0.069377 128 128 255 0.401495 0.915861 -0.000016
1.830618 1.098703 -0.031341 128 128 255 0.321078 0.947053 -0.000062
1.666552 1.147105 -0.153288 128 128 255 0.237776 0.971320 -0.000133
1.503386 1.178819 -0.283519 128 128 255 0.167221 0.985919 -0.000218
1.354210 1.200049 -0.408210 128 128 255 0.126264 0.991997 -0.000303
1.215417 1.215417 -0.514125 128 128 255 0.103578 0.994621 -0.000379
1.088768 1.227629 -0.590023 128 128 255 0.128674 0.991687 -0.000451
0.979098 1.246000 -0.627847 128 128 255 0.216967 0.976179 -0.000516
0.885464 1.272757 -0.623583 128 128 255 0.342382 0.939561 -0.000550
0.799043 1.311591 -0.577685 128 128 255 0.509290 0.860595 -0.000535
0.725564 1.367376 -0.495025 128 128 255 0.655292 0.755375 -0.000466
0.654480 1.437062 -0.384376 128 128 255 0.728516 0.685029 -0.000368
0.581514 1.520657 -0.257486 128 128 255 0.783632 0.621225 -0.000258
0.506789 1.623414 -0.127821 128 128 255 0.808100 0.589045 -0.000157
0.426290 1.733675 -0.009148 128 128 255 0.796450 0.604704 -0.000075
0.329971 1.856354 0.085938 128 128 255 0.770101 0.637922 -0.000015
0.224250 1.977620 0.147341 128 128 255 0.726726 0.686927 0.000019
0.101111 2.098521 0.168542 128 128 255 0.669006 0.743257 0.000025
-0.037316 2.213104 0.147287 128 128 255 0.582682 0.812700 0.000012
-0.192048 2.308775 0.085831 128 128 255 0.485319 0.874337 0.000000
-0.353958 2.388899 -0.009309 128 128 255 0.370366 0.928886 0.000003
-0.526137 2.442033 -0.128036 128 128 255 0.216694 0.976240 0.000033
-0.704109 2.466668 -0.257752 128 128 255 0.052114 0.998641 0.000099
-0.876118 2.460350 -0.384692 128 128 255 -0.130532 0.991444 0.000193
-1.043451 2.422054 -0.495387 128 128 255 -0.316086 0.948731 0.000285
-1.200803 2.352244 -0.578087 128 128 255 -0.504942 0.863153 0.000353
-1.336627 2.250617 -0.624011 128 128 255 -0.662106 0.749410 0.000371
-1.455698 2.127088 -0.628296 128 128 255 -0.793985 0.607937 0.000333
-1.546061 1.977129 -0.590489 128 128 255 -0.894851 0.446365 0.000246
-1.612585 1.812585 -0.514606 128 128 255 -0.951921 0.306343 0.000135
-1.654860 1.639108 -0.408702 128 128 255 -0.987405 0.158213 0.000029
-1.669449 1.458004 -0.284020 128 128 255 -0.999864 0.016477 -0.000043
-1.660927 1.274760 -0.153796 128 128 255 -0.994189 -0.107647 -0.000067
-1.630618 1.098703 -0.031852 128 128 255 -0.977545 -0.210728 -0.000050
-1.587487 0.933836 0.068865 128 128 255 -0.958277 -0.285842 -0.000015
-1.534514 0.776387 0.137663 128 128 255 -0.939730 -0.341919 0.000020
-1.479470 0.636892 0.167238 128 128 255 -0.924575 -0.380999 0.000039
-1.423436 0.506795 0.154449 128 128 255 -0.913803 -0.406158 0.000031
-1.371544 0.394040 0.100650 128 128 255 -0.923901 -0.382631 -0.000004
-1.332637 0.287645 0.011547 128 128 255 -0.953192 -0.302366 -0.000071
-1.307864 0.193460 -0.103403 128 128 255 -0.984531 -0.175212 -0.000169
-1.299340 0.101111 -0.232005 128 128 255 -1.000000 0.000328 -0.000278
-1.307792 0.006545 -0.360610 128 128 255 -0.984781 0.173802 -0.000368
-1.332501 -0.087628 -0.475571 128 128 255 -0.953086 0.302700 -0.000424
-1.371360 -0.194004 -0.564690 128 128 255 -0.923774 0.382939 -0.000436
-1.423229 -0.306739 -0.618509 128 128 255 -0.913799 0.406166 -0.000421
-1.479270 -0.436824 -0.631319 128 128 255 -0.924565 0.381025 -0.000388
-1.534347 -0.576318 -0.601762 128 128 255 -0.939733 0.341910 -0.000330
-1.587371 -0.733778 -0.532979 128 128 255 -0.958292 0.285790 -0.000261
-1.630558 -0.898669 -0.432272 128 128 255 -0.977569 0.210617 -0.000183
-1.660911 -1.074750 -0.310334 128 128 255 -0.994215 0.107408 -0.000109
-1.669454 -1.258008 -0.180110 128 128 255 -0.999860 -0.016757 -0.000049
-1.654859 -1.439107 -0.055425 128 128 255 -0.987349 -0.158562 -0.000010
-1.612560 -1.612560 0.050486 128 128 255 -0.951825 -0.306643 0.000002
-1.546010 -1.777071 0.126378 128 128 255 -0.894728 -0.446611 -0.000007
-1.455631 -1.927001 0.164195 128 128 255 -0.793839 -0.608128 -0.000019
-1.336560 -2.050515 0.159920 128 128 255 -0.662020 -0.749486 -0.000019
-1.200748 -2.152149 0.114013 128 128 255 -0.504862 -0.863200 -0.000002
-1.043417 -2.221984 0.031347 128 128 255 -0.316026 -0.948751 0.000028
-0.876103 -2.260314 -0.079311 128 128 255 -0.130419 -0.991459 0.000061
-0.704108 -2.266663 -0.206214 128 128 255 0.052301 -0.998631 0.000076
-0.526140 -2.242044 -0.335892 128 128 255 0.216967 -0.976179 0.000066
-0.353959 -2.188902 -0.454578 128 128 255 0.370734 -0.928739 0.000032
-0.192044 -2.108746 -0.549675 128 128 255 0.485638 -0.874160 -0.000031
-0.037311 -2.013027 -0.611085 128 128 255 0.586042 -0.810281 -0.000113
0.098889 -1.898396 -0.632288 128 128 255 0.669301 -0.742991 -0.000196
0.224239 -1.777462 -0.611032 128 128 255 0.723683 -0.690133 -0.000268
0.329950 -1.656197 -0.549568 128 128 255 0.770279 -0.637707 -0.000312
0.426266 -1.533554 -0.454419 128 128 255 0.796560 -0.604559 -0.000317
0.506773 -1.423357 -0.335680 128 128 255 0.808120 -0.589018 -0.000282
0.581519 -1.320671 -0.205951 128 128 255 0.783443 -0.621464 -0.000222
0.654513 -1.237142 -0.078999 128 128 255 0.728323 -0.685234 -0.000144
0.725629 -1.167508 0.031705 128 128 255 0.654945 -0.755676 -0.000062
0.799138 -1.111756 0.114414 128 128 255 0.508591 -0.861008 0.000005
0.885584 -1.072936 0.160352 128 128 255 0.341921 -0.939729 0.000042
0.979232 -1.046175 0.164647 128 128 255 0.216628 -0.976254 0.000043
1.088901 -1.027781 0.126847 128 128 255 0.128499 -0.991710 0.000014
1.215530 -1.015530 0.050969 128 128 255 0.103685 -0.994610 -0.000038
1.354284 -1.000114 -0.054931 128 128 255 0.126408 -0.991978 -0.000101
1.503407 -0.978836 -0.179608 128 128 255 0.167379 -0.985893 -0.000159
1.666523 -0.947086 -0.309826 128 128 255 0.237985 -0.971269 -0.000191
1.830558 -0.898669 -0.431761 128 128 255 0.321160 -0.947025 -0.000179
1.997084 -0.834975 -0.532467 128 128 255 0.401536 -0.915843 -0.000115
2.160369 -0.754084 -0.601254 128 128 255 0.514414 -0.857542 -0.000018
2.307721 -0.648686 -0.630816 128 128 255 0.629062 -0.777355 0.000087
2.442081 -0.526150 -0.618016 128 128 255 0.736083 -0.676892 0.000177
2.549072 -0.386261 -0.564208 128 128 255 0.836836 -0.547454 0.000227
2.632906 -0.234428 -0.475103 128 128 255 0.921247 -0.388979 0.000237
2.683354 -0.068138 -0.360155 128 128 255 0.980060 -0.198702 0.000205
2.700409 0.098719 -0.231687 128 128 255 0.994804 -0.101809 0.000168
2.700406 0.100000 -0.203761 128 128 255 0.994883 0.101038 0.000111
2.683315 0.268135 -0.075112 128 128 255 0.980199 0.198014 0.000074
2.632843 0.434420 0.039887 128 128 255 0.921241 0.388992 0.000024
2.549003 0.586247 0.129035 128 128 255 0.836855 0.547424 -0.000004
2.442030 0.726136 0.182877 128 128 255 0.736109 0.676863 -0.000008
2.307706 0.848681 0.195705 128 128 255 0.629134 0.777297 0.000004
2.160397 0.954095 0.166164 128 128 255 0.514442 0.857525 0.000009
1.997142 1.035004 0.097395 128 128 255 0.401584 0.915822 -0.000007
1.830620 1.098704 -0.003298 128 128 255 0.321168 0.947022 -0.000050
1.666556 1.147108 -0.125223 128 128 255 0.237899 0.971290 -0.000118
1.503392 1.178824 -0.255435 128 128 255 0.167294 0.985907 -0.000200
1.354218 1.200056 -0.380109 128 128 255 0.126314 0.991990 -0.000286
1.215427 1.215427 -0.486011 128 128 255 0.103604 0.994619 -0.000362
1.088778 1.227641 -0.561898 128 128 255 0.128560 0.991702 -0.000433
0.979108 1.246013 -0.599715 128 128 255 0.216779 0.976221 -0.000495
0.885473 1.272770 -0.595448 128 128 255 0.342143 0.939648 -0.000528
0.799050 1.311604 -0.549549 128 128 255 0.508937 0.860804 -0.000512
0.725570 1.367388 -0.466892 128 128 255 0.655122 0.755523 -0.000441
0.654484 1.437072 -0.356251 128 128 255 0.728421 0.685130 -0.000345
0.581517 1.520665 -0.229370 128 128 255 0.783534 0.621349 -0.000237
0.506790 1.623419 -0.099719 128 128 255 0.808102 0.589042 -0.000137
0.426291 1.733677 0.018939 128 128 255 0.796486 0.604657 -0.000056
0.329971 1.856354 0.114005 128 128 255 0.770153 0.637859 0.000002
0.224250 1.977618 0.175386 128 128 255 0.726807 0.686842 0.000032
0.101111 2.098520 0.196563 128 128 255 0.669095 0.743177 0.000037
-0.037316 2.213103 0.175282 128 128 255 0.582824 0.812598 0.000022
-0.192048 2.308775 0.113797 128 128 255 0.485412 0.874285 0.000003
-0.353958 2.388900 0.018627 128 128 255 0.370511 0.928828 0.000001
-0.526137 2.442032 -0.100131 128 128 255 0.216820 0.976212 0.000031
-0.704108 2.466665 -0.229880 128 128 255 0.052223 0.998635 0.000091
-0.876116 2.460345 -0.356853 128 128 255 -0.130446 0.991455 0.000179
