ply
format ascii 1.0
element vertex 697
property float x
property float y
property float z
property uchar red
property uchar green
property uchar blue
property float nx
property float ny
property float nz
end_header
0.955327 0.156150 0.317875 128 128 255 -0.652245 -0.040254 0.756938
0.975057 0.156150 0.333790 128 128 255 -0.578333 -0.034791 0.815059
0.995898 0.156150 0.346698 128 128 255 -0.482252 -0.029046 0.875551
1.016737 0.156149 0.356779 128 128 255 -0.386858 -0.022708 0.921860
1.037576 0.156149 0.364217 128 128 255 -0.285149 -0.016303 0.958345
1.058414 0.156148 0.369204 128 128 255 -0.181634 -0.010092 0.983314
1.079250 0.156147 0.371936 128 128 255 -0.081094 -0.004258 0.996697
1.101177 0.156147 0.372702 128 128 255 -0.036651 -0.000789 0.999328
-0.901196 0.183942 0.372629 128 128 255 0.019490 -0.001075 0.999809
-0.879249 0.183943 0.372121 128 128 255 0.070269 -0.006420 0.997507
-0.858413 0.183944 0.369581 128 128 255 0.171798 -0.015003 0.985018
-0.837575 0.183945 0.364814 128 128 255 0.274727 -0.024206 0.961217
-0.816736 0.183946 0.357626 128 128 255 0.376287 -0.033741 0.925889
-0.795897 0.183946 0.347828 128 128 255 0.471952 -0.043220 0.880564
-0.775056 0.183947 0.335235 128 128 255 0.568617 -0.051678 0.820978
-0.755326 0.183948 0.319671 128 128 255 0.643345 -0.060312 0.763197
-0.734484 0.183948 0.300971 128 128 255 0.696244 -0.068542 0.714525
-0.713640 0.183949 0.278983 128 128 255 0.748235 -0.075602 0.659112
-0.692795 0.183949 0.253572 128 128 255 0.790418 -0.082032 0.607051
-0.671950 0.183950 0.224621 128 128 255 0.824325 -0.087940 0.559245
-0.651103 0.183950 0.192034 128 128 255 0.845177 -0.095464 0.525893
-0.629144 0.183950 0.155739 128 128 255 0.867583 -0.100381 0.487056
-0.608296 0.183950 0.115689 128 128 255 0.890413 -0.103644 0.443196
-0.587448 0.183950 0.071868 128 128 255 0.904247 -0.108534 0.412986
-0.566599 0.183950 0.024288 128 128 255 0.915322 -0.113386 0.386432
-0.545751 0.183950 -0.027005 128 128 255 0.924189 -0.118266 0.363163
-0.524903 0.183950 -0.081933 128 128 255 0.934577 -0.120095 0.334876
-0.505168 0.183950 -0.140381 128 128 255 0.939914 -0.125605 0.317468
-0.484322 0.183951 -0.202200 128 128 255 0.941375 -0.133640 0.309763
-0.463476 0.183951 -0.267204 128 128 255 0.944832 -0.139179 0.296515
-0.442631 0.183952 -0.335169 128 128 255 0.947442 -0.145010 0.285178
-0.421786 0.183952 -0.405838 128 128 255 0.949314 -0.151184 0.275583
-0.400939 0.183953 -0.478915 128 128 255 0.948014 -0.161852 0.273995
-0.378980 0.183953 -0.554072 128 128 255 0.948758 -0.168430 0.267375
-0.358130 0.183953 -0.630950 128 128 255 0.951189 -0.172358 0.255994
-0.337277 0.183952 -0.709156 128 128 255 0.950675 -0.180533 0.252240
-0.316422 0.183951 -0.788273 128 128 255 0.949595 -0.189406 0.249791
-0.295564 0.183949 -0.867858 128 128 255 0.947918 -0.199081 0.248633
-0.274705 0.183947 -0.947447 128 128 255 0.948309 -0.204289 0.242849
-0.254955 0.183944 -1.026559 128 128 255 0.945211 -0.216507 0.244338
-0.234093 0.183940 -1.104671 128 128 255 0.938441 -0.234592 0.253563
-0.213232 0.183936 -1.181089 128 128 255 0.933367 -0.249187 0.258324
-0.192372 0.183932 -1.255529 128 128 255 0.927239 -0.265162 0.264419
-0.171514 0.183927 -1.327490 128 128 255 0.919596 -0.283132 0.272360
-0.150658 0.183923 -1.396475 128 128 255 0.905698 -0.310581 0.288531
-0.128693 0.183919 -1.461998 128 128 255 0.893510 -0.333082 0.301157
-0.107842 0.183915 -1.523590 128 128 255 0.882737 -0.353073 0.310025
-0.086994 0.183911 -1.580804 128 128 255 0.863146 -0.383516 0.328472
-0.066149 0.183908 -1.633217 128 128 255 0.837699 -0.418651 0.350701
-0.045306 0.183905 -1.680439 128 128 255 0.804208 -0.459241 0.377289
-0.024465 0.183903 -1.722114 128 128 255 0.768467 -0.497429 0.402521
-0.004737 0.183901 -1.757926 128 128 255 0.708708 -0.552144 0.439169
0.016101 0.183899 -1.787601 128 128 255 0.618227 -0.617464 0.486348
0.036937 0.183898 -1.810914 128 128 255 0.509421 -0.678238 0.529607
0.057774 0.183897 -1.827689 128 128 255 0.367928 -0.734557 0.570137
0.078609 0.183897 -1.837800 128 128 255 0.191909 -0.776506 0.600174
0.100000 0.183897 -1.841175 128 128 255 0.000250 -0.791317 0.611406
0.121391 0.183897 -1.837790 128 128 255 -0.191587 -0.776091 0.600814
0.142227 0.183897 -1.827669 128 128 255 -0.367520 -0.734588 0.570359
0.163063 0.183898 -1.810885 128 128 255 -0.509139 -0.678249 0.529865
0.183899 0.183899 -1.787562 128 128 255 -0.618070 -0.617422 0.486600
0.204737 0.183901 -1.757877 128 128 255 -0.709279 -0.550918 0.439788
0.224465 0.183903 -1.722056 128 128 255 -0.767918 -0.498351 0.402428
0.245306 0.183905 -1.680371 128 128 255 -0.804261 -0.459007 0.377461
0.266149 0.183908 -1.633140 128 128 255 -0.837781 -0.418366 0.350847
0.286994 0.183911 -1.580718 128 128 255 -0.863245 -0.383189 0.328596
0.307842 0.183915 -1.523495 128 128 255 -0.882845 -0.352711 0.310128
0.328693 0.183919 -1.461894 128 128 255 -0.893352 -0.333507 0.301156
0.350658 0.183923 -1.396362 128 128 255 -0.906057 -0.309389 0.288685
0.371514 0.183927 -1.327369 128 128 255 -0.919709 -0.282705 0.272421
0.392372 0.183932 -1.255400 128 128 255 -0.927350 -0.264722 0.264470
0.413232 0.183936 -1.180952 128 128 255 -0.933523 -0.248648 0.258280
0.434093 0.183940 -1.104468 128 128 255 -0.938612 -0.233994 0.253484
0.454955 0.183944 -1.026320 128 128 255 -0.945465 -0.215370 0.244362
0.474705 0.183947 -0.947203 128 128 255 -0.948296 -0.204353 0.242847
0.495564 0.183949 -0.867610 128 128 255 -0.948020 -0.198563 0.248658
0.516422 0.183951 -0.788022 128 128 255 -0.949692 -0.188890 0.249813
0.537277 0.183952 -0.708904 128 128 255 -0.950767 -0.180020 0.252259
0.558130 0.183953 -0.630697 128 128 255 -0.951276 -0.171849 0.256010
0.578980 0.183953 -0.553821 128 128 255 -0.948771 -0.168365 0.267369
0.600939 0.183953 -0.478666 128 128 255 -0.948165 -0.160909 0.274027
0.621786 0.183952 -0.405593 128 128 255 -0.949390 -0.150690 0.275591
0.642631 0.183952 -0.334929 128 128 255 -0.947514 -0.144524 0.285184
0.663476 0.183951 -0.266970 128 128 255 -0.944901 -0.138702 0.296519
0.684322 0.183951 -0.201974 128 128 255 -0.941441 -0.133172 0.309764
0.705168 0.183950 -0.140163 128 128 255 -0.940017 -0.124800 0.317481
0.724903 0.183950 -0.081723 128 128 255 -0.934596 -0.119999 0.334859
0.745751 0.183950 -0.026806 128 128 255 -0.924246 -0.117829 0.363160
0.766599 0.183950 0.024476 128 128 255 -0.915377 -0.112959 0.386427
0.787448 0.183950 0.072044 128 128 255 -0.904300 -0.108116 0.412981
0.808296 0.183950 0.115853 128 128 255 -0.890463 -0.103236 0.443191
0.829144 0.183950 0.155889 128 128 255 -0.867607 -0.100246 0.487040
0.851103 0.183950 0.192170 128 128 255 -0.845242 -0.094811 0.525906
0.871949 0.183950 0.224743 128 128 255 -0.824364 -0.087556 0.559248
0.892795 0.183949 0.253679 128 128 255 -0.790450 -0.081651 0.607060
0.913640 0.183949 0.279075 128 128 255 -0.748258 -0.075220 0.659129
0.934484 0.183948 0.301047 128 128 255 -0.696256 -0.068154 0.714551
0.955326 0.183948 0.319732 128 128 255 -0.643345 -0.059750 0.763241
0.975056 0.183947 0.335281 128 128 255 -0.568582 -0.051409 0.821019
0.995897 0.183946 0.347858 128 128 255 -0.471892 -0.042780 0.880618
1.016736 0.183946 0.357641 128 128 255 -0.376194 -0.033271 0.925943
1.037575 0.183945 0.364814 128 128 255 -0.274600 -0.023699 0.961267
1.058413 0.183944 0.369566 128 128 255 -0.171638 -0.014453 0.985054
1.079249 0.183943 0.372091 128 128 255 -0.072147 -0.005799 0.997377
1.101175 0.183942 0.372674 128 128 255 -0.029368 -0.000744 0.999568
-0.901195 0.211738 0.372567 128 128 255 0.007616 0.000109 0.999971
-0.879248 0.211739 0.372300 128 128 255 0.057920 -0.007121 0.998296
-0.858411 0.211740 0.370038 128 128 255 0.157774 -0.018618 0.987300
-0.837574 0.211741 0.365589 128 128 255 0.259846 -0.031017 0.965152
-0.816735 0.211742 0.358762 128 128 255 0.361161 -0.043935 0.931468
-0.795896 0.211743 0.349368 128 128 255 0.457177 -0.056844 0.887557
-0.775055 0.211744 0.337226 128 128 255 0.554557 -0.068492 0.829322
-0.755325 0.211745 0.322162 128 128 255 0.630585 -0.080302 0.771955
-0.734483 0.211746 0.304012 128 128 255 0.684488 -0.091591 0.723248
-0.713639 0.211746 0.282627 128 128 255 0.737546 -0.101309 0.667655
-0.692795 0.211747 0.257872 128 128 255 0.780645 -0.110153 0.615191
-0.671949 0.211747 0.229632 128 128 255 0.815286 -0.118263 0.566853
-0.651103 0.211748 0.197810 128 128 255 0.836461 -0.128424 0.532766
-0.629144 0.211748 0.162335 128 128 255 0.859176 -0.135232 0.493487
-0.608296 0.211748 0.123162 128 128 255 0.882532 -0.139697 0.449023
-0.587448 0.211748 0.080272 128 128 255 0.896465 -0.146327 0.418257
-0.566599 0.211748 0.033677 128 128 255 0.907524 -0.152883 0.391187
-0.545751 0.211748 -0.016579 128 128 255 0.916276 -0.159458 0.367440
-0.524903 0.211748 -0.070420 128 128 255 0.926794 -0.162029 0.338821
-0.505167 0.211748 -0.127732 128 128 255 0.931865 -0.169287 0.320889
-0.484321 0.211749 -0.188371 128 128 255 0.932594 -0.180048 0.312811
-0.463475 0.211750 -0.252152 128 128 255 0.935600 -0.187428 0.299206
-0.442630 0.211750 -0.318858 128 128 255 0.937675 -0.195173 0.287529
-0.421785 0.211751 -0.388233 128 128 255 0.938927 -0.203352 0.277605
-0.400939 0.211752 -0.459989 128 128 255 0.936404 -0.217332 0.275527
-0.378980 0.211752 -0.533802 128 128 255 0.936312 -0.226136 0.268669
-0.358130 0.211752 -0.609318 128 128 255 0.938333 -0.231229 0.257032
-0.337279 0.211752 -0.686152 128 128 255 0.936752 -0.241917 0.252927
-0.316424 0.211750 -0.763892 128 128 255 0.934453 -0.253470 0.250100
-0.295567 0.211748 -0.842103 128 128 255 0.931383 -0.266011 0.248524
-0.274709 0.211745 -0.920328 128 128 255 0.930980 -0.272848 0.242549
-0.254960 0.211741 -0.998093 128 128 255 0.926068 -0.288347 0.243421
-0.234099 0.211737 -1.074885 128 128 255 0.916305 -0.311464 0.251745
-0.213239 0.211732 -1.150028 128 128 255 0.908737 -0.329875 0.255695
-0.192379 0.211726 -1.223235 128 128 255 0.899763 -0.349850 0.260829
-0.171521 0.211721 -1.294009 128 128 255 0.888802 -0.372073 0.267568
-0.150664 0.211715 -1.361861 128 128 255 0.869724 -0.405353 0.281549
-0.128699 0.211709 -1.426314 128 128 255 0.852975 -0.432487 0.292215
-0.107848 0.211704 -1.486904 128 128 255 0.838272 -0.455857 0.299156
-0.087000 0.211699 -1.543190 128 128 255 0.812602 -0.490880 0.314188
-0.066154 0.211695 -1.594758 128 128 255 0.780274 -0.530143 0.331844
-0.045310 0.211691 -1.641221 128 128 255 0.739280 -0.573905 0.352276
-0.024468 0.211688 -1.682230 128 128 255 0.697092 -0.613614 0.370865
-0.004740 0.211685 -1.717473 128 128 255 0.630436 -0.667309 0.396546
0.016099 0.211683 -1.746681 128 128 255 0.536091 -0.727610 0.428008
0.036936 0.211682 -1.769630 128 128 255 0.430992 -0.779536 0.454499
0.057773 0.211681 -1.786146 128 128 255 0.304109 -0.824278 0.477581
0.078609 0.211680 -1.796102 128 128 255 0.156086 -0.855578 0.493581
0.100000 0.211680 -1.799424 128 128 255 0.000809 -0.866320 0.499489
0.121391 0.211680 -1.796087 128 128 255 -0.154623 -0.855497 0.494183
0.142227 0.211681 -1.786116 128 128 255 -0.302712 -0.824616 0.477884
0.163064 0.211682 -1.769586 128 128 255 -0.429857 -0.779940 0.454880
0.183901 0.211683 -1.746622 128 128 255 -0.535225 -0.728007 0.428416
0.204740 0.211685 -1.717399 128 128 255 -0.630370 -0.666834 0.397449
0.224468 0.211688 -1.682142 128 128 255 -0.696146 -0.614713 0.370823
0.245310 0.211691 -1.641119 128 128 255 -0.738999 -0.574062 0.352609
0.266154 0.211695 -1.594642 128 128 255 -0.780105 -0.530208 0.332137
0.287000 0.211699 -1.543061 128 128 255 -0.812515 -0.490862 0.314442
0.307848 0.211704 -1.486762 128 128 255 -0.838244 -0.455764 0.299375
0.328699 0.211709 -1.426159 128 128 255 -0.852697 -0.433044 0.292201
0.350664 0.211715 -1.361695 128 128 255 -0.870033 -0.404449 0.281894
0.371521 0.211721 -1.293831 128 128 255 -0.888871 -0.371814 0.267700
0.392379 0.211726 -1.223046 128 128 255 -0.899848 -0.349551 0.260937
0.413239 0.211732 -1.149829 128 128 255 -0.908892 -0.329438 0.255707
0.434099 0.211737 -1.074620 128 128 255 -0.916488 -0.310945 0.251720
0.454960 0.211741 -0.997793 128 128 255 -0.926352 -0.287309 0.243567
0.474709 0.211745 -0.920020 128 128 255 -0.930976 -0.272934 0.242467
0.495567 0.211748 -0.841790 128 128 255 -0.931510 -0.265536 0.248554
0.516424 0.211750 -0.763575 128 128 255 -0.934581 -0.252985 0.250116
0.537279 0.211752 -0.685832 128 128 255 -0.936878 -0.241423 0.252930
0.558131 0.211752 -0.608996 128 128 255 -0.938458 -0.230730 0.257023
0.578980 0.211752 -0.533481 128 128 255 -0.936370 -0.226058 0.268532
0.600939 0.211752 -0.459670 128 128 255 -0.936595 -0.216404 0.275607
0.621785 0.211751 -0.387918 128 128 255 -0.939050 -0.202850 0.277554
0.642630 0.211750 -0.318548 128 128 255 -0.937799 -0.194674 0.287463
0.663475 0.211750 -0.251849 128 128 255 -0.935725 -0.186933 0.299124
0.684321 0.211749 -0.188076 128 128 255 -0.932722 -0.179560 0.312711
0.705167 0.211748 -0.127447 128 128 255 -0.932010 -0.168467 0.320898
0.724903 0.211748 -0.070145 128 128 255 -0.926915 -0.161900 0.338552
0.745751 0.211748 -0.016316 128 128 255 -0.916421 -0.158995 0.367279
0.766599 0.211748 0.033927 128 128 255 -0.907679 -0.152431 0.391003
0.787448 0.211748 0.080508 128 128 255 -0.896635 -0.145885 0.418048
0.808296 0.211748 0.123383 128 128 255 -0.882721 -0.139267 0.448786
0.829144 0.211748 0.162540 128 128 255 -0.859439 -0.135078 0.493071
0.851103 0.211748 0.197998 128 128 255 -0.836654 -0.127757 0.532624
0.871949 0.211747 0.229802 128 128 255 -0.815566 -0.117870 0.566532
0.892795 0.211747 0.258025 128 128 255 -0.780970 -0.109772 0.614847
0.913639 0.211746 0.282761 128 128 255 -0.737922 -0.100937 0.667295
0.934483 0.211746 0.304127 128 128 255 -0.684920 -0.091226 0.722885
0.955325 0.211745 0.322257 128 128 255 -0.630938 -0.079767 0.771722
0.975055 0.211744 0.337302 128 128 255 -0.555230 -0.068274 0.828890
0.995896 0.211743 0.349424 128 128 255 -0.457740 -0.056463 0.887291
1.016735 0.211742 0.358798 128 128 255 -0.361727 -0.043531 0.931267
1.037574 0.211741 0.365606 128 128 255 -0.260383 -0.030581 0.965021
1.058411 0.211740 0.370035 128 128 255 -0.158252 -0.018141 0.987232
1.079248 0.211739 0.372277 128 128 255 -0.060232 -0.006553 0.998163
1.101174 0.211738 0.372609 128 128 255 -0.018984 0.000090 0.999820
-0.901193 0.238422 0.372442 128 128 255 -0.007213 0.002436 0.999971
-0.879246 0.238423 0.372478 128 128 255 0.043100 -0.006473 0.999050
-0.858409 0.238425 0.370567 128 128 255 0.140768 -0.020535 0.989830
-0.837572 0.238426 0.366519 128 128 255 0.241641 -0.035810 0.969705
-0.816734 0.238428 0.360145 128 128 255 0.342496 -0.051836 0.938088
-0.795894 0.238429 0.351261 128 128 255 0.438801 -0.067962 0.896011
-0.775054 0.238430 0.339688 128 128 255 0.537159 -0.082725 0.839415
-0.755324 0.238431 0.325254 128 128 255 0.614280 -0.097548 0.783035
-0.734482 0.238432 0.307799 128 128 255 0.669657 -0.111812 0.734206
-0.713638 0.238433 0.287174 128 128 255 0.724052 -0.124139 0.678482
-0.692794 0.238434 0.263246 128 128 255 0.768323 -0.135352 0.625587
-0.671949 0.238434 0.235902 128 128 255 0.803920 -0.145615 0.576636
-0.651102 0.238435 0.205046 128 128 255 0.825423 -0.158232 0.541886
-0.629144 0.238435 0.170607 128 128 255 0.848822 -0.166912 0.501640
-0.608296 0.238435 0.132540 128 128 255 0.872750 -0.172569 0.456648
-0.587447 0.238435 0.090825 128 128 255 0.886852 -0.180840 0.425194
-0.566599 0.238435 0.045474 128 128 255 0.897937 -0.188989 0.397482
-0.545751 0.238435 -0.003473 128 128 255 0.906591 -0.197129 0.373140
-0.524903 0.238435 -0.055939 128 128 255 0.917357 -0.200446 0.343914
-0.505166 0.238435 -0.111818 128 128 255 0.922029 -0.209254 0.325691
-0.484320 0.238436 -0.170965 128 128 255 0.921978 -0.222438 0.316984
-0.463474 0.238437 -0.233202 128 128 255 0.924479 -0.231448 0.302938
-0.442629 0.238438 -0.298316 128 128 255 0.925954 -0.240874 0.290843
-0.421784 0.238439 -0.366057 128 128 255 0.926505 -0.250795 0.280518
-0.400938 0.238440 -0.436143 128 128 255 0.922562 -0.267564 0.278007
-0.378980 0.238440 -0.508258 128 128 255 0.921599 -0.278284 0.270578
-0.358131 0.238440 -0.582053 128 128 255 0.923136 -0.284357 0.258770
-0.337280 0.238440 -0.657153 128 128 255 0.920366 -0.297122 0.254255
-0.316427 0.238438 -0.733154 128 128 255 0.916718 -0.310855 0.250993
-0.295571 0.238436 -0.809629 128 128 255 0.912117 -0.325684 0.248944
-0.274714 0.238433 -0.886129 128 128 255 0.910872 -0.333843 0.242614
-0.254966 0.238429 -0.962192 128 128 255 0.903956 -0.351823 0.243074
-0.234106 0.238424 -1.037313 128 128 255 0.891043 -0.378671 0.250300
-0.213246 0.238418 -1.110847 128 128 255 0.880897 -0.399772 0.253383
-0.192387 0.238412 -1.182493 128 128 255 0.869027 -0.422465 0.257517
-0.171529 0.238405 -1.251766 128 128 255 0.854773 -0.447410 0.263033
-0.150673 0.238398 -1.318187 128 128 255 0.830724 -0.484028 0.274981
-0.128707 0.238392 -1.381284 128 128 255 0.809839 -0.513613 0.283482
-0.107856 0.238385 -1.440607 128 128 255 0.791655 -0.538415 0.288776
-0.087007 0.238379 -1.495720 128 128 255 0.760927 -0.574939 0.300726
-0.066160 0.238374 -1.546217 128 128 255 0.723319 -0.614764 0.314444
-0.045315 0.238369 -1.591719 128 128 255 0.677196 -0.657720 0.329865
-0.024473 0.238365 -1.631883 128 128 255 0.631260 -0.695500 0.343206
-0.004743 0.238362 -1.666403 128 128 255 0.561810 -0.744129 0.361444
0.016096 0.238359 -1.695014 128 128 255 0.468574 -0.796285 0.382581
0.036934 0.238357 -1.717497 128 128 255 0.370159 -0.838743 0.399365
0.057771 0.238355 -1.733677 128 128 255 0.256988 -0.873580 0.413299
0.078608 0.238354 -1.743432 128 128 255 0.130072 -0.896933 0.422602
0.100000 0.238354 -1.746685 128 128 255 -0.000150 -0.904771 0.425898
0.121392 0.238354 -1.743412 128 128 255 -0.130459 -0.896777 0.422815
0.142229 0.238355 -1.733638 128 128 255 -0.257286 -0.873483 0.413316
0.163066 0.238357 -1.717437 128 128 255 -0.370449 -0.838604 0.399388
0.183904 0.238359 -1.694935 128 128 255 -0.468852 -0.796109 0.382607
0.204743 0.238362 -1.666305 128 128 255 -0.562608 -0.743414 0.361674
0.224473 0.238365 -1.631766 128 128 255 -0.630994 -0.695806 0.343074
0.245315 0.238369 -1.591583 128 128 255 -0.677440 -0.657454 0.329891
0.266160 0.238374 -1.546063 128 128 255 -0.723551 -0.614478 0.314469
0.287007 0.238379 -1.495549 128 128 255 -0.761147 -0.574634 0.300749
0.307856 0.238385 -1.440418 128 128 255 -0.791864 -0.538096 0.288798
0.328707 0.238392 -1.381080 128 128 255 -0.809691 -0.513846 0.283483
0.350673 0.238398 -1.317967 128 128 255 -0.831234 -0.483134 0.275011
0.371529 0.238405 -1.251531 128 128 255 -0.854947 -0.447067 0.263052
0.392387 0.238412 -1.182244 128 128 255 -0.869191 -0.422117 0.257536
0.413246 0.238418 -1.110585 128 128 255 -0.881121 -0.399309 0.253335
0.434106 0.238424 -1.036988 128 128 255 -0.891285 -0.378144 0.250235
0.454966 0.238429 -0.961830 128 128 255 -0.904334 -0.350879 0.243029
0.474714 0.238433 -0.885759 128 128 255 -0.910832 -0.333901 0.242683
0.495571 0.238436 -0.809251 128 128 255 -0.912255 -0.325272 0.248976
0.516427 0.238438 -0.732771 128 128 255 -0.916846 -0.310449 0.251027
0.537280 0.238440 -0.656766 128 128 255 -0.920484 -0.296723 0.254293
0.558131 0.238440 -0.581664 128 128 255 -0.923245 -0.283966 0.258810
0.578980 0.238440 -0.507869 128 128 255 -0.921571 -0.278277 0.270682
0.600938 0.238440 -0.435756 128 128 255 -0.922781 -0.266820 0.277999
0.621784 0.238439 -0.365674 128 128 255 -0.926586 -0.250436 0.280573
0.642629 0.238438 -0.297938 128 128 255 -0.926025 -0.240528 0.290904
0.663474 0.238437 -0.232831 128 128 255 -0.924539 -0.231116 0.303006
0.684320 0.238436 -0.170603 128 128 255 -0.922028 -0.222120 0.317060
0.705167 0.238435 -0.111466 128 128 255 -0.922166 -0.208653 0.325689
0.724903 0.238435 -0.055599 128 128 255 -0.917284 -0.200461 0.344100
0.745751 0.238435 -0.003146 128 128 255 -0.906603 -0.196861 0.373252
0.766599 0.238435 0.045786 128 128 255 -0.897933 -0.188738 0.397611
0.787448 0.238435 0.091121 128 128 255 -0.886827 -0.180607 0.425345
0.808296 0.238435 0.132819 128 128 255 -0.872702 -0.172352 0.456821
0.829144 0.238435 0.170867 128 128 255 -0.848632 -0.166929 0.501955
0.851102 0.238435 0.205286 128 128 255 -0.825420 -0.157838 0.542005
0.871949 0.238434 0.236121 128 128 255 -0.803759 -0.145442 0.576904
0.892794 0.238434 0.263444 128 128 255 -0.768103 -0.135187 0.625893
0.913638 0.238433 0.287350 128 128 255 -0.723760 -0.123975 0.678824
0.934482 0.238432 0.307952 128 128 255 -0.669276 -0.111644 0.734578
0.955324 0.238431 0.325384 128 128 255 -0.613946 -0.097259 0.783334
0.975054 0.238430 0.339794 128 128 255 -0.536413 -0.082614 0.839903
0.995894 0.238429 0.351344 128 128 255 -0.438087 -0.067727 0.896377
1.016734 0.238428 0.360203 128 128 255 -0.341679 -0.051560 0.938401
1.037572 0.238426 0.366553 128 128 255 -0.240746 -0.035486 0.969939
1.058409 0.238425 0.370577 128 128 255 -0.139826 -0.020159 0.989971
1.079246 0.238423 0.372464 128 128 255 -0.043907 -0.005975 0.999018
1.101172 0.238422 0.372480 128 128 255 -0.005462 0.002007 0.999983
-0.901191 0.266217 0.372224 128 128 255 -0.024309 0.006016 0.999686
-0.879244 0.266219 0.372621 128 128 255 0.024764 -0.004273 0.999684
-0.858407 0.266221 0.371126 128 128 255 0.119677 -0.020361 0.992604
-0.837570 0.266222 0.367554 128 128 255 0.218956 -0.037979 0.974995
-0.816732 0.266224 0.361720 128 128 255 0.319126 -0.056627 0.946019
-0.795892 0.266225 0.353443 128 128 255 0.415706 -0.075559 0.906355
-0.775052 0.266227 0.342547 128 128 255 0.514968 -0.093138 0.852134
-0.755322 0.266228 0.328865 128 128 255 0.593991 -0.110786 0.796807
-0.734480 0.266229 0.312237 128 128 255 0.651092 -0.127735 0.748173
-0.713637 0.266230 0.292518 128 128 255 0.707295 -0.142511 0.692405
-0.692793 0.266231 0.269578 128 128 255 0.753188 -0.155953 0.639051
-0.671948 0.266232 0.243303 128 128 255 0.790145 -0.168235 0.589380
-0.651102 0.266232 0.213600 128 128 255 0.812412 -0.183052 0.553605
-0.629144 0.266233 0.180399 128 128 255 0.836544 -0.193421 0.512624
-0.608296 0.266233 0.143652 128 128 255 0.861436 -0.200256 0.466718
-0.587447 0.266233 0.103341 128 128 255 0.875901 -0.209992 0.434398
-0.566599 0.266233 0.059475 128 128 255 0.887170 -0.219539 0.405872
-0.545750 0.266233 0.012094 128 128 255 0.895853 -0.229033 0.380778
-0.524902 0.266233 -0.038732 128 128 255 0.906932 -0.233045 0.350949
-0.505166 0.266234 -0.092896 128 128 255 0.911407 -0.243164 0.331976
-0.484319 0.266234 -0.150260 128 128 255 0.910570 -0.258306 0.322707
-0.463473 0.266235 -0.210652 128 128 255 0.912629 -0.268649 0.308116
-0.442628 0.266236 -0.273862 128 128 255 0.913560 -0.279430 0.295512
-0.421782 0.266237 -0.339650 128 128 255 0.913464 -0.290734 0.284705
-0.400937 0.266238 -0.407739 128 128 255 0.908202 -0.309653 0.281574
-0.378979 0.266239 -0.477821 128 128 255 0.906347 -0.321841 0.273778
-0.358131 0.266239 -0.549559 128 128 255 0.907491 -0.328675 0.261596
-0.337281 0.266239 -0.622584 128 128 255 0.903606 -0.342985 0.256628
-0.316429 0.266238 -0.696504 128 128 255 0.898699 -0.358307 0.252896
-0.295575 0.266236 -0.770901 128 128 255 0.892680 -0.374762 0.250350
-0.274719 0.266233 -0.845339 128 128 255 0.890639 -0.383858 0.243752
-0.254972 0.266229 -0.919364 128 128 255 0.881969 -0.403506 0.243545
-0.234114 0.266223 -0.992488 128 128 255 0.866213 -0.432728 0.249842
-0.213255 0.266217 -1.064094 128 128 255 0.853823 -0.455443 0.252108
-0.192396 0.266210 -1.133873 128 128 255 0.839482 -0.479667 0.255321
-0.171538 0.266203 -1.201349 128 128 255 0.822496 -0.506001 0.259737
-0.150682 0.266196 -1.266055 128 128 255 0.794523 -0.544000 0.269809
-0.128717 0.266188 -1.327531 128 128 255 0.770420 -0.574346 0.276729
-0.107865 0.266181 -1.385335 128 128 255 0.749768 -0.599281 0.280555
-0.087015 0.266174 -1.439042 128 128 255 0.715611 -0.635419 0.290076
-0.066167 0.266167 -1.488256 128 128 255 0.674772 -0.673935 0.300825
-0.045322 0.266162 -1.532606 128 128 255 0.625991 -0.714411 0.312654
-0.024479 0.266157 -1.571755 128 128 255 0.578596 -0.749125 0.322549
-0.004748 0.266152 -1.605406 128 128 255 0.509314 -0.792371 0.335778
0.016092 0.266149 -1.633299 128 128 255 0.419442 -0.837219 0.350904
0.036931 0.266146 -1.655219 128 128 255 0.327915 -0.872450 0.362357
0.057769 0.266144 -1.670995 128 128 255 0.225756 -0.900525 0.371602
0.078607 0.266143 -1.680504 128 128 255 0.113789 -0.918943 0.377618
0.100000 0.266143 -1.683674 128 128 255 0.000296 -0.925078 0.379776
0.121393 0.266143 -1.680480 128 128 255 -0.113266 -0.918910 0.377855
0.142231 0.266144 -1.670945 128 128 255 -0.225219 -0.900626 0.371683
0.163069 0.266146 -1.655144 128 128 255 -0.327452 -0.872578 0.362467
0.183908 0.266149 -1.633201 128 128 255 -0.419066 -0.837353 0.351033
0.204748 0.266152 -1.605283 128 128 255 -0.509429 -0.792125 0.336184
0.224479 0.266157 -1.571609 128 128 255 -0.577978 -0.749641 0.322459
0.245322 0.266162 -1.532436 128 128 255 -0.625856 -0.714471 0.312787
0.266167 0.266167 -1.488064 128 128 255 -0.674696 -0.673955 0.300950
0.287015 0.266174 -1.438829 128 128 255 -0.715583 -0.635398 0.290190
0.307865 0.266181 -1.385100 128 128 255 -0.749778 -0.599219 0.280658
0.328717 0.266188 -1.327276 128 128 255 -0.770156 -0.574709 0.276713
0.350682 0.266196 -1.265781 128 128 255 -0.794867 -0.543409 0.269986
0.371538 0.266203 -1.201057 128 128 255 -0.822575 -0.505838 0.259806
0.392396 0.266210 -1.133564 128 128 255 -0.839572 -0.479478 0.255380
0.413255 0.266217 -1.063769 128 128 255 -0.853994 -0.455124 0.252103
0.434114 0.266223 -0.992104 128 128 255 -0.866416 -0.432335 0.249820
0.454972 0.266229 -0.918944 128 128 255 -0.882308 -0.402725 0.243607
0.474719 0.266233 -0.844907 128 128 255 -0.890607 -0.383940 0.243740
0.495575 0.266236 -0.770461 128 128 255 -0.892816 -0.374421 0.250378
0.516429 0.266238 -0.696056 128 128 255 -0.898831 -0.357960 0.252918
0.537281 0.266239 -0.622132 128 128 255 -0.903734 -0.342635 0.256643
0.558131 0.266239 -0.549104 128 128 255 -0.907616 -0.328322 0.261605
0.578979 0.266239 -0.477365 128 128 255 -0.906362 -0.321822 0.273749
0.600937 0.266238 -0.407284 128 128 255 -0.908426 -0.308969 0.281604
0.621782 0.266237 -0.339198 128 128 255 -0.913577 -0.290391 0.284694
0.642628 0.266236 -0.273416 128 128 255 -0.913669 -0.279093 0.295494
0.663473 0.266235 -0.210213 128 128 255 -0.912734 -0.268321 0.308092
0.684319 0.266234 -0.149831 128 128 255 -0.910671 -0.257990 0.322675
0.705166 0.266234 -0.092478 128 128 255 -0.911566 -0.242588 0.331961
0.724902 0.266233 -0.038327 128 128 255 -0.906963 -0.233027 0.350880
0.745750 0.266233 0.012484 128 128 255 -0.895945 -0.228760 0.380726
0.766599 0.266233 0.059849 128 128 255 -0.887260 -0.219284 0.405814
0.787447 0.266233 0.103696 128 128 255 -0.875989 -0.209756 0.434334
0.808296 0.266233 0.143988 128 128 255 -0.861523 -0.200040 0.466650
0.829144 0.266233 0.180713 128 128 255 -0.836597 -0.193427 0.512534
0.851102 0.266232 0.213892 128 128 255 -0.812528 -0.182682 0.553558
0.871948 0.266232 0.243571 128 128 255 -0.790225 -0.168080 0.589317
0.892793 0.266231 0.269821 128 128 255 -0.753261 -0.155817 0.638998
0.913637 0.266230 0.292736 128 128 255 -0.707356 -0.142390 0.692367
0.934480 0.266229 0.312428 128 128 255 -0.651133 -0.127622 0.748157
0.955322 0.266228 0.329029 128 128 255 -0.594007 -0.110566 0.796826
0.975052 0.266227 0.342684 128 128 255 -0.514925 -0.093107 0.852164
0.995893 0.266225 0.353552 128 128 255 -0.415604 -0.075420 0.906413
1.016732 0.266224 0.361800 128 128 255 -0.318951 -0.056458 0.946088
1.037570 0.266222 0.367606 128 128 255 -0.218701 -0.037767 0.975061
1.058407 0.266221 0.371149 128 128 255 -0.119345 -0.020096 0.992649
1.079244 0.266219 0.372615 128 128 255 -0.025910 -0.003869 0.999657
1.101170 0.266217 0.372259 128 128 255 0.010604 0.005064 0.999931
-0.901188 0.294012 0.371877 128 128 255 -0.043633 0.011096 0.998986
-0.879241 0.294014 0.372684 128 128 255 0.004068 -0.000581 0.999992
-0.858405 0.294016 0.371664 128 128 255 0.095654 -0.018709 0.995239
-0.837568 0.294018 0.368636 128 128 255 0.192863 -0.038748 0.980460
-0.816729 0.294020 0.363420 128 128 255 0.291956 -0.060172 0.954537
-0.795890 0.294022 0.355838 128 128 255 0.388560 -0.082144 0.917754
-0.775050 0.294024 0.345718 128 128 255 0.488647 -0.102888 0.866394
-0.755321 0.294025 0.332896 128 128 255 0.569541 -0.123712 0.812600
-0.734479 0.294027 0.317217 128 128 255 0.628672 -0.143708 0.764277
-0.713636 0.294028 0.298538 128 128 255 0.686929 -0.161313 0.708594
-0.692792 0.294029 0.276731 128 128 255 0.734701 -0.177337 0.654802
-0.671947 0.294030 0.251684 128 128 255 0.773251 -0.191952 0.604349
-0.651101 0.294030 0.223306 128 128 255 0.796381 -0.209211 0.567457
-0.629143 0.294031 0.191525 128 128 255 0.821468 -0.221522 0.525469
-0.608296 0.294031 0.156297 128 128 255 0.847445 -0.229756 0.478590
-0.587447 0.294031 0.117600 128 128 255 0.862334 -0.241126 0.445240
-0.566599 0.294031 0.075441 128 128 255 0.873811 -0.252212 0.415743
-0.545750 0.294031 0.029860 128 128 255 0.882517 -0.263174 0.389747
-0.524902 0.294031 -0.019078 128 128 255 0.893978 -0.267992 0.359144
-0.505165 0.294032 -0.071270 128 128 255 0.898161 -0.279493 0.339397
-0.484318 0.294032 -0.126583 128 128 255 0.896397 -0.296633 0.329364
-0.463472 0.294033 -0.184850 128 128 255 0.897918 -0.308343 0.314114
-0.442626 0.294034 -0.245870 128 128 255 0.898192 -0.320493 0.300892
-0.421781 0.294035 -0.309408 128 128 255 0.897321 -0.333176 0.289499
-0.400935 0.294037 -0.375199 128 128 255 0.890490 -0.354156 0.285659
-0.378978 0.294038 -0.442942 128 128 255 0.887613 -0.367753 0.277309
-0.358130 0.294038 -0.512310 128 128 255 0.888281 -0.375328 0.264739
-0.337281 0.294039 -0.582946 128 128 255 0.883104 -0.391065 0.259223
-0.316431 0.294038 -0.654469 128 128 255 0.876755 -0.407815 0.254927
-0.295578 0.294036 -0.726473 128 128 255 0.869133 -0.425689 0.251786
-0.274723 0.294033 -0.798534 128 128 255 0.866203 -0.435606 0.244825
-0.254978 0.294030 -0.870212 128 128 255 0.855574 -0.456606 0.243935
-0.234121 0.294024 -0.941035 128 128 255 0.836768 -0.487611 0.249108
-0.213263 0.294018 -1.010419 128 128 255 0.822026 -0.511419 0.250447
-0.192406 0.294011 -1.078045 128 128 255 0.805147 -0.536575 0.252636
-0.171549 0.294004 -1.143451 128 128 255 0.785437 -0.563583 0.255857
-0.150693 0.293996 -1.206180 128 128 255 0.753722 -0.601840 0.263994
-0.128727 0.293987 -1.265786 128 128 255 0.726726 -0.631980 0.269203
-0.107875 0.293979 -1.321838 128 128 255 0.703945 -0.656263 0.271624
-0.087024 0.293972 -1.373924 128 128 255 0.667068 -0.690861 0.278804
-0.066176 0.293965 -1.421657 128 128 255 0.623987 -0.726900 0.286804
-0.045330 0.293958 -1.464676 128 128 255 0.573824 -0.763829 0.295451
-0.024485 0.293952 -1.502655 128 128 255 0.526220 -0.794768 0.302385
-0.004754 0.293947 -1.535301 128 128 255 0.458656 -0.832165 0.311666
0.016088 0.293943 -1.562364 128 128 255 0.373630 -0.869841 0.322147
0.036928 0.293940 -1.583631 128 128 255 0.289566 -0.898565 0.329746
0.057767 0.293938 -1.598938 128 128 255 0.197955 -0.920917 0.335746
0.078606 0.293937 -1.608164 128 128 255 0.099328 -0.935318 0.339580
0.100000 0.293936 -1.611237 128 128 255 0.000291 -0.940080 0.340955
0.121394 0.293937 -1.608134 128 128 255 -0.098794 -0.935311 0.339754
0.142233 0.293938 -1.598878 128 128 255 -0.197409 -0.921013 0.335805
0.163072 0.293940 -1.583542 128 128 255 -0.289081 -0.898691 0.329828
0.183912 0.293943 -1.562245 128 128 255 -0.373216 -0.869982 0.322244
0.204754 0.293947 -1.535154 128 128 255 -0.458634 -0.832055 0.311992
0.224485 0.293952 -1.502479 128 128 255 -0.525619 -0.795195 0.302306
0.245330 0.293958 -1.464473 128 128 255 -0.573628 -0.763934 0.295561
0.266176 0.293965 -1.421427 128 128 255 -0.623850 -0.726976 0.286910
0.287024 0.293972 -1.373668 128 128 255 -0.666983 -0.690903 0.278902
0.307875 0.293979 -1.321557 128 128 255 -0.703903 -0.656272 0.271714
0.328727 0.293987 -1.265481 128 128 255 -0.726442 -0.632315 0.269183
0.350693 0.293996 -1.205852 128 128 255 -0.753999 -0.601420 0.264156
0.371549 0.294004 -1.143102 128 128 255 -0.785478 -0.563498 0.255918
0.392406 0.294011 -1.077676 128 128 255 -0.805205 -0.536464 0.252688
0.413263 0.294018 -1.010031 128 128 255 -0.822171 -0.511186 0.250447
0.434121 0.294024 -0.940592 128 128 255 -0.836946 -0.487310 0.249098
0.454978 0.294030 -0.869734 128 128 255 -0.855897 -0.455965 0.243999
0.474723 0.294033 -0.798043 128 128 255 -0.866163 -0.435696 0.244808
0.495578 0.294036 -0.725971 128 128 255 -0.869260 -0.425416 0.251810
0.516431 0.294038 -0.653958 128 128 255 -0.876881 -0.407534 0.254943
0.537281 0.294039 -0.582430 128 128 255 -0.883228 -0.390779 0.259232
0.558130 0.294038 -0.511789 128 128 255 -0.888402 -0.375040 0.264740
0.578978 0.294038 -0.442420 128 128 255 -0.887625 -0.367755 0.277269
0.600935 0.294037 -0.374677 128 128 255 -0.890712 -0.353582 0.285678
0.621781 0.294035 -0.308890 128 128 255 -0.897432 -0.332896 0.289476
0.642626 0.294034 -0.245357 128 128 255 -0.898299 -0.320221 0.300861
0.663472 0.294033 -0.184345 128 128 255 -0.898022 -0.308081 0.314074
0.684318 0.294032 -0.126088 128 128 255 -0.896498 -0.296384 0.329315
0.705165 0.294032 -0.070787 128 128 255 -0.898321 -0.279019 0.339364
0.724902 0.294031 -0.018609 128 128 255 -0.894009 -0.268010 0.359053
0.745750 0.294031 0.030312 128 128 255 -0.882610 -0.262976 0.389672
0.766599 0.294031 0.075875 128 128 255 -0.873902 -0.252035 0.415661
0.787447 0.294031 0.118013 128 128 255 -0.862423 -0.240971 0.445151
0.808296 0.294031 0.156688 128 128 255 -0.847533 -0.229628 0.478496
0.829143 0.294031 0.191893 128 128 255 -0.821525 -0.221594 0.525350
0.851101 0.294030 0.223649 128 128 255 -0.796499 -0.208971 0.567381
0.871947 0.294030 0.252001 128 128 255 -0.773335 -0.191903 0.604257
0.892792 0.294029 0.277020 128 128 255 -0.734777 -0.177312 0.654723
0.913636 0.294028 0.298798 128 128 255 -0.686992 -0.161309 0.708535
0.934479 0.294027 0.317447 128 128 255 -0.628709 -0.143719 0.764245
0.955321 0.294025 0.333095 128 128 255 -0.569544 -0.123644 0.812608
0.975050 0.294024 0.345886 128 128 255 -0.488584 -0.102958 0.866421
0.995890 0.294022 0.355973 128 128 255 -0.388425 -0.082134 0.917813
1.016729 0.294020 0.363523 128 128 255 -0.291732 -0.060127 0.954608
1.037567 0.294018 0.368706 128 128 255 -0.192544 -0.038656 0.980527
1.058405 0.294016 0.371702 128 128 255 -0.095246 -0.018559 0.995281
1.079241 0.294014 0.372688 128 128 255 -0.004894 -0.000266 0.999988
1.101167 0.294012 0.371907 128 128 255 0.029167 0.009590 0.999529
-0.901185 0.321806 0.371361 128 128 255 -0.064831 0.017288 0.997746
-0.879238 0.321809 0.372622 128 128 255 -0.018706 0.004775 0.999814
-0.858402 0.321811 0.372128 128 128 255 0.068980 -0.014688 0.997510
-0.837565 0.321814 0.369703 128 128 255 0.163586 -0.036427 0.985856
-0.816727 0.321816 0.365171 128 128 255 0.261137 -0.059932 0.963439
-0.795888 0.321818 0.358361 128 128 255 0.357452 -0.084328 0.930117
-0.775048 0.321820 0.349104 128 128 255 0.458225 -0.107800 0.882275
-0.755318 0.321822 0.337240 128 128 255 0.541006 -0.131385 0.830693
-0.734477 0.321823 0.322617 128 128 255 0.602599 -0.154098 0.783025
-0.713634 0.321825 0.305097 128 128 255 0.663325 -0.174323 0.727744
-0.692791 0.321826 0.284553 128 128 255 0.713435 -0.192767 0.673685
-0.671946 0.321827 0.260875 128 128 255 0.754038 -0.209579 0.622498
-0.651100 0.321828 0.233974 128 128 255 0.778407 -0.228973 0.584511
-0.629143 0.321829 0.203780 128 128 255 0.804912 -0.243122 0.541302
-0.608295 0.321829 0.170247 128 128 255 0.832284 -0.252746 0.493380
-0.587447 0.321829 0.133352 128 128 255 0.847888 -0.265585 0.458857
-0.566599 0.321829 0.093102 128 128 255 0.859830 -0.278029 0.428243
-0.545750 0.321829 0.049531 128 128 255 0.868783 -0.290261 0.401204
-0.524902 0.321829 0.002704 128 128 255 0.880825 -0.295876 0.369600
-0.505165 0.321830 -0.047283 128 128 255 0.884860 -0.308495 0.349075
-0.484317 0.321830 -0.100302 128 128 255 0.882382 -0.327187 0.338157
-0.463471 0.321831 -0.156193 128 128 255 0.883532 -0.339981 0.322156
-0.442625 0.321832 -0.214762 128 128 255 0.883313 -0.353195 0.308239
-0.421779 0.321833 -0.275785 128 128 255 0.881836 -0.366924 0.296196
-0.400933 0.321835 -0.339002 128 128 255 0.873679 -0.389361 0.291689
-0.378976 0.321836 -0.404127 128 128 255 0.869994 -0.403998 0.282658
-0.358129 0.321837 -0.470843 128 128 255 0.870304 -0.412127 0.269673
-0.337281 0.321838 -0.538805 128 128 255 0.864067 -0.428839 0.263600
-0.316432 0.321838 -0.607643 128 128 255 0.856539 -0.446533 0.258746
-0.295580 0.321837 -0.676968 128 128 255 0.847614 -0.465303 0.255037
-0.274727 0.321834 -0.746367 128 128 255 0.843986 -0.475770 0.247650
-0.254984 0.321831 -0.815417 128 128 255 0.831784 -0.497501 0.246228
-0.234128 0.321826 -0.883662 128 128 255 0.810600 -0.529360 0.250410
-0.213272 0.321821 -0.950557 128 128 255 0.794085 -0.553576 0.250964
-0.192415 0.321814 -1.015771 128 128 255 0.775317 -0.578982 0.252316
-0.171559 0.321806 -1.078855 128 128 255 0.753643 -0.605976 0.254588
-0.150704 0.321798 -1.139368 128 128 255 0.719358 -0.643620 0.261299
-0.128738 0.321790 -1.196878 128 128 255 0.690494 -0.672989 0.265149
-0.107886 0.321782 -1.250967 128 128 255 0.666429 -0.696279 0.266588
-0.087035 0.321774 -1.301235 128 128 255 0.628072 -0.729022 0.272125
-0.066186 0.321766 -1.347306 128 128 255 0.584029 -0.762549 0.278261
-0.045338 0.321759 -1.388833 128 128 255 0.533682 -0.796276 0.284830
-0.024493 0.321752 -1.425497 128 128 255 0.486693 -0.824087 0.289845
-0.004760 0.321747 -1.457016 128 128 255 0.421336 -0.856950 0.296837
0.016083 0.321742 -1.483145 128 128 255 0.340730 -0.889464 0.304559
0.036924 0.321739 -1.503680 128 128 255 0.262544 -0.913765 0.310005
0.057765 0.321736 -1.518459 128 128 255 0.178605 -0.932389 0.314247
0.078605 0.321735 -1.527366 128 128 255 0.089232 -0.944235 0.316950
0.100000 0.321734 -1.530331 128 128 255 -0.000000 -0.948131 0.317880
0.121395 0.321735 -1.527331 128 128 255 -0.089266 -0.944210 0.317016
0.142235 0.321736 -1.518389 128 128 255 -0.178612 -0.932383 0.314260
0.163076 0.321739 -1.503575 128 128 255 -0.262561 -0.913755 0.310022
0.183917 0.321742 -1.483006 128 128 255 -0.340760 -0.889446 0.304580
0.204760 0.321747 -1.456844 128 128 255 -0.421638 -0.856768 0.296936
0.224493 0.321752 -1.425292 128 128 255 -0.486467 -0.824234 0.289806
0.245338 0.321759 -1.388596 128 128 255 -0.533744 -0.796226 0.284854
0.266186 0.321766 -1.347038 128 128 255 -0.584099 -0.762487 0.278284
0.287035 0.321774 -1.300936 128 128 255 -0.628149 -0.728948 0.272145
0.307886 0.321782 -1.250639 128 128 255 -0.666511 -0.696193 0.266606
0.328738 0.321790 -1.196523 128 128 255 -0.690329 -0.673154 0.265159
0.350704 0.321798 -1.138987 128 128 255 -0.719685 -0.643249 0.261312
0.371559 0.321806 -1.078449 128 128 255 -0.753730 -0.605864 0.254599
0.392415 0.321814 -1.015341 128 128 255 -0.775402 -0.578864 0.252326
0.413272 0.321821 -0.950106 128 128 255 -0.794237 -0.553369 0.250939
0.434128 0.321826 -0.883160 128 128 255 -0.810770 -0.529110 0.250387
0.454984 0.321831 -0.814882 128 128 255 -0.832102 -0.496988 0.246190
0.474727 0.321834 -0.745818 128 128 255 -0.843928 -0.475845 0.247704
0.495580 0.321837 -0.676405 128 128 255 -0.847719 -0.465103 0.255053
0.516432 0.321838 -0.607071 128 128 255 -0.856636 -0.446337 0.258761
0.537281 0.321838 -0.538225 128 128 255 -0.864156 -0.428651 0.263614
0.558129 0.321837 -0.470258 128 128 255 -0.870385 -0.411946 0.269686
0.578976 0.321836 -0.403541 128 128 255 -0.869943 -0.404059 0.282728
0.600933 0.321835 -0.338416 128 128 255 -0.873865 -0.388976 0.291645
0.621779 0.321833 -0.275201 128 128 255 -0.881890 -0.366781 0.296211
0.642625 0.321832 -0.214184 128 128 255 -0.883358 -0.353069 0.308254
0.663471 0.321831 -0.155623 128 128 255 -0.883567 -0.339874 0.322174
0.684317 0.321830 -0.099743 128 128 255 -0.882407 -0.327100 0.338177
0.705165 0.321830 -0.046737 128 128 255 -0.884972 -0.308245 0.349013
0.724902 0.321829 0.003235 128 128 255 -0.880727 -0.296017 0.369722
0.745750 0.321829 0.050044 128 128 255 -0.868769 -0.290249 0.401244
0.766599 0.321829 0.093595 128 128 255 -0.859799 -0.278045 0.428295
0.787447 0.321829 0.133823 128 128 255 -0.847838 -0.265632 0.458923
0.808295 0.321829 0.170694 128 128 255 -0.832209 -0.252825 0.493465
0.829143 0.321829 0.204202 128 128 255 -0.804696 -0.243350 0.541521
0.851100 0.321828 0.234368 128 128 255 -0.778377 -0.229012 0.584536
0.871946 0.321827 0.261240 128 128 255 -0.753849 -0.209746 0.622671
0.892791 0.321826 0.284886 128 128 255 -0.713184 -0.192957 0.673896
0.913634 0.321825 0.305398 128 128 255 -0.662996 -0.174528 0.727995
0.934477 0.321823 0.322886 128 128 255 -0.602172 -0.154309 0.783312
0.955318 0.321822 0.337474 128 128 255 -0.540598 -0.131571 0.830929
0.975048 0.321820 0.349302 128 128 255 -0.457418 -0.107985 0.882671
0.995888 0.321818 0.358523 128 128 255 -0.356648 -0.084475 0.930412
1.016727 0.321816 0.365297 128 128 255 -0.260210 -0.060030 0.963684
1.037565 0.321814 0.369791 128 128 255 -0.162558 -0.036466 0.986025
1.058402 0.321811 0.372179 128 128 255 -0.067883 -0.014660 0.997586
1.079238 0.321809 0.372636 128 128 255 0.018756 0.004991 0.999812
1.101164 0.321806 0.371386 128 128 255 0.049901 0.015449 0.998635
-0.901181 0.350712 0.370633 128 128 255 -0.087100 0.025682 0.995869
-0.879235 0.350715 0.372383 128 128 255 -0.043536 0.011920 0.998981
-0.858398 0.350717 0.372457 128 128 255 0.039653 -0.008877 0.999174
-0.837561 0.350720 0.370684 128 128 255 0.131079 -0.032366 0.990843
-0.816724 0.350723 0.366895 128 128 255 0.226524 -0.058076 0.972273
-0.795885 0.350725 0.360921 128 128 255 0.322082 -0.085117 0.942878
-0.775045 0.350727 0.352601 128 128 255 0.422928 -0.111611 0.899263
-0.755316 0.350729 0.341778 128 128 255 0.507916 -0.138476 0.850203
-0.734475 0.350731 0.328305 128 128 255 0.571960 -0.164291 0.803661
-0.713632 0.350733 0.312045 128 128 255 0.635369 -0.187624 0.749068
-0.692789 0.350734 0.292877 128 128 255 0.688095 -0.208964 0.694881
-0.671944 0.350736 0.270692 128 128 255 0.731034 -0.228409 0.642977
-0.651099 0.350737 0.245402 128 128 255 0.757004 -0.250337 0.603554
-0.629142 0.350738 0.216938 128 128 255 0.784869 -0.266580 0.559388
-0.608295 0.350738 0.185254 128 128 255 0.813959 -0.277951 0.510111
-0.587447 0.350738 0.150327 128 128 255 0.830392 -0.292498 0.474230
-0.566599 0.350738 0.112161 128 128 255 0.842865 -0.306496 0.442310
-0.545750 0.350738 0.070787 128 128 255 0.852095 -0.320160 0.414043
-0.524902 0.350738 0.026267 128 128 255 0.864725 -0.326694 0.381473
-0.505165 0.350739 -0.021310 128 128 255 0.868704 -0.340582 0.359663
-0.484317 0.350739 -0.071821 128 128 255 0.865329 -0.360855 0.347835
-0.463470 0.350740 -0.125114 128 128 255 0.866035 -0.374783 0.330939
-0.442623 0.350741 -0.181002 128 128 255 0.865238 -0.389086 0.316190
-0.421777 0.350742 -0.239272 128 128 255 0.863055 -0.403861 0.303369
-0.400931 0.350743 -0.299674 128 128 255 0.853429 -0.427693 0.297890
-0.378974 0.350745 -0.361934 128 128 255 0.848750 -0.443271 0.288329
-0.358128 0.350747 -0.425746 128 128 255 0.848686 -0.451949 0.274725
-0.337281 0.350748 -0.490779 128 128 255 0.841269 -0.469522 0.267983
-0.316432 0.350748 -0.556679 128 128 255 0.832445 -0.488005 0.262460
-0.295582 0.350748 -0.623069 128 128 255 0.822109 -0.507480 0.258071
-0.274731 0.350746 -0.689554 128 128 255 0.817705 -0.518362 0.250320
-0.254989 0.350744 -0.755724 128 128 255 0.803904 -0.540585 0.248004
-0.234135 0.350740 -0.821145 128 128 255 0.780277 -0.572789 0.251158
-0.213280 0.350735 -0.885313 128 128 255 0.762012 -0.597015 0.250821
-0.192425 0.350729 -0.947883 128 128 255 0.741428 -0.622227 0.251233
-0.171569 0.350722 -1.008423 128 128 255 0.717940 -0.648711 0.252462
-0.150714 0.350714 -1.066507 128 128 255 0.681447 -0.685064 0.257521
-0.128749 0.350706 -1.121719 128 128 255 0.651045 -0.713043 0.260212
-0.107897 0.350698 -1.173654 128 128 255 0.626084 -0.734942 0.260536
-0.087045 0.350690 -1.221928 128 128 255 0.586863 -0.765281 0.264455
-0.066196 0.350682 -1.266178 128 128 255 0.542593 -0.795821 0.268816
-0.045347 0.350675 -1.306067 128 128 255 0.492889 -0.825999 0.273472
-0.024501 0.350668 -1.341289 128 128 255 0.447230 -0.850473 0.276913
-0.004767 0.350663 -1.371570 128 128 255 0.384934 -0.878916 0.281662
0.016077 0.350658 -1.396674 128 128 255 0.309413 -0.906512 0.287227
0.036920 0.350654 -1.416404 128 128 255 0.237407 -0.926817 0.290945
0.057762 0.350651 -1.430604 128 128 255 0.161088 -0.942190 0.293817
0.078603 0.350649 -1.439161 128 128 255 0.080567 -0.951909 0.295598
0.100000 0.350649 -1.442008 128 128 255 0.000539 -0.955103 0.296273
0.121397 0.350649 -1.439121 128 128 255 -0.079510 -0.951949 0.295754
0.142238 0.350651 -1.430524 128 128 255 -0.160040 -0.942351 0.293874
0.163080 0.350654 -1.416285 128 128 255 -0.236428 -0.927042 0.291025
0.183923 0.350658 -1.396516 128 128 255 -0.308521 -0.906785 0.287325
0.204767 0.350663 -1.371373 128 128 255 -0.384302 -0.879082 0.282006
0.224501 0.350668 -1.341055 128 128 255 -0.446340 -0.850971 0.276819
0.245347 0.350675 -1.305796 128 128 255 -0.492299 -0.826310 0.273593
0.266196 0.350682 -1.265872 128 128 255 -0.542100 -0.796117 0.268935
0.287045 0.350690 -1.221588 128 128 255 -0.586458 -0.765552 0.264569
0.307897 0.350698 -1.173281 128 128 255 -0.625760 -0.735180 0.260642
0.328749 0.350706 -1.121314 128 128 255 -0.650610 -0.713463 0.260147
0.350714 0.350714 -1.066073 128 128 255 -0.681424 -0.684998 0.257757
0.371569 0.350722 -1.007960 128 128 255 -0.717800 -0.648837 0.252534
0.392425 0.350729 -0.947394 128 128 255 -0.741333 -0.622316 0.251292
0.413280 0.350735 -0.884800 128 128 255 -0.762013 -0.597004 0.250844
0.434135 0.350740 -0.820587 128 128 255 -0.780319 -0.572723 0.251180
0.454989 0.350744 -0.755135 128 128 255 -0.804096 -0.540234 0.248148
0.474731 0.350746 -0.688948 128 128 255 -0.817658 -0.518488 0.250211
0.495582 0.350748 -0.622449 128 128 255 -0.822195 -0.507341 0.258072
0.516432 0.350748 -0.556047 128 128 255 -0.832544 -0.487845 0.262446
0.537281 0.350748 -0.490138 128 128 255 -0.841378 -0.469345 0.267952
0.558128 0.350747 -0.425099 128 128 255 -0.848804 -0.451758 0.274676
0.578974 0.350745 -0.361284 128 128 255 -0.848811 -0.443278 0.288140
0.600931 0.350743 -0.299024 128 128 255 -0.853624 -0.427280 0.297923
0.621777 0.350742 -0.238624 128 128 255 -0.863191 -0.403652 0.303258
0.642623 0.350741 -0.180360 128 128 255 -0.865380 -0.388878 0.316055
0.663470 0.350740 -0.124480 128 128 255 -0.866183 -0.374583 0.330779
0.684317 0.350739 -0.071199 128 128 255 -0.865484 -0.360664 0.347648
0.705165 0.350739 -0.020701 128 128 255 -0.868876 -0.340227 0.359583
0.724902 0.350738 0.026859 128 128 255 -0.864888 -0.326708 0.381091
0.745750 0.350738 0.071361 128 128 255 -0.852281 -0.320024 0.413765
0.766599 0.350738 0.112713 128 128 255 -0.843069 -0.306386 0.441998
0.787447 0.350738 0.150855 128 128 255 -0.830617 -0.292421 0.473883
0.808295 0.350738 0.185757 128 128 255 -0.814211 -0.277911 0.509732
0.829142 0.350738 0.217413 128 128 255 -0.785219 -0.266718 0.558831
0.851099 0.350737 0.245846 128 128 255 -0.757258 -0.250261 0.603266
0.871944 0.350736 0.271104 128 128 255 -0.731399 -0.228503 0.642528
0.892789 0.350734 0.293255 128 128 255 -0.688504 -0.209106 0.694432
0.913632 0.350733 0.312388 128 128 255 -0.635819 -0.187813 0.748639
0.934475 0.350731 0.328611 128 128 255 -0.572437 -0.164518 0.803274
0.955316 0.350729 0.342047 128 128 255 -0.508270 -0.138671 0.849960
0.975045 0.350727 0.352831 128 128 255 -0.423506 -0.111905 0.898955
0.995885 0.350725 0.361111 128 128 255 -0.322461 -0.085367 0.942725
1.016724 0.350723 0.367043 128 128 255 -0.226794 -0.058292 0.972197
1.037561 0.350720 0.370792 128 128 255 -0.131212 -0.032528 0.990821
1.058398 0.350717 0.372523 128 128 255 -0.039635 -0.008970 0.999174
1.079235 0.350715 0.372407 128 128 255 0.042951 0.012048 0.999005
1.101160 0.350712 0.370653 128 128 255 0.072024 0.022725 0.997144
-0.901177 0.378506 0.369650 128 128 255 -0.110585 0.035908 0.993218
-0.879231 0.378509 0.371915 128 128 255 -0.069379 0.021304 0.997363
-0.858395 0.378512 0.372590 128 128 255 0.008809 -0.000875 0.999961
-0.837558 0.378515 0.371509 128 128 255 0.096440 -0.026207 0.994994
-0.816720 0.378518 0.368507 128 128 255 0.189089 -0.054296 0.980458
-0.795882 0.378521 0.363424 128 128 255 0.283212 -0.084259 0.955349
-0.775042 0.378523 0.356101 128 128 255 0.383608 -0.114233 0.916404
-0.755313 0.378525 0.346388 128 128 255 0.470058 -0.144808 0.870676
-0.734472 0.378528 0.334140 128 128 255 0.536712 -0.174346 0.825557
-0.713630 0.378530 0.319227 128 128 255 0.602805 -0.201422 0.772046
