ply
format ascii 1.0
element vertex 666
property float x
property float y
property float z
property uchar red
property uchar green
property uchar blue
property float nx
property float ny
property float nz
end_header
0.096317 0.096317 204.537888 128 128 255 0.600208 0.799844 -0.000455
0.096317 0.096317 204.536346 128 128 255 0.598450 0.801160 -0.000299
0.096317 0.096317 204.535385 128 128 255 0.539990 0.841671 -0.000253
0.096317 0.096317 204.535004 128 128 255 -0.226077 0.974109 -0.000532
0.096317 0.096317 204.535217 128 128 255 -0.858588 -0.512666 -0.000065
0.096317 0.096317 204.535995 128 128 255 -0.781509 -0.623893 -0.000016
0.096317 0.096317 204.537354 128 128 255 -0.753532 -0.657411 -0.000004
0.096317 0.096317 204.539246 128 128 255 -0.743067 -0.669217 -0.000002
0.096317 0.096317 204.541672 128 128 255 -0.734348 -0.678773 -0.000001
0.096317 0.096317 204.544586 128 128 255 -0.727998 -0.685579 0.000000
0.096317 0.096317 204.547943 128 128 255 -0.724066 -0.689731 0.000000
0.096317 0.096317 204.551712 128 128 255 -0.721132 -0.692798 0.000000
0.096317 0.096317 204.555817 128 128 255 -0.670540 -0.741874 0.000000
0.096317 0.096317 204.558762 128 128 255 -0.659963 -0.751298 0.000000
0.096317 0.096317 204.560699 128 128 255 -0.450046 -0.893005 0.000000
1000.099976 -999.900024 205.900406 128 128 255 0.444321 -0.895867 0.000000
1000.099976 -999.900024 205.902283 128 128 255 0.690605 -0.723232 0.000000
1000.099976 -999.900024 205.904373 128 128 255 0.693010 -0.720928 0.000000
1000.099976 -999.900024 205.906662 128 128 255 0.695795 -0.718240 0.000000
1000.099976 -999.900024 205.909180 128 128 255 0.696664 -0.717398 0.000000
1000.099976 -999.900024 205.911865 128 128 255 0.698663 -0.715451 0.000000
1000.099976 -999.900024 205.914749 128 128 255 0.700387 -0.713763 0.000000
1000.099976 -999.900024 205.917786 128 128 255 0.701893 -0.712283 0.000000
1000.099976 -999.900024 205.920975 128 128 255 0.703769 -0.710429 0.000000
1000.099976 -999.900024 205.924271 128 128 255 0.704409 -0.709794 0.000000
1000.099976 -999.900024 205.927658 128 128 255 0.706579 -0.707634 0.000000
1000.099976 -999.900024 205.931091 128 128 255 0.707628 -0.706585 0.000000
1000.099976 -999.900024 205.934555 128 128 255 0.709190 -0.705018 0.000000
1000.099976 -999.900024 205.937988 128 128 255 0.711322 -0.702866 0.000000
1000.099976 -999.900024 205.941360 128 128 255 0.713564 -0.700590 0.000000
1000.099976 -999.900024 205.944641 128 128 255 0.714370 -0.699768 0.000000
1000.099976 -999.900024 205.947769 128 128 255 0.717110 -0.696960 0.000000
1000.099976 -999.900024 205.950714 128 128 255 0.720367 -0.693593 0.000000
1000.099976 -999.900024 205.953415 128 128 255 0.723037 -0.690809 0.000000
1000.099976 -999.900024 205.955841 128 128 255 0.023244 -0.999730 0.000000
1000.099976 -999.900024 205.957947 128 128 255 0.027665 -0.999617 0.000000
1000.099976 -999.900024 205.959213 128 128 255 0.002394 -0.000885 0.999997
1000.099976 -808.339600 205.957840 128 128 255 0.002443 -0.000080 0.999997
989.781677 -367.954285 205.956116 128 128 255 0.000923 0.000821 0.999999
449.570404 -167.058853 205.954086 128 128 255 0.000379 0.001813 0.999998
209.833527 -77.901512 205.951767 128 128 255 0.000838 0.003985 0.999992
95.889374 -35.528801 205.949234 128 128 255 0.001638 0.008373 0.999964
43.989201 -16.217194 205.946487 128 128 255 0.003871 0.018208 0.999827
21.018639 -7.674519 205.943604 128 128 255 0.007446 0.039800 0.999180
9.793792 -3.500036 205.941544 128 128 255 0.017384 0.086215 0.996125
4.538938 -1.553140 205.944672 128 128 255 0.040640 0.185157 0.981868
2.134967 -0.654484 205.946198 128 128 255 0.080616 0.376862 0.922755
1.041820 -0.245207 205.941055 128 128 255 0.131683 0.658057 0.741364
0.535800 -0.064386 205.934067 128 128 255 0.178226 0.873734 0.452575
0.302867 0.029608 205.928162 128 128 255 0.226493 0.947277 0.226643
0.188170 0.069523 205.923569 128 128 255 0.173829 0.979181 0.104824
0.138685 0.087927 205.919846 128 128 255 0.203885 0.977962 0.044967
0.115861 0.096415 205.916656 128 128 255 0.204958 0.978602 0.018188
0.105333 0.100330 205.913788 128 128 255 0.206019 0.978531 0.005818
0.100476 0.102136 205.911133 128 128 255 0.207687 0.978195 0.000107
0.098236 0.102970 205.908661 128 128 255 0.210788 0.977529 -0.002535
0.097202 0.103354 205.906357 128 128 255 0.218468 0.975837 -0.003777
0.096725 0.103531 205.903214 128 128 255 0.246641 0.969097 -0.004439
0.096505 0.103613 205.898453 128 128 255 0.321005 0.947065 -0.004886
0.096404 0.103651 205.893936 128 128 255 0.456022 0.889953 -0.005306
0.096357 0.103668 205.889709 128 128 255 0.716841 0.697214 -0.005601
0.096335 0.103676 205.885818 128 128 255 0.977691 0.209998 -0.004652
0.096325 0.103680 205.882324 128 128 255 0.964067 -0.265647 -0.002644
0.096321 0.103682 205.879288 128 128 255 0.874513 -0.485000 -0.001357
0.096318 0.103683 205.876740 128 128 255 0.820416 -0.571767 -0.000732
0.096318 0.103683 205.874710 128 128 255 0.798204 -0.602387 -0.000429
0.096317 0.103683 205.873230 128 128 255 0.804309 -0.594211 -0.000287
0.096317 0.103683 205.872330 128 128 255 0.850200 -0.526460 -0.000248
0.096317 0.103683 205.871994 128 128 255 0.836616 0.547789 -0.000544
0.096317 0.103683 205.872253 128 128 255 -0.539997 0.841667 -0.000058
0.096317 0.103683 205.873108 128 128 255 -0.629430 0.777057 -0.000011
0.096317 0.103683 205.874527 128 128 255 -0.659392 0.751799 -0.000004
0.096317 0.103683 205.876480 128 128 255 -0.670531 0.741882 -0.000002
0.096317 0.103683 205.878983 128 128 255 -0.680952 0.732328 -0.000001
0.096317 0.103683 205.881958 128 128 255 -0.685996 0.727605 0.000000
0.096317 0.103683 205.885376 128 128 255 -0.690003 0.723807 0.000000
0.096317 0.103683 205.889191 128 128 255 -0.693469 0.720487 0.000000
0.096317 0.103683 205.893356 128 128 255 -0.741893 0.670518 0.000000
0.096317 0.103683 205.896347 128 128 255 -0.750685 0.660661 0.000000
0.096317 0.103683 205.898300 128 128 255 -0.893725 0.448615 0.000000
-999.900024 -999.900024 207.238037 128 128 255 0.000000 -1.000000 0.000000
-999.900024 -999.900024 207.239944 128 128 255 0.000000 -1.000000 0.000000
-999.900024 -999.900024 207.242065 128 128 255 0.000000 -1.000000 0.000000
-999.900024 -999.900024 207.244385 128 128 255 0.000000 -1.000000 0.000000
-999.900024 -999.900024 207.246902 128 128 255 0.000000 -1.000000 0.000000
-999.900024 -999.900024 207.249619 128 128 255 0.000000 -1.000000 0.000000
-999.900024 -999.900024 207.252502 128 128 255 0.000000 -1.000000 0.000000
-999.900024 -999.900024 207.255539 128 128 255 0.000000 -1.000000 0.000000
-999.900024 -999.900024 207.258728 128 128 255 0.000000 -1.000000 0.000000
-999.900024 -999.900024 207.262009 128 128 255 0.000000 -1.000000 0.000000
-999.900024 -999.900024 207.265381 128 128 255 0.000000 -1.000000 0.000000
-999.900024 -999.900024 207.268799 128 128 255 0.000000 -1.000000 0.000000
-999.900024 -999.900024 207.272232 128 128 255 0.000000 -1.000000 0.000000
-999.900024 -999.900024 207.275650 128 128 255 0.000000 -1.000000 0.000000
-999.900024 -999.900024 207.278992 128 128 255 0.000000 -1.000000 0.000000
-999.900024 -999.900024 207.282227 128 128 255 0.000000 -1.000000 0.000000
-999.900024 -999.900024 207.285324 128 128 255 0.000000 -1.000000 0.000000
-999.900024 -999.900024 207.288223 128 128 255 0.000000 -1.000000 0.000000
-999.900024 -999.900024 207.290878 128 128 255 0.000000 -1.000000 0.000000
-999.900024 -999.900024 207.293274 128 128 255 0.000000 -1.000000 0.000000
-558.596985 -999.900024 207.295334 128 128 255 0.000000 -1.000000 0.000000
-265.200226 -999.900024 207.296555 128 128 255 0.001524 -0.003173 0.999994
-121.735603 -999.900024 207.295105 128 128 255 0.001156 -0.000940 0.999999
-55.756580 -999.900024 207.293335 128 128 255 0.001209 -0.000521 0.999999
-25.538914 -489.053040 207.291229 128 128 255 0.001828 0.000196 0.999998
-11.427370 -219.921936 207.288864 128 128 255 0.003982 0.000360 0.999992
-5.442718 -105.727959 207.286270 128 128 255 0.008659 0.000962 0.999962
-2.453008 -48.680893 207.283478 128 128 255 0.018946 0.001948 0.999819
-1.037501 -21.538214 207.280533 128 128 255 0.040677 0.003278 0.999167
-0.425845 -10.000328 207.278503 128 128 255 0.086853 0.009118 0.996179
-0.149912 -4.602005 207.281555 128 128 255 0.185877 0.019472 0.982380
-0.009900 -2.070973 207.282990 128 128 255 0.380855 0.040093 0.923765
0.051375 -0.901780 207.277786 128 128 255 0.665297 0.072115 0.743088
0.079586 -0.363493 207.270767 128 128 255 0.883526 0.098595 0.457887
0.092575 -0.115640 207.264832 128 128 255 0.968171 0.095025 0.231548
0.098561 0.005939 207.260223 128 128 255 0.986873 0.120621 0.107387
0.101321 0.058598 207.256485 128 128 255 0.993261 0.105901 0.047086
0.102593 0.082885 207.253281 128 128 255 0.994254 0.105129 0.020160
0.103180 0.094089 207.250397 128 128 255 0.994527 0.104195 0.007722
0.103451 0.099257 207.247742 128 128 255 0.994707 0.102730 0.001982
0.103576 0.101641 207.245270 128 128 255 0.994982 0.100050 -0.000666
0.103634 0.102741 207.242966 128 128 255 0.995584 0.093856 -0.001889
0.103661 0.103249 207.239838 128 128 255 0.997436 0.071525 -0.002458
0.103673 0.103483 207.235092 128 128 255 0.999938 0.010751 -0.002727
0.103678 0.103591 207.230591 128 128 255 0.995825 -0.091235 -0.002835
0.103681 0.103641 207.226379 128 128 255 0.959253 -0.282533 -0.002784
0.103682 0.103664 207.222519 128 128 255 0.824346 -0.566081 -0.002414
0.103683 0.103674 207.219070 128 128 255 0.575473 -0.817819 -0.001691
0.103683 0.103679 207.216064 128 128 255 0.342625 -0.939472 -0.001009
0.103683 0.103681 207.213547 128 128 255 0.196946 -0.980414 -0.000581
0.103683 0.103682 207.211563 128 128 255 0.118275 -0.992981 -0.000349
0.103683 0.103683 207.210144 128 128 255 0.078563 -0.996909 -0.000231
0.103683 0.103683 207.209290 128 128 255 0.068960 -0.997619 -0.000203
0.103683 0.103683 207.209015 128 128 255 0.210087 -0.977682 -0.000617
0.103683 0.103683 207.209335 128 128 255 0.019838 0.999803 -0.000060
0.103683 0.103683 207.210251 128 128 255 0.003744 0.999993 -0.000011
0.103683 0.103683 207.211731 128 128 255 0.001101 0.999999 -0.000003
0.103683 0.103683 207.213745 128 128 255 0.000415 1.000000 -0.000001
0.103683 0.103683 207.216309 128 128 255 0.000000 1.000000 0.000000
0.103683 0.103683 207.219330 128 128 255 0.000000 1.000000 0.000000
0.103683 0.103683 207.222809 128 128 255 0.000000 1.000000 0.000000
0.103683 0.103683 207.226685 128 128 255 0.000000 1.000000 0.000000
0.103683 0.103683 207.230911 128 128 255 0.000000 1.000000 0.000000
0.103683 0.103683 207.233932 128 128 255 0.000000 1.000000 0.000000
0.103683 0.103683 207.235931 128 128 255 0.000000 1.000000 0.000000
-999.900024 -999.900024 208.575684 128 128 255 -1.000000 0.000000 0.000000
-999.900024 -999.900024 208.577621 128 128 255 -1.000000 0.000000 0.000000
-999.900024 -999.900024 208.579758 128 128 255 -1.000000 0.000000 0.000000
-999.900024 -999.900024 208.582108 128 128 255 -1.000000 0.000000 0.000000
-999.900024 -999.900024 208.584656 128 128 255 -1.000000 0.000000 0.000000
-999.900024 -999.900024 208.587372 128 128 255 -1.000000 0.000000 0.000000
-999.900024 -999.900024 208.590271 128 128 255 -1.000000 0.000000 0.000000
-999.900024 -999.900024 208.593323 128 128 255 -1.000000 0.000000 0.000000
-999.900024 -999.900024 208.596497 128 128 255 -1.000000 0.000000 0.000000
-999.900024 -999.900024 208.599777 128 128 255 -1.000000 0.000000 0.000000
-999.900024 -999.900024 208.603119 128 128 255 -1.000000 0.000000 0.000000
-999.900024 -999.900024 208.606522 128 128 255 -1.000000 0.000000 0.000000
-999.900024 -999.900024 208.609940 128 128 255 -1.000000 0.000000 0.000000
-999.900024 -999.900024 208.613312 128 128 255 -1.000000 0.000000 0.000000
-999.900024 -999.900024 208.616623 128 128 255 -1.000000 0.000000 0.000000
-999.900024 -999.900024 208.619827 128 128 255 -1.000000 0.000000 0.000000
-999.900024 -999.900024 208.622879 128 128 255 -1.000000 0.000000 0.000000
-999.900024 -999.900024 208.625732 128 128 255 -1.000000 0.000000 0.000000
-999.900024 -999.900024 208.628357 128 128 255 -1.000000 0.000000 0.000000
-999.900024 -999.900024 208.630692 128 128 255 -1.000000 0.000000 0.000000
-999.900024 -999.900024 208.632706 128 128 255 -0.014442 -0.999896 0.000000
-999.900024 -999.900024 208.633865 128 128 255 0.003650 -0.001274 0.999993
-999.900024 -580.479126 208.632370 128 128 255 0.001561 -0.000643 0.999999
-999.900024 -267.467041 208.630524 128 128 255 0.000370 -0.001228 0.999999
-481.819122 -123.638542 208.628372 128 128 255 0.000719 -0.001748 0.999998
-220.679062 -56.591061 208.625961 128 128 255 0.001572 -0.003653 0.999992
-98.590561 -25.234800 208.623306 128 128 255 0.003313 -0.008092 0.999962
-45.560116 -11.626263 208.620453 128 128 255 0.007416 -0.016917 0.999829
-21.744972 -5.506098 208.617462 128 128 255 0.016902 -0.036855 0.999178
-9.721653 -2.419034 208.615372 128 128 255 0.033655 -0.081720 0.996087
-4.397025 -1.057377 208.618530 128 128 255 0.072136 -0.173458 0.982196
-1.962079 -0.426714 208.619797 128 128 255 0.149784 -0.351304 0.924202
-0.854368 -0.147778 208.614456 128 128 255 0.268817 -0.610270 0.745190
-0.341594 -0.008753 208.607407 128 128 255 0.360393 -0.811800 0.459454
-0.105541 0.051855 208.601471 128 128 255 0.374545 -0.897243 0.233820
0.010596 0.079782 208.596848 128 128 255 0.397215 -0.911305 0.108363
0.060746 0.092659 208.593109 128 128 255 0.395940 -0.917039 0.047651
0.083876 0.098598 208.589890 128 128 255 0.395518 -0.918229 0.020551
0.094546 0.101337 208.587006 128 128 255 0.394740 -0.918758 0.008032
0.099468 0.102601 208.584351 128 128 255 0.393477 -0.919332 0.002254
0.101738 0.103184 208.581879 128 128 255 0.391189 -0.920310 -0.000413
0.102786 0.103453 208.579590 128 128 255 0.384696 -0.923042 -0.001650
0.103269 0.103577 208.576462 128 128 255 0.361620 -0.932323 -0.002243
0.103492 0.103634 208.571732 128 128 255 0.312503 -0.949913 -0.002558
0.103595 0.103661 208.567245 128 128 255 0.215192 -0.976568 -0.002758
0.103643 0.103673 208.563065 128 128 255 0.008696 -0.999958 -0.002885
0.103665 0.103679 208.559235 128 128 255 -0.368700 -0.929545 -0.002707
0.103675 0.103681 208.555817 128 128 255 -0.750831 -0.660492 -0.001931
0.103679 0.103682 208.552856 128 128 255 -0.925575 -0.378563 -0.001109
0.103681 0.103683 208.550385 128 128 255 -0.976663 -0.214779 -0.000630
0.103682 0.103683 208.548462 128 128 255 -0.991217 -0.132246 -0.000388
0.103683 0.103683 208.547089 128 128 255 -0.995377 -0.096049 -0.000281
0.103683 0.103683 208.546280 128 128 255 -0.994161 -0.107907 -0.000317
0.103683 0.103683 208.546066 128 128 255 0.995848 -0.091034 -0.000268
0.103683 0.103683 208.546448 128 128 255 0.999942 -0.010753 -0.000031
0.103683 0.103683 208.547424 128 128 255 0.999996 -0.002974 -0.000009
0.103683 0.103683 208.548950 128 128 255 1.000000 -0.000938 -0.000003
0.103683 0.103683 208.551041 128 128 255 1.000000 -0.000368 -0.000001
0.103683 0.103683 208.553650 128 128 255 1.000000 0.000000 0.000000
0.103683 0.103683 208.556747 128 128 255 1.000000 0.000000 0.000000
0.103683 0.103683 208.560272 128 128 255 1.000000 0.000000 0.000000
0.103683 0.103683 208.564209 128 128 255 1.000000 0.000000 0.000000
0.103683 0.103683 208.568466 128 128 255 1.000000 0.000000 0.000000
0.103683 0.103683 208.571533 128 128 255 1.000000 0.000000 0.000000
0.103683 0.103683 208.573563 128 128 255 1.000000 0.000000 0.000000
-999.900024 1000.099976 209.913315 128 128 255 -0.444476 0.895791 0.000000
-999.900024 1000.099976 209.915298 128 128 255 -0.691380 0.722492 0.000000
-999.900024 1000.099976 209.917480 128 128 255 -0.692762 0.721167 0.000000
-999.900024 1000.099976 209.919861 128 128 255 -0.696100 0.717945 0.000000
-999.900024 1000.099976 209.922424 128 128 255 -0.697543 0.716543 0.000000
-999.900024 1000.099976 209.925156 128 128 255 -0.698755 0.715361 0.000000
-999.900024 1000.099976 209.928055 128 128 255 -0.701038 0.713124 0.000000
-999.900024 1000.099976 209.931107 128 128 255 -0.703048 0.711142 0.000000
-999.900024 1000.099976 209.934280 128 128 255 -0.703748 0.710450 0.000000
-999.900024 1000.099976 209.937546 128 128 255 -0.705472 0.708738 0.000000
-999.900024 1000.099976 209.940887 128 128 255 -0.706571 0.707643 0.000000
-999.900024 1000.099976 209.944260 128 128 255 -0.709233 0.704974 0.000000
-999.900024 1000.099976 209.947647 128 128 255 -0.710299 0.703900 0.000000
-999.900024 1000.099976 209.951004 128 128 255 -0.711981 0.702198 0.000000
-999.900024 1000.099976 209.954269 128 128 255 -0.714347 0.699791 0.000000
-999.900024 1000.099976 209.957428 128 128 255 -0.716379 0.697711 0.000000
-999.900024 1000.099976 209.960434 128 128 255 -0.718762 0.695257 0.000000
-999.900024 1000.099976 209.963242 128 128 255 -0.722322 0.691557 0.000000
-999.900024 1000.099976 209.965820 128 128 255 -0.726108 0.687580 0.000000
-999.900024 1000.099976 209.968094 128 128 255 -0.730435 0.682982 0.000000
-999.900024 1000.099976 209.970062 128 128 255 -0.776756 0.629802 0.000000
-999.900024 1000.099976 209.971161 128 128 255 -0.330978 -0.943639 0.000000
-999.900024 1000.099976 209.969620 128 128 255 0.000090 -0.000689 1.000000
-568.657898 917.414795 209.967728 128 128 255 -0.000834 -0.000710 0.999999
-260.675446 420.690002 209.965515 128 128 255 -0.001425 -0.001185 0.999998
-119.887238 193.609970 209.963043 128 128 255 -0.002984 -0.002622 0.999992
-54.755993 88.583282 209.960327 128 128 255 -0.006456 -0.005626 0.999963
-25.220144 40.939468 209.957443 128 128 255 -0.014451 -0.012259 0.999820
-11.299246 18.482843 209.954407 128 128 255 -0.031311 -0.025931 0.999173
-5.340836 8.865545 209.952194 128 128 255 -0.065241 -0.057890 0.996189
-2.417054 4.161849 209.955063 128 128 255 -0.143997 -0.122658 0.981947
-1.065364 1.969916 209.956573 128 128 255 -0.293950 -0.251502 0.922139
-0.431180 0.958963 209.951385 128 128 255 -0.511038 -0.437881 0.739662
-0.150072 0.501068 209.944275 128 128 255 -0.668066 -0.592423 0.450247
-0.009891 0.286860 209.938263 128 128 255 -0.744755 -0.627629 0.226763
0.051308 0.180789 209.933578 128 128 255 -0.761417 -0.639912 0.103719
0.079525 0.135280 209.929794 128 128 255 -0.759293 -0.649252 0.044120
0.092539 0.114291 209.926544 128 128 255 -0.760553 -0.649040 0.017484
0.098542 0.104609 209.923630 128 128 255 -0.761439 -0.648216 0.005183
0.101311 0.100142 209.920975 128 128 255 -0.762711 -0.646740 -0.000492
0.102589 0.098082 209.918503 128 128 255 -0.765049 -0.643965 -0.003108
0.103179 0.097131 209.916199 128 128 255 -0.771272 -0.636492 -0.004315
0.103450 0.096692 209.913101 128 128 255 -0.792706 -0.609584 -0.004865
0.103576 0.096490 209.908386 128 128 255 -0.837172 -0.546917 -0.005031
0.103634 0.096397 209.903931 128 128 255 -0.900136 -0.435580 -0.004956
0.103660 0.096354 209.899765 128 128 255 -0.972742 -0.231848 -0.004489
0.103673 0.096334 209.895981 128 128 255 -0.998557 0.053587 -0.003486
0.103678 0.096325 209.892593 128 128 255 -0.949587 0.313495 -0.002276
0.103681 0.096320 209.889679 128 128 255 -0.879814 0.475316 -0.001352
0.103682 0.096318 209.887253 128 128 255 -0.833133 0.553072 -0.000799
0.103683 0.096317 209.885376 128 128 255 -0.810422 0.585846 -0.000502
0.103683 0.096317 209.884048 128 128 255 -0.822277 0.569088 -0.000363
0.103683 0.096317 209.883316 128 128 255 -0.893975 0.448117 -0.000366
0.103683 0.096317 209.883163 128 128 255 0.034652 -0.999399 -0.000410
0.103683 0.096317 209.883606 128 128 255 0.579058 -0.815286 -0.000050
0.103683 0.096317 209.884628 128 128 255 0.642363 -0.766401 -0.000013
0.103683 0.096317 209.886215 128 128 255 0.663083 -0.748546 -0.000003
0.103683 0.096317 209.888367 128 128 255 0.675576 -0.737290 -0.000002
0.103683 0.096317 209.891022 128 128 255 0.683040 -0.730381 -0.000001
0.103683 0.096317 209.894165 128 128 255 0.688159 -0.725559 0.000000
0.103683 0.096317 209.897751 128 128 255 0.691244 -0.722621 0.000000
0.103683 0.096317 209.901733 128 128 255 0.695291 -0.718728 0.000000
0.103683 0.096317 209.906036 128 128 255 0.741605 -0.670837 0.000000
0.103683 0.096317 209.909149 128 128 255 0.749473 -0.662035 0.000000
0.103683 0.096317 209.911209 128 128 255 0.893090 -0.449878 0.000000
1000.099976 1000.099976 211.250977 128 128 255 0.896433 0.443180 0.000000
1000.099976 1000.099976 211.252991 128 128 255 0.722236 0.691647 0.000000
1000.099976 1000.099976 211.255203 128 128 255 0.720205 0.693761 0.000000
1000.099976 1000.099976 211.257614 128 128 255 0.717835 0.696213 0.000000
1000.099976 1000.099976 211.260193 128 128 255 0.716471 0.697617 0.000000
1000.099976 1000.099976 211.262955 128 128 255 0.714682 0.699449 0.000000
1000.099976 1000.099976 211.265869 128 128 255 0.713114 0.701048 0.000000
1000.099976 1000.099976 211.268921 128 128 255 0.711721 0.702463 0.000000
1000.099976 1000.099976 211.272079 128 128 255 0.709901 0.704302 0.000000
1000.099976 1000.099976 211.275345 128 128 255 0.708743 0.705467 0.000000
1000.099976 1000.099976 211.278671 128 128 255 0.706568 0.707645 0.000000
1000.099976 1000.099976 211.282028 128 128 255 0.705494 0.708716 0.000000
1000.099976 1000.099976 211.285370 128 128 255 0.703321 0.710872 0.000000
1000.099976 1000.099976 211.288696 128 128 255 0.701047 0.713115 0.000000
1000.099976 1000.099976 211.291931 128 128 255 0.700275 0.713873 0.000000
1000.099976 1000.099976 211.295044 128 128 255 0.696960 0.717110 0.000000
1000.099976 1000.099976 211.298004 128 128 255 0.694415 0.719575 0.000000
1000.099976 1000.099976 211.300766 128 128 255 0.691223 0.722642 0.000000
1000.099976 1000.099976 211.303268 128 128 255 0.686311 0.727308 0.000000
1000.099976 1000.099976 211.305496 128 128 255 0.681386 0.731924 0.000000
1000.099976 1000.099976 211.307404 128 128 255 0.625578 0.780161 0.000000
1000.099976 1000.099976 211.308456 128 128 255 0.999928 0.011995 0.000000
1000.099976 1000.099976 211.306854 128 128 255 0.000206 0.000978 1.000000
703.562195 815.068237 211.304916 128 128 255 -0.000641 0.000842 0.999999
316.615356 366.794495 211.302658 128 128 255 -0.001567 0.000959 0.999998
143.964020 166.776016 211.300125 128 128 255 -0.003368 0.002078 0.999992
68.659988 79.535461 211.297363 128 128 255 -0.007404 0.004479 0.999963
31.590525 36.581539 211.294418 128 128 255 -0.015977 0.009874 0.999824
14.729660 17.048040 211.291336 128 128 255 -0.034756 0.021252 0.999170
6.618575 7.652426 211.289230 128 128 255 -0.073883 0.048294 0.996097
3.096412 3.579327 211.292313 128 128 255 -0.157536 0.098900 0.982548
1.484966 1.696548 211.293427 128 128 255 -0.323112 0.198982 0.925205
0.739572 0.840367 211.287949 128 128 255 -0.566860 0.346277 0.747504
0.389246 0.435679 211.280838 128 128 255 -0.754307 0.466274 0.462179
0.238714 0.260118 211.274857 128 128 255 -0.830753 0.506494 0.230897
0.158587 0.168458 211.270203 128 128 255 -0.846853 0.521301 0.105288
0.125039 0.129592 211.266418 128 128 255 -0.851373 0.522606 0.045238
0.109567 0.111667 211.263168 128 128 255 -0.851575 0.523926 0.017945
0.102429 0.103398 211.260254 128 128 255 -0.851054 0.525050 0.005339
0.099137 0.099584 211.257584 128 128 255 -0.850018 0.526754 -0.000480
0.097618 0.097824 211.255112 128 128 255 -0.848069 0.529876 -0.003167
0.096917 0.097012 211.252823 128 128 255 -0.842979 0.537929 -0.004420
0.096594 0.096637 211.249725 128 128 255 -0.824079 0.566453 -0.005044
0.096444 0.096465 211.245041 128 128 255 -0.774254 0.632853 -0.005349
0.096376 0.096385 211.240616 128 128 255 -0.674904 0.737885 -0.005481
0.096344 0.096348 211.236481 128 128 255 -0.452292 0.891855 -0.005235
0.096329 0.096331 211.232727 128 128 255 -0.082361 0.996594 -0.004157
0.096322 0.096323 211.229401 128 128 255 0.264390 0.964412 -0.002607
0.096319 0.096320 211.226532 128 128 255 0.461073 0.887361 -0.001476
0.096318 0.096318 211.224152 128 128 255 0.547594 0.836744 -0.000850
0.096317 0.096317 211.222336 128 128 255 0.578797 0.815471 -0.000529
0.096317 0.096317 211.221054 128 128 255 0.564036 0.825750 -0.000383
0.096317 0.096317 211.220383 128 128 255 0.402791 0.915292 -0.000423
0.096317 0.096317 211.220276 128 128 255 -0.978058 -0.208331 -0.000328
0.096317 0.096317 211.220779 128 128 255 -0.807094 -0.590423 -0.000044
0.096317 0.096317 211.221863 128 128 255 -0.765261 -0.643720 -0.000014
0.096317 0.096317 211.223511 128 128 255 -0.746473 -0.665416 -0.000003
0.096317 0.096317 211.225708 128 128 255 -0.736069 -0.676907 -0.000002
0.096317 0.096317 211.228424 128 128 255 -0.730706 -0.682692 -0.000002
0.096317 0.096317 211.231613 128 128 255 -0.725315 -0.688417 0.000000
0.096317 0.096317 211.235245 128 128 255 -0.721068 -0.692864 0.000000
0.096317 0.096317 211.239273 128 128 255 -0.718602 -0.695421 0.000000
0.096317 0.096317 211.243622 128 128 255 -0.670712 -0.741718 0.000000
0.096317 0.096317 211.246765 128 128 255 -0.662751 -0.748840 0.000000
0.096317 0.096317 211.248871 128 128 255 -0.451132 -0.892457 0.000000
1000.099976 -999.900024 212.588623 128 128 255 0.443269 -0.896389 0.000000
1000.099976 -999.900024 212.590683 128 128 255 0.691109 -0.722750 0.000000
1000.099976 -999.900024 212.592941 128 128 255 0.694731 -0.719269 0.000000
1000.099976 -999.900024 212.595383 128 128 255 0.696346 -0.717706 0.000000
1000.099976 -999.900024 212.597992 128 128 255 0.697689 -0.716401 0.000000
1000.099976 -999.900024 212.600769 128 128 255 0.699490 -0.714642 0.000000
1000.099976 -999.900024 212.603683 128 128 255 0.701661 -0.712511 0.000000
1000.099976 -999.900024 212.606735 128 128 255 0.702470 -0.711713 0.000000
1000.099976 -999.900024 212.609909 128 128 255 0.704297 -0.709905 0.000000
1000.099976 -999.900024 212.613159 128 128 255 0.706010 -0.708202 0.000000
1000.099976 -999.900024 212.616470 128 128 255 0.708190 -0.706021 0.000000
1000.099976 -999.900024 212.619797 128 128 255 0.709266 -0.704941 0.000000
1000.099976 -999.900024 212.623123 128 128 255 0.710368 -0.703831 0.000000
1000.099976 -999.900024 212.626404 128 128 255 0.713746 -0.700405 0.000000
1000.099976 -999.900024 212.629593 128 128 255 0.715096 -0.699026 0.000000
1000.099976 -999.900024 212.632675 128 128 255 0.717262 -0.696803 0.000000
1000.099976 -999.900024 212.635574 128 128 255 0.719821 -0.694159 0.000000
1000.099976 -999.900024 212.638275 128 128 255 0.724337 -0.689446 0.000000
1000.099976 -999.900024 212.640732 128 128 255 0.727056 -0.686578 0.000000
1000.099976 -999.900024 212.642899 128 128 255 0.733561 -0.679623 0.000000
1000.099976 -999.900024 212.644730 128 128 255 0.014790 -0.999891 0.000000
1000.099976 -999.900024 212.645721 128 128 255 0.002158 -0.004213 0.999989
1000.099976 -928.213379 212.644073 128 128 255 0.002252 -0.000176 0.999997
980.529602 -424.164490 212.642090 128 128 255 0.000993 0.000750 0.999999
437.694946 -189.262146 212.639786 128 128 255 0.000434 0.001782 0.999998
205.913559 -88.961388 212.637207 128 128 255 0.000996 0.003871 0.999992
93.259338 -40.208370 212.634399 128 128 255 0.002312 0.008403 0.999962
43.278614 -18.587145 212.631409 128 128 255 0.004610 0.017961 0.999828
20.268297 -8.629691 212.628281 128 128 255 0.009998 0.039188 0.999182
9.647592 -4.036889 212.625961 128 128 255 0.020796 0.084999 0.996164
4.499670 -1.805996 212.628769 128 128 255 0.049891 0.183572 0.981739
2.118959 -0.778959 212.630203 128 128 255 0.099853 0.374570 0.921806
1.034635 -0.306542 212.624939 128 128 255 0.172207 0.651634 0.738728
0.532503 -0.089250 212.617767 128 128 255 0.227236 0.862374 0.452409
0.301347 0.018147 212.611694 128 128 255 0.275933 0.934509 0.224844
0.187469 0.064238 212.606949 128 128 255 0.223844 0.969056 0.104038
0.138361 0.085489 212.603119 128 128 255 0.256088 0.965628 0.044505
0.115712 0.095290 212.599838 128 128 255 0.257212 0.966189 0.017919
0.105264 0.099811 212.596893 128 128 255 0.258321 0.966043 0.005638
0.100445 0.101897 212.594208 128 128 255 0.260027 0.965601 -0.000031
0.098221 0.102859 212.591736 128 128 255 0.263135 0.964755 -0.002653
0.097195 0.103303 212.589447 128 128 255 0.270806 0.962626 -0.003884
0.096722 0.103508 212.586365 128 128 255 0.298654 0.954351 -0.004533
0.096504 0.103602 212.581711 128 128 255 0.370668 0.928752 -0.004950
0.096403 0.103646 212.577301 128 128 255 0.497016 0.867725 -0.005315
0.096356 0.103666 212.573227 128 128 255 0.730982 0.682375 -0.005523
0.096335 0.103675 212.569504 128 128 255 0.970423 0.241367 -0.004683
0.096325 0.103680 212.566223 128 128 255 0.976022 -0.217654 -0.002824
0.096321 0.103682 212.563400 128 128 255 0.892075 -0.451885 -0.001508
0.096318 0.103683 212.561081 128 128 255 0.837773 -0.546017 -0.000842
0.096317 0.103683 212.559311 128 128 255 0.817432 -0.576025 -0.000522
0.096317 0.103683 212.558105 128 128 255 0.832026 -0.554736 -0.000379
0.096317 0.103683 212.557465 128 128 255 0.939002 -0.343912 -0.000466
0.096317 0.103683 212.557434 128 128 255 -0.315568 0.948903 -0.000244
0.096317 0.103683 212.557983 128 128 255 -0.601513 0.798863 -0.000037
0.096317 0.103683 212.559128 128 128 255 -0.648057 0.761592 -0.000011
0.096317 0.103683 212.560837 128 128 255 -0.666375 0.745617 -0.000004
0.096317 0.103683 212.563080 128 128 255 -0.677676 0.735361 -0.000001
0.096317 0.103683 212.565842 128 128 255 -0.683918 0.729559 -0.000001
0.096317 0.103683 212.569092 128 128 255 -0.689214 0.724558 0.000000
0.096317 0.103683 212.572769 128 128 255 -0.692997 0.720940 0.000000
0.096317 0.103683 212.576813 128 128 255 -0.696372 0.717681 0.000000
0.096317 0.103683 212.581207 128 128 255 -0.740884 0.671633 0.000000
0.096317 0.103683 212.584381 128 128 255 -0.748301 0.663359 0.000000
0.096317 0.103683 212.586533 128 128 255 -0.892500 0.451048 0.000000
-999.900024 -999.900024 213.926285 128 128 255 0.000000 -1.000000 0.000000
-999.900024 -999.900024 213.928391 128 128 255 0.000000 -1.000000 0.000000
-999.900024 -999.900024 213.930695 128 128 255 0.000000 -1.000000 0.000000
-999.900024 -999.900024 213.933151 128 128 255 0.000000 -1.000000 0.000000
-999.900024 -999.900024 213.935791 128 128 255 0.000000 -1.000000 0.000000
-999.900024 -999.900024 213.938583 128 128 255 0.000000 -1.000000 0.000000
-999.900024 -999.900024 213.941528 128 128 255 0.000000 -1.000000 0.000000
-999.900024 -999.900024 213.944580 128 128 255 0.000000 -1.000000 0.000000
-999.900024 -999.900024 213.947754 128 128 255 0.000000 -1.000000 0.000000
-999.900024 -999.900024 213.950989 128 128 255 0.000000 -1.000000 0.000000
-999.900024 -999.900024 213.954285 128 128 255 0.000000 -1.000000 0.000000
-999.900024 -999.900024 213.957581 128 128 255 0.000000 -1.000000 0.000000
-999.900024 -999.900024 213.960876 128 128 255 0.000000 -1.000000 0.000000
-999.900024 -999.900024 213.964127 128 128 255 0.000000 -1.000000 0.000000
-999.900024 -999.900024 213.967270 128 128 255 0.000000 -1.000000 0.000000
-999.900024 -999.900024 213.970291 128 128 255 0.000000 -1.000000 0.000000
-999.900024 -999.900024 213.973145 128 128 255 0.000000 -1.000000 0.000000
-999.900024 -999.900024 213.975800 128 128 255 0.000000 -1.000000 0.000000
-999.900024 -999.900024 213.978180 128 128 255 0.000000 -1.000000 0.000000
-999.900024 -999.900024 213.980286 128 128 255 0.000000 -1.000000 0.000000
-999.900024 -999.900024 213.982056 128 128 255 0.002511 -0.458183 0.888854
-526.920654 -999.900024 213.982986 128 128 255 0.001754 -0.004946 0.999986
-243.706406 -999.900024 213.981293 128 128 255 0.000826 -0.002080 0.999997
-110.351387 -999.900024 213.979263 128 128 255 0.001138 -0.000602 0.999999
-50.081985 -477.318359 213.976913 128 128 255 0.001821 0.000112 0.999998
-23.903193 -228.313843 213.974289 128 128 255 0.004039 0.000181 0.999992
-10.949044 -105.063354 213.971436 128 128 255 0.008654 0.000441 0.999962
-5.005881 -48.510574 213.968414 128 128 255 0.019095 0.000909 0.999817
-2.190045 -21.719683 213.965240 128 128 255 0.040855 0.001512 0.999164
-0.940037 -9.834022 213.963043 128 128 255 0.087694 0.003412 0.996142
-0.387415 -4.498713 213.965973 128 128 255 0.185678 0.009817 0.982562
-0.126732 -2.018482 213.967072 128 128 255 0.379374 0.020919 0.925007
0.000970 -0.880940 213.961578 128 128 255 0.664746 0.037308 0.746137
0.056364 -0.353894 213.954391 128 128 255 0.885687 0.055256 0.460982
0.081871 -0.111216 213.948334 128 128 255 0.971088 0.049078 0.233624
0.093624 0.007978 213.943604 128 128 255 0.991310 0.074666 0.108299
0.099044 0.059538 213.939774 128 128 255 0.997210 0.057585 0.047495
0.101543 0.083319 213.936478 128 128 255 0.998183 0.056724 0.020308
0.102696 0.094289 213.933533 128 128 255 0.998416 0.055721 0.007750
0.103228 0.099349 213.930847 128 128 255 0.998529 0.054190 0.001955
0.103473 0.101684 213.928360 128 128 255 0.998675 0.051450 -0.000719
0.103586 0.102761 213.926071 128 128 255 0.998975 0.045233 -0.001953
0.103639 0.103258 213.923004 128 128 255 0.999730 0.023080 -0.002524
0.103663 0.103487 213.918365 128 128 255 0.999328 -0.036552 -0.002786
0.103674 0.103593 213.914017 128 128 255 0.990889 -0.134650 -0.002883
0.103679 0.103642 213.909973 128 128 255 0.949693 -0.313171 -0.002816
0.103681 0.103664 213.906311 128 128 255 0.818504 -0.574496 -0.002448
0.103682 0.103674 213.903061 128 128 255 0.586226 -0.810145 -0.001760
0.103683 0.103679 213.900299 128 128 255 0.361702 -0.932293 -0.001088
0.103683 0.103681 213.898041 128 128 255 0.215732 -0.976452 -0.000650
0.103683 0.103682 213.896317 128 128 255 0.136441 -0.990648 -0.000410
0.103683 0.103683 213.895172 128 128 255 0.099249 -0.995063 -0.000300
0.103683 0.103683 213.894592 128 128 255 0.114778 -0.993391 -0.000344
0.103683 0.103683 213.894623 128 128 255 0.102902 0.994691 -0.000314
0.103683 0.103683 213.895233 128 128 255 0.012079 0.999927 -0.000035
0.103683 0.103683 213.896423 128 128 255 0.002975 0.999996 -0.000009
0.103683 0.103683 213.898178 128 128 255 0.001173 0.999999 -0.000004
0.103683 0.103683 213.900482 128 128 255 0.000368 1.000000 -0.000001
0.103683 0.103683 213.903290 128 128 255 0.000000 1.000000 0.000000
0.103683 0.103683 213.906586 128 128 255 0.000000 1.000000 0.000000
0.103683 0.103683 213.910294 128 128 255 0.000000 1.000000 0.000000
0.103683 0.103683 213.914383 128 128 255 0.000000 1.000000 0.000000
0.103683 0.103683 213.918793 128 128 255 0.000000 1.000000 0.000000
0.103683 0.103683 213.922028 128 128 255 0.000000 1.000000 0.000000
0.103683 0.103683 213.924210 128 128 255 0.000000 1.000000 0.000000
-999.900024 -999.900024 215.263947 128 128 255 -1.000000 0.000000 0.000000
-999.900024 -999.900024 215.266113 128 128 255 -1.000000 0.000000 0.000000
-999.900024 -999.900024 215.268448 128 128 255 -1.000000 0.000000 0.000000
-999.900024 -999.900024 215.270950 128 128 255 -1.000000 0.000000 0.000000
-999.900024 -999.900024 215.273621 128 128 255 -1.000000 0.000000 0.000000
-999.900024 -999.900024 215.276428 128 128 255 -1.000000 0.000000 0.000000
-999.900024 -999.900024 215.279388 128 128 255 -1.000000 0.000000 0.000000
-999.900024 -999.900024 215.282455 128 128 255 -1.000000 0.000000 0.000000
-999.900024 -999.900024 215.285614 128 128 255 -1.000000 0.000000 0.000000
-999.900024 -999.900024 215.288834 128 128 255 -1.000000 0.000000 0.000000
-999.900024 -999.900024 215.292114 128 128 255 -1.000000 0.000000 0.000000
-999.900024 -999.900024 215.295395 128 128 255 -1.000000 0.000000 0.000000
-999.900024 -999.900024 215.298645 128 128 255 -1.000000 0.000000 0.000000
-999.900024 -999.900024 215.301849 128 128 255 -1.000000 0.000000 0.000000
-999.900024 -999.900024 215.304962 128 128 255 -1.000000 0.000000 0.000000
-999.900024 -999.900024 215.307938 128 128 255 -1.000000 0.000000 0.000000
-999.900024 -999.900024 215.310730 128 128 255 -1.000000 0.000000 0.000000
-999.900024 -999.900024 215.313309 128 128 255 -1.000000 0.000000 0.000000
-999.900024 -999.900024 215.315628 128 128 255 -1.000000 0.000000 0.000000
-999.900024 -999.900024 215.317673 128 128 255 -1.000000 0.000000 0.000000
-999.900024 -999.900024 215.319366 128 128 255 1.000000 0.000000 0.000000
-999.900024 -994.672485 215.320236 128 128 255 0.005671 -0.002473 0.999981
-999.900024 -459.407166 215.318497 128 128 255 0.001660 -0.000870 0.999998
-999.900024 -206.400970 215.316422 128 128 255 0.000240 -0.001313 0.999999
-481.057617 -96.913971 215.314026 128 128 255 0.000620 -0.001782 0.999998
-218.188889 -43.911819 215.311371 128 128 255 0.001363 -0.003810 0.999992
-100.757965 -20.233591 215.308472 128 128 255 0.003071 -0.008037 0.999963
-45.838158 -9.158332 215.305405 128 128 255 0.006418 -0.017294 0.999830
-21.866943 -4.332253 215.302185 128 128 255 0.014822 -0.037616 0.999182
-10.005013 -1.934587 215.299820 128 128 255 0.030339 -0.082703 0.996112
-4.529250 -0.836361 215.302658 128 128 255 0.062998 -0.178485 0.981924
-2.029824 -0.332389 215.303894 128 128 255 0.131043 -0.362260 0.922819
-0.882088 -0.100964 215.298462 128 128 255 0.233164 -0.629316 0.741348
-0.354349 0.012813 215.291229 128 128 255 0.314318 -0.832836 0.455619
-0.111418 0.061797 215.285110 128 128 255 0.323626 -0.917423 0.231520
0.007886 0.084367 215.280334 128 128 255 0.346617 -0.931855 0.107251
0.059496 0.094774 215.276474 128 128 255 0.342821 -0.938218 0.047126
0.083300 0.099573 215.273148 128 128 255 0.342309 -0.939368 0.020310
0.094280 0.101787 215.270187 128 128 255 0.341462 -0.939862 0.007923
0.099345 0.102809 215.267487 128 128 255 0.340127 -0.940377 0.002206
0.101682 0.103280 215.264984 128 128 255 0.337754 -0.941234 -0.000433
0.102760 0.103497 215.262695 128 128 255 0.331176 -0.943567 -0.001655
0.103257 0.103597 215.259628 128 128 255 0.308246 -0.951304 -0.002238
0.103487 0.103644 215.255051 128 128 255 0.260169 -0.965560 -0.002539
0.103593 0.103665 215.250732 128 128 255 0.167610 -0.985850 -0.002717
0.103642 0.103675 215.246735 128 128 255 -0.022508 -0.999743 -0.002814
0.103664 0.103679 215.243118 128 128 255 -0.356088 -0.934449 -0.002655
0.103674 0.103682 215.239944 128 128 255 -0.717078 -0.696990 -0.001988
0.103679 0.103683 215.237228 128 128 255 -0.904822 -0.425787 -0.001217
0.103681 0.103683 215.235031 128 128 255 -0.967377 -0.253341 -0.000725
0.103682 0.103683 215.233368 128 128 255 -0.986066 -0.166354 -0.000476
0.103683 0.103683 215.232269 128 128 255 -0.990164 -0.139912 -0.000399
0.103683 0.103683 215.231766 128 128 255 -0.883844 -0.467780 -0.001342
0.103683 0.103683 215.231842 128 128 255 0.999183 -0.040417 -0.000116
0.103683 0.103683 215.232498 128 128 255 0.999965 -0.008419 -0.000023
0.103683 0.103683 215.233749 128 128 255 0.999997 -0.002469 -0.000008
0.103683 0.103683 215.235565 128 128 255 1.000000 -0.000825 -0.000002
0.103683 0.103683 215.237915 128 128 255 1.000000 -0.000334 -0.000001
0.103683 0.103683 215.240768 128 128 255 1.000000 0.000000 0.000000
0.103683 0.103683 215.244095 128 128 255 1.000000 0.000000 0.000000
0.103683 0.103683 215.247833 128 128 255 1.000000 0.000000 0.000000
0.103683 0.103683 215.251953 128 128 255 1.000000 0.000000 0.000000
0.103683 0.103683 215.256393 128 128 255 1.000000 0.000000 0.000000
0.103683 0.103683 215.259659 128 128 255 1.000000 0.000000 0.000000
0.103683 0.103683 215.261902 128 128 255 1.000000 0.000000 0.000000
-999.900024 1000.099976 216.601624 128 128 255 -0.443539 0.896255 0.000000
-999.900024 1000.099976 216.603836 128 128 255 -0.693672 0.720291 0.000000
-999.900024 1000.099976 216.606216 128 128 255 -0.695300 0.718720 0.000000
-999.900024 1000.099976 216.608749 128 128 255 -0.696725 0.717338 0.000000
-999.900024 1000.099976 216.611450 128 128 255 -0.698616 0.715497 0.000000
-999.900024 1000.099976 216.614288 128 128 255 -0.700245 0.713902 0.000000
-999.900024 1000.099976 216.617249 128 128 255 -0.702329 0.711852 0.000000
-999.900024 1000.099976 216.620331 128 128 255 -0.703638 0.710559 0.000000
-999.900024 1000.099976 216.623489 128 128 255 -0.705412 0.708798 0.000000
-999.900024 1000.099976 216.626709 128 128 255 -0.706550 0.707663 0.000000
-999.900024 1000.099976 216.629959 128 128 255 -0.708763 0.705446 0.000000
-999.900024 1000.099976 216.633209 128 128 255 -0.710429 0.703769 0.000000
-999.900024 1000.099976 216.636444 128 128 255 -0.712159 0.702018 0.000000
-999.900024 1000.099976 216.639603 128 128 255 -0.714595 0.699539 0.000000
-999.900024 1000.099976 216.642654 128 128 255 -0.717279 0.696786 0.000000
-999.900024 1000.099976 216.645569 128 128 255 -0.719731 0.694253 0.000000
-999.900024 1000.099976 216.648300 128 128 255 -0.722017 0.691876 0.000000
-999.900024 1000.099976 216.650818 128 128 255 -0.726428 0.687243 0.000000
-999.900024 1000.099976 216.653076 128 128 255 -0.731395 0.681954 0.000000
-999.900024 1000.099976 216.655045 128 128 255 -0.738313 0.674459 0.000000
-999.900024 1000.099976 216.656677 128 128 255 -0.795364 0.606132 0.000000
-999.900024 1000.099976 216.657455 128 128 255 0.791388 -0.611314 0.000000
-999.900024 1000.099976 216.655685 128 128 255 0.000108 -0.000762 1.000000
-498.992126 907.948242 216.653580 128 128 255 -0.000864 -0.000793 0.999999
-239.735382 436.361969 216.651138 128 128 255 -0.001498 -0.001119 0.999998
-106.398026 193.829575 216.648438 128 128 255 -0.003135 -0.002420 0.999992
-49.463722 90.266457 216.645523 128 128 255 -0.006860 -0.005250 0.999963
-23.265675 42.605022 216.642410 128 128 255 -0.014924 -0.011652 0.999821
-10.316830 19.045126 216.639160 128 128 255 -0.032804 -0.024222 0.999168
-4.794059 8.999243 216.636810 128 128 255 -0.068694 -0.053760 0.996188
-2.169513 4.238611 216.639557 128 128 255 -0.148051 -0.114756 0.982299
-0.944785 2.010839 216.640747 128 128 255 -0.302969 -0.234422 0.923719
-0.386516 0.981953 216.635300 128 128 255 -0.528072 -0.408969 0.744234
-0.126116 0.508287 216.628036 128 128 255 -0.693292 -0.560058 0.453521
0.001150 0.290191 216.621872 128 128 255 -0.772347 -0.592609 0.228682
0.056400 0.182325 216.617065 128 128 255 -0.789447 -0.604811 0.104772
0.081873 0.135989 216.613174 128 128 255 -0.788945 -0.612844 0.044597
0.093622 0.114618 216.609833 128 128 255 -0.790233 -0.612551 0.017714
0.099042 0.104759 216.606842 128 128 255 -0.791111 -0.611649 0.005299
0.101542 0.100212 216.604126 128 128 255 -0.792347 -0.610071 -0.000428
0.102695 0.098114 216.601624 128 128 255 -0.794573 -0.607161 -0.003068
0.103228 0.097146 216.599319 128 128 255 -0.800356 -0.599509 -0.004283
0.103473 0.096699 216.596283 128 128 255 -0.819819 -0.572602 -0.004830
0.103586 0.096493 216.591736 128 128 255 -0.859349 -0.511366 -0.004984
0.103639 0.096398 216.587463 128 128 255 -0.914133 -0.405385 -0.004897
0.103663 0.096354 216.583527 128 128 255 -0.976516 -0.215398 -0.004440
0.103674 0.096334 216.579956 128 128 255 -0.998832 0.048200 -0.003503
0.103679 0.096325 216.576828 128 128 255 -0.955981 0.293417 -0.002361
0.103681 0.096320 216.574173 128 128 255 -0.891582 0.452857 -0.001453
0.103682 0.096318 216.572037 128 128 255 -0.847548 0.530719 -0.000897
0.103683 0.096317 216.570435 128 128 255 -0.831519 0.555496 -0.000596
0.103683 0.096317 216.569412 128 128 255 -0.856174 0.516688 -0.000481
0.103683 0.096317 216.568954 128 128 255 -0.999164 0.040884 -0.000781
0.103683 0.096317 216.569092 128 128 255 0.465779 -0.884901 -0.000181
0.103683 0.096317 216.569809 128 128 255 0.616992 -0.786970 -0.000037
0.103683 0.096317 216.571106 128 128 255 0.655056 -0.755580 -0.000011
0.103683 0.096317 216.572968 128 128 255 0.671277 -0.741207 -0.000002
0.103683 0.096317 216.575363 128 128 255 0.680622 -0.732635 -0.000002
0.103683 0.096317 216.578262 128 128 255 0.686009 -0.727593 -0.000001
0.103683 0.096317 216.581619 128 128 255 0.691314 -0.722554 0.000000
0.103683 0.096317 216.585403 128 128 255 0.693833 -0.720136 0.000000
0.103683 0.096317 216.589554 128 128 255 0.697007 -0.717065 0.000000
0.103683 0.096317 216.594009 128 128 255 0.740066 -0.672535 0.000000
0.103683 0.096317 216.597321 128 128 255 0.744569 -0.667545 0.000000
0.103683 0.096317 216.599594 128 128 255 0.893217 -0.449626 0.000000
1000.099976 1000.099976 217.939301 128 128 255 0.896806 0.442424 0.000000
1000.099976 1000.099976 217.941559 128 128 255 0.720036 0.693937 0.000000
1000.099976 1000.099976 217.943985 128 128 255 0.718509 0.695517 0.000000
1000.099976 1000.099976 217.946564 128 128 255 0.717202 0.696865 0.000000
1000.099976 1000.099976 217.949295 128 128 255 0.715406 0.698709 0.000000
1000.099976 1000.099976 217.952164 128 128 255 0.713239 0.700921 0.000000
1000.099976 1000.099976 217.955139 128 128 255 0.711844 0.702337 0.000000
1000.099976 1000.099976 217.958221 128 128 255 0.709982 0.704219 0.000000
1000.099976 1000.099976 217.961380 128 128 255 0.708800 0.705409 0.000000
1000.099976 1000.099976 217.964584 128 128 255 0.706548 0.707666 0.000000
1000.099976 1000.099976 217.967819 128 128 255 0.705436 0.708774 0.000000
1000.099976 1000.099976 217.971054 128 128 255 0.703737 0.710461 0.000000
1000.099976 1000.099976 217.974243 128 128 255 0.700801 0.713356 0.000000
1000.099976 1000.099976 217.977356 128 128 255 0.698824 0.715294 0.000000
1000.099976 1000.099976 217.980362 128 128 255 0.696587 0.717472 0.000000
1000.099976 1000.099976 217.983215 128 128 255 0.693967 0.720007 0.000000
1000.099976 1000.099976 217.985886 128 128 255 0.690776 0.723069 0.000000
1000.099976 1000.099976 217.988342 128 128 255 0.685849 0.727744 0.000000
1000.099976 1000.099976 217.990524 128 128 255 0.680043 0.733172 0.000000
1000.099976 1000.099976 217.992401 128 128 255 0.672881 0.739751 0.000000
1000.099976 1000.099976 217.993958 128 128 255 0.597994 0.801500 0.000000
1000.099976 1000.099976 217.994675 128 128 255 -0.994562 -0.104143 0.000000
1000.099976 1000.099976 217.992874 128 128 255 0.000028 0.000806 1.000000
714.996948 745.587524 217.990723 128 128 255 -0.000672 0.000770 0.999999
341.684906 356.308960 217.988251 128 128 255 -0.001520 0.001077 0.999998
158.584900 165.359009 217.985519 128 128 255 -0.003246 0.002222 0.999992
73.286819 76.410980 217.982559 128 128 255 -0.007186 0.005067 0.999961
33.101509 34.521179 217.979401 128 128 255 -0.015334 0.010905 0.999823
15.707003 16.374989 217.976120 128 128 255 -0.033764 0.022659 0.999173
7.101962 7.394053 217.973755 128 128 255 -0.071648 0.051860 0.996081
3.306788 3.436484 217.976639 128 128 255 -0.152561 0.108787 0.982288
1.576581 1.632240 217.977631 128 128 255 -0.311944 0.218838 0.924554
0.781558 0.810564 217.972015 128 128 255 -0.546934 0.380811 0.745551
0.408567 0.421929 217.964722 128 128 255 -0.729361 0.504237 0.462361
0.247618 0.253777 217.958572 128 128 255 -0.800939 0.552938 0.229688
0.162693 0.165533 217.953766 128 128 255 -0.818075 0.565501 0.104698
0.126933 0.128243 217.949860 128 128 255 -0.820365 0.570071 0.044944
0.110440 0.111045 217.946503 128 128 255 -0.820464 0.571420 0.017799
0.102832 0.103111 217.943512 128 128 255 -0.819855 0.572548 0.005261
0.099323 0.099451 217.940765 128 128 255 -0.818690 0.574236 -0.000526
0.097703 0.097763 217.938263 128 128 255 -0.816532 0.577291 -0.003198
0.096956 0.096984 217.935959 128 128 255 -0.811017 0.585006 -0.004441
0.096612 0.096624 217.932922 128 128 255 -0.791212 0.611521 -0.005048
0.096453 0.096459 217.928421 128 128 255 -0.740952 0.671537 -0.005324
0.096379 0.096382 217.924210 128 128 255 -0.644720 0.764399 -0.005418
0.096346 0.096347 217.920319 128 128 255 -0.440385 0.897794 -0.005161
0.096330 0.096331 217.916809 128 128 255 -0.103329 0.994638 -0.004184
0.096323 0.096323 217.913742 128 128 255 0.224945 0.974368 -0.002757
0.096320 0.096320 217.911163 128 128 255 0.425510 0.904952 -0.001632
0.096318 0.096318 217.909073 128 128 255 0.519113 0.854705 -0.000982
0.096317 0.096317 217.907547 128 128 255 0.544580 0.838708 -0.000649
0.096317 0.096317 217.906570 128 128 255 0.493280 0.869870 -0.000546
0.096317 0.096317 217.906174 128 128 255 -0.208617 0.977997 -0.000982
0.096317 0.096317 217.906372 128 128 255 -0.863664 -0.504068 -0.000156
0.096317 0.096317 217.907150 128 128 255 -0.782622 -0.622497 -0.000035
0.096317 0.096317 217.908493 128 128 255 -0.754245 -0.656593 -0.000011
0.096317 0.096317 217.910400 128 128 255 -0.739688 -0.672950 -0.000002
0.096317 0.096317 217.912842 128 128 255 -0.732366 -0.680911 -0.000002
0.096317 0.096317 217.915771 128 128 255 -0.726941 -0.686700 -0.000002
0.096317 0.096317 217.919174 128 128 255 -0.722425 -0.691450 0.000000
0.096317 0.096317 217.922974 128 128 255 -0.719168 -0.694836 0.000000
0.096317 0.096317 217.927155 128 128 255 -0.716187 -0.697908 0.000000
0.096317 0.096317 217.931641 128 128 255 -0.673724 -0.738983 0.000000
0.096317 0.096317 217.934967 128 128 255 -0.668197 -0.743985 0.000000
0.096317 0.096317 217.937317 128 128 255 -0.453088 -0.891466 0.000000
1000.099976 -999.900024 219.276978 128 128 255 0.443707 -0.896172 0.000000
