ply
format ascii 1.0
element vertex 692
property float x
property float y
property float z
property uchar red
property uchar green
property uchar blue
property float nx
property float ny
property float nz
end_header
-0.781366 0.335348 -0.529783 128 128 255 -0.675632 0.095693 0.731002
-0.789321 0.276007 -0.529669 128 128 255 -0.675330 0.080024 0.733162
-0.794922 0.219076 -0.529578 128 128 255 -0.679382 0.053278 0.731848
-0.798250 0.160058 -0.529509 128 128 255 -0.681536 0.026278 0.731312
-0.799354 0.101111 -0.529464 128 128 255 -0.682436 0.000375 0.730946
-0.798250 0.039942 -0.529443 128 128 255 -0.681502 -0.025051 0.731387
-0.794922 -0.019076 -0.529445 128 128 255 -0.679244 -0.052534 0.732030
-0.789321 -0.076007 -0.529471 128 128 255 -0.675867 -0.079263 0.732749
-0.781366 -0.135348 -0.529519 128 128 255 -0.670327 -0.094171 0.736066
-0.773172 -0.197136 -0.529590 128 128 255 -0.663975 -0.120901 0.737916
-0.760158 -0.256940 -0.529681 128 128 255 -0.654730 -0.161608 0.738384
-0.744388 -0.314747 -0.529793 128 128 255 -0.644121 -0.189619 0.741049
-0.725687 -0.374958 -0.529923 128 128 255 -0.629437 -0.204692 0.749607
-0.703867 -0.437495 -0.530070 128 128 255 -0.606963 -0.239287 0.757850
-0.678729 -0.497798 -0.530233 128 128 255 -0.587016 -0.276588 0.760862
-0.647853 -0.555713 -0.530409 128 128 255 -0.567857 -0.304082 0.764900
-0.615489 -0.615489 -0.530596 128 128 255 -0.547855 -0.312843 0.775876
-0.579230 -0.676892 -0.530793 128 128 255 -0.531678 -0.342223 0.774727
-0.538909 -0.735202 -0.530997 128 128 255 -0.513029 -0.380484 0.769437
-0.496603 -0.790106 -0.531206 128 128 255 -0.485152 -0.404973 0.775000
-0.447753 -0.845700 -0.531187 128 128 255 -0.451306 -0.420346 0.787167
-0.392277 -0.901602 -0.530911 128 128 255 -0.416865 -0.433151 0.799127
-0.334579 -0.952959 -0.530640 128 128 255 -0.390082 -0.453770 0.801205
-0.274663 -1.001559 -0.530377 128 128 255 -0.355195 -0.487644 0.797521
-0.208138 -1.044728 -0.530124 128 128 255 -0.314398 -0.505473 0.803524
-0.135109 -1.086447 -0.529883 128 128 255 -0.274800 -0.512990 0.813220
-0.060181 -1.124026 -0.529657 128 128 255 -0.247244 -0.510164 0.823774
0.016428 -1.159219 -0.529448 128 128 255 -0.204695 -0.517085 0.831098
0.098889 -1.187124 -0.529257 128 128 255 -0.156711 -0.525303 0.836360
0.186869 -1.209520 -0.529086 128 128 255 -0.120686 -0.533504 0.837143
0.273312 -1.225989 -0.528937 128 128 255 -0.081039 -0.539234 0.838248
0.366666 -1.236144 -0.528812 128 128 255 -0.040190 -0.535693 0.843456
0.459768 -1.239635 -0.528711 128 128 255 -0.000800 -0.529502 0.848308
0.552076 -1.236158 -0.528636 128 128 255 0.038198 -0.520639 0.852922
0.649673 -1.225458 -0.528587 128 128 255 0.077973 -0.506605 0.858645
0.743049 -1.207339 -0.528565 128 128 255 0.111551 -0.486270 0.866659
0.838217 -1.181665 -0.528570 128 128 255 0.147251 -0.467466 0.871661
0.934501 -1.146145 -0.528602 128 128 255 0.184297 -0.448832 0.874405
1.024542 -1.105224 -0.528661 128 128 255 0.210446 -0.430780 0.877577
1.116527 -1.056749 -0.528747 128 128 255 0.239501 -0.412852 0.878745
1.203089 -1.003089 -0.528858 128 128 255 0.275848 -0.387755 0.879519
1.283534 -0.940017 -0.528994 128 128 255 0.300714 -0.357465 0.884189
1.363853 -0.867824 -0.529153 128 128 255 0.318188 -0.330699 0.888479
1.436727 -0.791319 -0.529335 128 128 255 0.349981 -0.302238 0.886660
1.501539 -0.710931 -0.529538 128 128 255 0.370030 -0.269209 0.889159
1.562155 -0.620492 -0.529759 128 128 255 0.376928 -0.238678 0.894963
1.618049 -0.527225 -0.529997 128 128 255 0.392165 -0.206755 0.896359
1.664303 -0.431743 -0.530250 128 128 255 0.410956 -0.172444 0.895198
1.702728 -0.328041 -0.530515 128 128 255 0.427696 -0.137159 0.893456
1.730757 -0.225710 -0.530791 128 128 255 0.436012 -0.101848 0.894159
1.752563 -0.116599 -0.531074 128 128 255 0.439560 -0.068995 0.895559
1.765726 -0.010361 -0.531363 128 128 255 0.439801 -0.036286 0.897362
1.770127 0.098889 -0.531308 128 128 255 0.431673 -0.017813 0.901854
1.684026 0.100000 -0.486504 128 128 255 0.463672 0.016551 0.885852
1.679857 0.204588 -0.486284 128 128 255 0.462418 0.035552 0.885949
1.667390 0.305093 -0.486068 128 128 255 0.458851 0.072557 0.885546
1.646736 0.408555 -0.485858 128 128 255 0.452574 0.109561 0.884971
1.618083 0.505360 -0.485657 128 128 255 0.441294 0.147520 0.885154
1.579467 0.603700 -0.485467 128 128 255 0.430354 0.179933 0.884545
1.535658 0.696240 -0.485289 128 128 255 0.418358 0.220778 0.881042
1.484823 0.782356 -0.485127 128 128 255 0.404094 0.250981 0.879611
1.429632 0.868133 -0.484981 128 128 255 0.385996 0.280018 0.878975
1.366141 0.946377 -0.484853 128 128 255 0.361147 0.322615 0.874924
1.294895 1.016617 -0.484744 128 128 255 0.338101 0.350945 0.873227
1.223148 1.082889 -0.484657 128 128 255 0.313634 0.371330 0.873927
1.144850 1.144850 -0.484592 128 128 255 0.285076 0.398550 0.871716
1.060640 1.197778 -0.484549 128 128 255 0.252513 0.437464 0.863054
0.975620 1.241468 -0.484529 128 128 255 0.223209 0.462238 0.858204
0.890455 1.280226 -0.484534 128 128 255 0.189222 0.478546 0.857432
0.799142 1.311762 -0.484562 128 128 255 0.154808 0.491273 0.857138
0.711225 1.336078 -0.484614 128 128 255 0.119867 0.504309 0.855163
0.620679 1.355460 -0.484689 128 128 255 0.081364 0.518161 0.851404
0.528122 1.365592 -0.484787 128 128 255 0.038865 0.532995 0.845225
0.440810 1.368884 -0.484907 128 128 255 -0.001197 0.541938 0.840418
0.352629 1.365576 -0.485048 128 128 255 -0.041602 0.548119 0.835365
0.264092 1.355955 -0.485208 128 128 255 -0.088296 0.552986 0.828499
0.182335 1.338132 -0.485386 128 128 255 -0.131723 0.553072 0.822655
0.101111 1.316917 -0.485581 128 128 255 -0.161778 0.550974 0.818691
0.020788 1.290485 -0.485791 128 128 255 -0.209218 0.548298 0.809689
-0.051654 1.259255 -0.486013 128 128 255 -0.252075 0.542130 0.801594
-0.122620 1.225882 -0.486246 128 128 255 -0.283660 0.535564 0.795429
-0.191904 1.186366 -0.486487 128 128 255 -0.329888 0.519465 0.788245
-0.254911 1.143373 -0.486734 128 128 255 -0.373738 0.493597 0.785291
-0.311540 1.095118 -0.486985 128 128 255 -0.410943 0.471751 0.780113
-0.366187 1.046475 -0.487237 128 128 255 -0.427896 0.459096 0.778547
-0.418845 0.995631 -0.487365 128 128 255 -0.456445 0.444094 0.770998
-0.465112 0.945197 -0.487094 128 128 255 -0.496213 0.417779 0.761074
-0.507284 0.891090 -0.486824 128 128 255 -0.536868 0.384896 0.750752
-0.543249 0.833640 -0.486556 128 128 255 -0.563511 0.354767 0.746053
-0.577589 0.777589 -0.486293 128 128 255 -0.571294 0.337703 0.748051
-0.608240 0.723195 -0.486038 128 128 255 -0.596622 0.310973 0.739823
-0.635377 0.666238 -0.485793 128 128 255 -0.603779 0.284293 0.744734
-0.661406 0.609124 -0.485560 128 128 255 -0.619407 0.248952 0.744552
-0.682071 0.549776 -0.485342 128 128 255 -0.642616 0.220420 0.733799
-0.699782 0.492750 -0.485140 128 128 255 -0.660190 0.194302 0.725532
-0.714716 0.438117 -0.484957 128 128 255 -0.669114 0.166201 0.724337
-0.727041 0.381477 -0.484793 128 128 255 -0.679383 0.132713 0.721683
-0.736907 0.322840 -0.484651 128 128 255 -0.692286 0.102315 0.714333
-0.744440 0.266637 -0.484532 128 128 255 -0.698708 0.083020 0.710574
-0.749744 0.212836 -0.484436 128 128 255 -0.702531 0.055287 0.709502
-0.752896 0.156940 -0.484364 128 128 255 -0.704858 0.027290 0.708824
-0.753941 0.101111 -0.484317 128 128 255 -0.705618 0.000485 0.708592
-0.752896 0.043060 -0.484296 128 128 255 -0.704954 -0.025799 0.708784
-0.749744 -0.012836 -0.484299 128 128 255 -0.702676 -0.054324 0.709433
-0.744440 -0.066637 -0.484327 128 128 255 -0.698953 -0.082000 0.710451
-0.736907 -0.122840 -0.484379 128 128 255 -0.694457 -0.105905 0.711697
-0.727041 -0.181477 -0.484455 128 128 255 -0.683402 -0.128385 0.718665
-0.714716 -0.238117 -0.484553 128 128 255 -0.670535 -0.164510 0.723408
-0.699782 -0.292750 -0.484672 128 128 255 -0.655737 -0.199184 0.728240
-0.682071 -0.349777 -0.484811 128 128 255 -0.640956 -0.214521 0.736991
-0.661406 -0.409124 -0.484968 128 128 255 -0.626000 -0.247449 0.739522
-0.635377 -0.466238 -0.485141 128 128 255 -0.608174 -0.281770 0.742112
-0.608240 -0.523195 -0.485328 128 128 255 -0.591172 -0.315156 0.742423
-0.577589 -0.577589 -0.485528 128 128 255 -0.578662 -0.336849 0.742754
-0.543249 -0.633640 -0.485738 128 128 255 -0.560284 -0.353496 0.749081
-0.507284 -0.691090 -0.485955 128 128 255 -0.534491 -0.380653 0.754601
-0.465112 -0.745197 -0.486177 128 128 255 -0.497054 -0.421983 0.758200
-0.418845 -0.795631 -0.486159 128 128 255 -0.461511 -0.445063 0.767415
-0.366187 -0.846475 -0.485869 128 128 255 -0.432663 -0.458663 0.776164
-0.311540 -0.895118 -0.485584 128 128 255 -0.409475 -0.469005 0.782537
-0.254911 -0.943372 -0.485308 128 128 255 -0.376584 -0.488860 0.786893
-0.191904 -0.986366 -0.485042 128 128 255 -0.325626 -0.521591 0.788613
-0.122620 -1.025882 -0.484789 128 128 255 -0.286124 -0.539452 0.791912
-0.051654 -1.059255 -0.484552 128 128 255 -0.252708 -0.548696 0.796914
0.020788 -1.090485 -0.484332 128 128 255 -0.212249 -0.548702 0.808626
0.098889 -1.116917 -0.484132 128 128 255 -0.163991 -0.549310 0.819369
0.182335 -1.138132 -0.483954 128 128 255 -0.129220 -0.549586 0.825383
0.264092 -1.155955 -0.483798 128 128 255 -0.088089 -0.549914 0.830563
0.352629 -1.165576 -0.483668 128 128 255 -0.041160 -0.548521 0.835123
0.440810 -1.168884 -0.483563 128 128 255 -0.001018 -0.542229 0.840230
0.528122 -1.165592 -0.483485 128 128 255 0.039256 -0.533183 0.845089
0.620679 -1.155460 -0.483436 128 128 255 0.081289 -0.522055 0.849029
0.711225 -1.136078 -0.483414 128 128 255 0.122568 -0.507755 0.852738
0.799142 -1.111763 -0.483421 128 128 255 0.151675 -0.493221 0.856579
0.890455 -1.080226 -0.483457 128 128 255 0.191289 -0.478493 0.857002
0.975620 -1.041468 -0.483521 128 128 255 0.225931 -0.458807 0.859332
1.060640 -0.997778 -0.483612 128 128 255 0.251801 -0.432498 0.865761
1.144850 -0.944850 -0.483731 128 128 255 0.282275 -0.402598 0.870767
1.223148 -0.882889 -0.483876 128 128 255 0.318502 -0.373246 0.871346
1.294895 -0.816617 -0.484045 128 128 255 0.336995 -0.348859 0.874489
1.366141 -0.746377 -0.484238 128 128 255 0.358110 -0.319505 0.877310
1.429632 -0.668133 -0.484453 128 128 255 0.389215 -0.281908 0.876949
1.484823 -0.582356 -0.484687 128 128 255 0.408592 -0.251509 0.877380
1.535658 -0.496240 -0.484939 128 128 255 0.419242 -0.217656 0.881398
1.579467 -0.403700 -0.485206 128 128 255 0.426268 -0.181355 0.886231
1.618083 -0.305360 -0.485486 128 128 255 0.437606 -0.146742 0.887112
1.646736 -0.208555 -0.485777 128 128 255 0.451625 -0.107045 0.885763
1.667390 -0.105093 -0.486076 128 128 255 0.458880 -0.072013 0.885575
1.679857 -0.004588 -0.486380 128 128 255 0.462339 -0.036772 0.885940
1.684026 0.098889 -0.486321 128 128 255 0.463316 -0.019147 0.885986
1.590463 0.100000 -0.437496 128 128 255 0.476829 0.016901 0.878833
1.586535 0.198617 -0.437268 128 128 255 0.472375 0.036074 0.880659
1.574787 0.293195 -0.437044 128 128 255 0.470537 0.072298 0.879414
1.555325 0.390814 -0.436827 128 128 255 0.466872 0.112328 0.877162
1.528325 0.481905 -0.436618 128 128 255 0.457658 0.152864 0.875889
1.494031 0.572476 -0.436420 128 128 255 0.447667 0.183231 0.875226
1.454972 0.661899 -0.436235 128 128 255 0.433546 0.222976 0.873109
1.407070 0.742916 -0.436065 128 128 255 0.414442 0.263848 0.870989
1.352969 0.821649 -0.435913 128 128 255 0.394902 0.289025 0.872076
1.290918 0.897600 -0.435779 128 128 255 0.372625 0.324614 0.869354
1.225878 0.965880 -0.435665 128 128 255 0.348990 0.364178 0.863470
1.158398 1.026105 -0.435573 128 128 255 0.321292 0.392213 0.861940
1.082395 1.082395 -0.435504 128 128 255 0.293801 0.410163 0.863393
1.005138 1.134490 -0.435458 128 128 255 0.266338 0.436284 0.859489
0.927246 1.177751 -0.435436 128 128 255 0.229701 0.473505 0.850312
0.842679 1.214271 -0.435438 128 128 255 0.194019 0.498046 0.845167
0.758728 1.241764 -0.435466 128 128 255 0.157498 0.518271 0.840589
0.676013 1.264674 -0.435518 128 128 255 0.121703 0.532106 0.837885
0.588470 1.280842 -0.435594 128 128 255 0.082731 0.542174 0.836184
0.503348 1.290387 -0.435693 128 128 255 0.040756 0.552865 0.832274
0.421203 1.293486 -0.435816 128 128 255 -0.001153 0.562490 0.826803
0.335888 1.290366 -0.435960 128 128 255 -0.043072 0.568699 0.821417
0.254556 1.281298 -0.436124 128 128 255 -0.087036 0.571630 0.815883
0.177647 1.266595 -0.436308 128 128 255 -0.134608 0.575622 0.806560
0.101111 1.246602 -0.436508 128 128 255 -0.165428 0.573714 0.802176
0.025296 1.223915 -0.436724 128 128 255 -0.210692 0.567613 0.795879
-0.042834 1.194485 -0.436953 128 128 255 -0.265099 0.556360 0.787519
-0.109702 1.160943 -0.437193 128 128 255 -0.289369 0.541441 0.789371
-0.175114 1.123705 -0.437441 128 128 255 -0.336055 0.524605 0.782212
-0.234482 1.080969 -0.437696 128 128 255 -0.383567 0.504945 0.773245
-0.287713 1.037592 -0.437955 128 128 255 -0.423019 0.489194 0.762722
-0.339202 0.991756 -0.438215 128 128 255 -0.445839 0.475580 0.758322
-0.386725 0.946068 -0.438347 128 128 255 -0.467744 0.452422 0.759296
-0.432540 0.896451 -0.438066 128 128 255 -0.497808 0.424720 0.756174
-0.472276 0.843245 -0.437784 128 128 255 -0.537715 0.393817 0.745500
-0.508256 0.791205 -0.437506 128 128 255 -0.575203 0.367023 0.731051
-0.538390 0.738390 -0.437233 128 128 255 -0.599610 0.341836 0.723613
-0.567269 0.687265 -0.436967 128 128 255 -0.606128 0.316395 0.729728
-0.592837 0.633597 -0.436713 128 128 255 -0.628668 0.280422 0.725355
-0.615268 0.577558 -0.436471 128 128 255 -0.639114 0.252919 0.726337
-0.634739 0.523732 -0.436244 128 128 255 -0.645676 0.232374 0.727395
-0.653648 0.472221 -0.436035 128 128 255 -0.660938 0.204265 0.722106
-0.667719 0.418650 -0.435844 128 128 255 -0.676676 0.165026 0.717549
-0.679331 0.365281 -0.435675 128 128 255 -0.684594 0.134772 0.716357
-0.688626 0.309903 -0.435527 128 128 255 -0.692340 0.106712 0.713637
-0.695723 0.256947 -0.435403 128 128 255 -0.696735 0.083111 0.712498
-0.700721 0.206382 -0.435304 128 128 255 -0.702483 0.060737 0.709104
-0.703691 0.153715 -0.435230 128 128 255 -0.710296 0.027644 0.703360
-0.704676 0.101111 -0.435182 128 128 255 -0.711084 0.000604 0.703107
-0.703691 0.046285 -0.435159 128 128 255 -0.707570 -0.030795 0.705972
-0.700721 -0.006382 -0.435163 128 128 255 -0.700616 -0.054164 0.711480
-0.695723 -0.056947 -0.435192 128 128 255 -0.696954 -0.081839 0.712430
-0.688626 -0.109903 -0.435247 128 128 255 -0.692066 -0.106167 0.713984
-0.679331 -0.165281 -0.435326 128 128 255 -0.685478 -0.131915 0.716043
-0.667719 -0.218650 -0.435428 128 128 255 -0.677071 -0.163958 0.717421
-0.653648 -0.272221 -0.435552 128 128 255 -0.665146 -0.207192 0.717393
-0.634739 -0.323732 -0.435696 128 128 255 -0.652518 -0.233442 0.720919
-0.615268 -0.377558 -0.435860 128 128 255 -0.639271 -0.245939 0.728592
-0.592837 -0.433597 -0.436040 128 128 255 -0.625419 -0.279962 0.728335
-0.567269 -0.487265 -0.436235 128 128 255 -0.613109 -0.314427 0.724730
-0.538390 -0.538390 -0.436443 128 128 255 -0.593597 -0.346450 0.726371
-0.508256 -0.591205 -0.436661 128 128 255 -0.572322 -0.367751 0.732944
-0.472276 -0.643245 -0.436888 128 128 255 -0.538966 -0.391027 0.746065
-0.432540 -0.696451 -0.437120 128 128 255 -0.504731 -0.417498 0.755607
-0.386725 -0.746068 -0.437102 128 128 255 -0.472105 -0.455774 0.754577
-0.339202 -0.791756 -0.436802 128 128 255 -0.446291 -0.477498 0.756849
-0.287713 -0.837592 -0.436508 128 128 255 -0.420189 -0.491416 0.762857
-0.234482 -0.880969 -0.436223 128 128 255 -0.386601 -0.500320 0.774738
-0.175114 -0.923705 -0.435948 128 128 255 -0.334794 -0.521651 0.784725
-0.109702 -0.960943 -0.435688 128 128 255 -0.295301 -0.539896 0.788232
-0.042834 -0.994485 -0.435443 128 128 255 -0.260306 -0.557881 0.788042
0.025296 -1.023915 -0.435217 128 128 255 -0.215695 -0.571290 0.791899
0.098889 -1.046602 -0.435011 128 128 255 -0.166942 -0.577887 0.798860
0.177647 -1.066595 -0.434828 128 128 255 -0.130886 -0.578064 0.805426
0.254556 -1.081298 -0.434668 128 128 255 -0.090592 -0.574170 0.813709
0.335888 -1.090366 -0.434535 128 128 255 -0.042844 -0.569144 0.821121
0.421203 -1.093486 -0.434428 128 128 255 -0.001218 -0.562789 0.826600
0.503348 -1.090387 -0.434349 128 128 255 0.040978 -0.553646 0.831743
0.588470 -1.080842 -0.434299 128 128 255 0.079754 -0.541686 0.836789
0.676013 -1.064674 -0.434279 128 128 255 0.123545 -0.529789 0.839083
0.758728 -1.041764 -0.434288 128 128 255 0.158710 -0.514913 0.842423
0.842679 -1.014271 -0.434326 128 128 255 0.189903 -0.495639 0.847513
0.927246 -0.977751 -0.434394 128 128 255 0.234912 -0.470492 0.850561
1.005138 -0.934490 -0.434491 128 128 255 0.267952 -0.441094 0.856526
1.082395 -0.882395 -0.434615 128 128 255 0.290461 -0.414599 0.862404
1.158398 -0.826105 -0.434767 128 128 255 0.320549 -0.389882 0.863273
1.225878 -0.765880 -0.434944 128 128 255 0.354656 -0.359376 0.863174
1.290918 -0.697600 -0.435145 128 128 255 0.371309 -0.326201 0.869323
1.352969 -0.621649 -0.435368 128 128 255 0.389982 -0.291437 0.873487
1.407070 -0.542916 -0.435612 128 128 255 0.415348 -0.260446 0.871581
1.454972 -0.461899 -0.435873 128 128 255 0.438036 -0.222832 0.870902
1.494031 -0.372476 -0.436151 128 128 255 0.452098 -0.185131 0.872545
1.528325 -0.281905 -0.436442 128 128 255 0.458701 -0.152741 0.875365
1.555325 -0.190814 -0.436743 128 128 255 0.465664 -0.110121 0.878083
1.574787 -0.093194 -0.437053 128 128 255 0.468792 -0.073500 0.880245
1.586535 0.001383 -0.437368 128 128 255 0.472408 -0.037620 0.880577
1.590463 0.098889 -0.437307 128 128 255 0.470350 -0.019487 0.882265
1.496270 0.100000 -0.385493 128 128 255 0.491038 0.017310 0.870966
1.492590 0.192459 -0.385262 128 128 255 0.487820 0.037065 0.872157
1.481584 0.280924 -0.385034 128 128 255 0.483214 0.071977 0.872538
1.465573 0.372519 -0.384813 128 128 255 0.475298 0.111203 0.872769
1.440278 0.459940 -0.384600 128 128 255 0.464425 0.155041 0.871935
1.408149 0.542568 -0.384399 128 128 255 0.452321 0.189907 0.871402
1.369474 0.626484 -0.384211 128 128 255 0.436033 0.223731 0.871677
1.322374 0.704467 -0.384038 128 128 255 0.417878 0.268144 0.868030
1.271688 0.776005 -0.383882 128 128 255 0.400911 0.296324 0.866869
1.217860 0.845076 -0.383745 128 128 255 0.380316 0.325093 0.865837
1.156925 0.911266 -0.383629 128 128 255 0.354103 0.362920 0.861917
1.089402 0.969768 -0.383534 128 128 255 0.325901 0.399972 0.856628
1.020280 1.020280 -0.383462 128 128 255 0.297422 0.428933 0.852970
0.950123 1.067001 -0.383415 128 128 255 0.270210 0.441796 0.855455
0.875067 1.109751 -0.383391 128 128 255 0.232710 0.465988 0.853640
0.795700 1.143962 -0.383393 128 128 255 0.196132 0.491842 0.848306
0.719272 1.171798 -0.383419 128 128 255 0.162491 0.516523 0.840714
0.639699 1.193259 -0.383471 128 128 255 0.122336 0.539442 0.833089
0.557544 1.208403 -0.383547 128 128 255 0.082278 0.554155 0.828337
0.477798 1.217342 -0.383647 128 128 255 0.041803 0.566039 0.823318
0.400982 1.220243 -0.383770 128 128 255 -0.001130 0.575075 0.818100
0.320916 1.217317 -0.383916 128 128 255 -0.043758 0.581276 0.812529
0.244721 1.208819 -0.384082 128 128 255 -0.089456 0.584498 0.806449
0.172811 1.195041 -0.384267 128 128 255 -0.134059 0.584377 0.800333
0.101111 1.176309 -0.384470 128 128 255 -0.175639 0.579424 0.795876
0.029946 1.152970 -0.384688 128 128 255 -0.213161 0.566579 0.795959
-0.033739 1.125397 -0.384920 128 128 255 -0.268030 0.554557 0.787799
-0.096381 1.091749 -0.385163 128 128 255 -0.301512 0.543481 0.783403
-0.157799 1.056862 -0.385414 128 128 255 -0.328785 0.532318 0.780089
-0.213415 1.018906 -0.385673 128 128 255 -0.385114 0.517826 0.763900
-0.265362 0.978268 -0.385935 128 128 255 -0.425443 0.499534 0.754628
-0.311374 0.937548 -0.386198 128 128 255 -0.457119 0.476128 0.751229
-0.355892 0.892664 -0.386332 128 128 255 -0.484499 0.450666 0.749774
-0.396729 0.843959 -0.386044 128 128 255 -0.503345 0.426981 0.751219
-0.436174 0.796196 -0.385756 128 128 255 -0.530062 0.406734 0.744045
-0.469879 0.747444 -0.385471 128 128 255 -0.567649 0.380222 0.730209
-0.500188 0.700188 -0.385192 128 128 255 -0.605056 0.344993 0.717557
-0.525018 0.650212 -0.384921 128 128 255 -0.630826 0.311027 0.710859
-0.548969 0.597713 -0.384660 128 128 255 -0.640591 0.285747 0.712735
-0.569981 0.547298 -0.384413 128 128 255 -0.657565 0.254760 0.709017
-0.588220 0.496874 -0.384181 128 128 255 -0.666576 0.230877 0.708783
-0.603851 0.448760 -0.383967 128 128 255 -0.671016 0.204853 0.712582
-0.617032 0.398576 -0.383772 128 128 255 -0.683642 0.163397 0.711292
-0.627909 0.346358 -0.383599 128 128 255 -0.690643 0.136069 0.710280
-0.636616 0.296562 -0.383448 128 128 255 -0.697525 0.109159 0.708197
-0.643264 0.246954 -0.383321 128 128 255 -0.702653 0.084127 0.706542
-0.647946 0.199726 -0.383220 128 128 255 -0.703041 0.066654 0.708019
-0.652949 0.150389 -0.383144 128 128 255 -0.705882 0.038251 0.707295
-0.653872 0.101111 -0.383094 128 128 255 -0.709806 0.000727 0.704397
-0.652949 0.049611 -0.383071 128 128 255 -0.710962 -0.036214 0.702297
-0.647946 0.000274 -0.383074 128 128 255 -0.708128 -0.065614 0.703029
-0.643264 -0.046954 -0.383104 128 128 255 -0.703086 -0.082627 0.706288
-0.636616 -0.096562 -0.383159 128 128 255 -0.698235 -0.108572 0.707588
-0.627909 -0.146358 -0.383239 128 128 255 -0.691626 -0.132837 0.709935
-0.617032 -0.198576 -0.383343 128 128 255 -0.683271 -0.163042 0.711729
-0.603851 -0.248760 -0.383469 128 128 255 -0.672393 -0.197292 0.713417
-0.588220 -0.296874 -0.383616 128 128 255 -0.666007 -0.232447 0.708804
-0.569981 -0.347298 -0.383782 128 128 255 -0.658625 -0.258504 0.706674
-0.548969 -0.397713 -0.383966 128 128 255 -0.643454 -0.281413 0.711880
-0.525018 -0.450212 -0.384165 128 128 255 -0.625817 -0.307177 0.716935
-0.500188 -0.500188 -0.384377 128 128 255 -0.601538 -0.348496 0.718821
-0.469879 -0.547444 -0.384600 128 128 255 -0.568050 -0.382019 0.728959
-0.436174 -0.596196 -0.384831 128 128 255 -0.535205 -0.404723 0.741454
-0.396729 -0.643959 -0.385068 128 128 255 -0.510044 -0.421861 0.749592
-0.355892 -0.692664 -0.385050 128 128 255 -0.485982 -0.443903 0.752842
-0.311374 -0.737548 -0.384746 128 128 255 -0.457699 -0.478114 0.749612
-0.265362 -0.778268 -0.384447 128 128 255 -0.424456 -0.504357 0.751971
-0.213415 -0.818906 -0.384157 128 128 255 -0.381010 -0.520467 0.764163
-0.157799 -0.856862 -0.383879 128 128 255 -0.338577 -0.528821 0.778276
-0.096381 -0.891749 -0.383615 128 128 255 -0.299666 -0.541679 0.785356
-0.033739 -0.925397 -0.383367 128 128 255 -0.267325 -0.551244 0.790359
0.029946 -0.952970 -0.383138 128 128 255 -0.223087 -0.565012 0.794351
0.098889 -0.976309 -0.382930 128 128 255 -0.170431 -0.580166 0.796468
0.172811 -0.995041 -0.382744 128 128 255 -0.132648 -0.584758 0.800289
0.244721 -1.008819 -0.382584 128 128 255 -0.089909 -0.584713 0.806243
0.320916 -1.017317 -0.382449 128 128 255 -0.044119 -0.581526 0.812331
0.400982 -1.020243 -0.382342 128 128 255 -0.001410 -0.575516 0.817790
0.477798 -1.017342 -0.382264 128 128 255 0.041991 -0.566260 0.823156
0.557544 -1.008402 -0.382215 128 128 255 0.081751 -0.554351 0.828258
0.639699 -0.993259 -0.382196 128 128 255 0.123643 -0.536949 0.834505
0.719272 -0.971798 -0.382207 128 128 255 0.163802 -0.516176 0.840673
0.795700 -0.943962 -0.382248 128 128 255 0.194851 -0.494462 0.847078
0.875067 -0.909751 -0.382319 128 128 255 0.231324 -0.469772 0.851941
0.950123 -0.867001 -0.382419 128 128 255 0.271513 -0.446649 0.852517
1.020280 -0.820280 -0.382547 128 128 255 0.301876 -0.424091 0.853826
1.089402 -0.769768 -0.382703 128 128 255 0.321734 -0.398441 0.858913
1.156925 -0.711266 -0.382885 128 128 255 0.354395 -0.362949 0.861784
1.217860 -0.645076 -0.383091 128 128 255 0.384352 -0.327674 0.863078
1.271688 -0.576005 -0.383320 128 128 255 0.401652 -0.296566 0.866443
1.322374 -0.504467 -0.383569 128 128 255 0.415086 -0.264164 0.870587
1.369474 -0.426484 -0.383837 128 128 255 0.431610 -0.226149 0.873252
1.408149 -0.342568 -0.384120 128 128 255 0.451903 -0.187499 0.872140
1.440278 -0.259940 -0.384418 128 128 255 0.465644 -0.155893 0.871133
1.465573 -0.172519 -0.384725 128 128 255 0.480237 -0.110548 0.870145
1.481584 -0.080924 -0.385041 128 128 255 0.486115 -0.072209 0.870907
1.492590 0.007541 -0.385363 128 128 255 0.487810 -0.038932 0.872081
1.496270 0.098889 -0.385300 128 128 255 0.487085 -0.020205 0.873121
1.401620 0.100000 -0.331569 128 128 255 0.481178 0.016743 0.876463
1.398195 0.186126 -0.331339 128 128 255 0.483570 0.036461 0.874546
1.387951 0.268305 -0.331112 128 128 255 0.479341 0.075400 0.874384
1.370981 0.353704 -0.330892 128 128 255 0.470918 0.113299 0.874871
1.345217 0.435064 -0.330680 128 128 255 0.461208 0.155309 0.873594
1.315315 0.511810 -0.330479 128 128 255 0.450733 0.191711 0.871829
1.279320 0.587839 -0.330291 128 128 255 0.437443 0.221873 0.871445
1.237552 0.662638 -0.330119 128 128 255 0.421963 0.260976 0.868239
1.192601 0.729061 -0.329963 128 128 255 0.400938 0.301674 0.865010
1.140435 0.793343 -0.329826 128 128 255 0.377482 0.327931 0.866007
1.081502 0.855097 -0.329710 128 128 255 0.352778 0.356733 0.865037
1.020727 0.909541 -0.329615 128 128 255 0.328229 0.389400 0.860601
0.958617 0.958617 -0.329543 128 128 255 0.296965 0.428531 0.853330
0.891255 0.999876 -0.329495 128 128 255 0.264330 0.455780 0.849938
0.819180 1.037591 -0.329471 128 128 255 0.231488 0.472640 0.850308
0.747382 1.069428 -0.329472 128 128 255 0.196894 0.491021 0.848606
0.676407 1.095331 -0.329498 128 128 255 0.164395 0.505942 0.846757
0.602350 1.117524 -0.329549 128 128 255 0.124022 0.524140 0.842553
0.525737 1.131614 -0.329624 128 128 255 0.081342 0.542753 0.835944
0.453743 1.139931 -0.329724 128 128 255 0.040979 0.554622 0.831093
0.380185 1.142628 -0.329846 128 128 255 -0.001132 0.563438 0.826157
0.305517 1.139902 -0.329990 128 128 255 -0.042883 0.569478 0.820887
0.234607 1.131990 -0.330155 128 128 255 -0.087829 0.572691 0.815053
0.167838 1.119165 -0.330339 128 128 255 -0.131636 0.572637 0.809172
0.101111 1.101729 -0.330541 128 128 255 -0.176381 0.571107 0.801702
0.034729 1.077784 -0.330758 128 128 255 -0.221119 0.565240 0.794739
-0.024384 1.052120 -0.330988 128 128 255 -0.261358 0.557263 0.788131
-0.082681 1.022872 -0.331230 128 128 255 -0.305774 0.550034 0.777152
-0.137769 0.990402 -0.331481 128 128 255 -0.328991 0.539779 0.774857
-0.191748 0.957299 -0.331738 128 128 255 -0.371956 0.522519 0.767217
-0.240090 0.919478 -0.331999 128 128 255 -0.428215 0.495983 0.755402
-0.282754 0.879514 -0.332261 128 128 255 -0.465860 0.467865 0.751050
-0.324183 0.835520 -0.332393 128 128 255 -0.485439 0.447681 0.750953
-0.362185 0.792260 -0.332103 128 128 255 -0.512112 0.429658 0.743730
-0.396824 0.747810 -0.331814 128 128 255 -0.527637 0.412853 0.742396
-0.430411 0.704662 -0.331527 128 128 255 -0.554288 0.386035 0.737389
-0.458616 0.658616 -0.331246 128 128 255 -0.592556 0.346524 0.727185
-0.483790 0.612107 -0.330973 128 128 255 -0.621367 0.310838 0.719224
-0.506078 0.563096 -0.330711 128 128 255 -0.643282 0.284797 0.710690
-0.525631 0.516180 -0.330462 128 128 255 -0.661275 0.257070 0.704720
-0.540381 0.471477 -0.330229 128 128 255 -0.678770 0.224707 0.699126
-0.554926 0.424633 -0.330013 128 128 255 -0.685194 0.201412 0.699958
-0.567191 0.377931 -0.329817 128 128 255 -0.696297 0.160919 0.699483
-0.577313 0.329183 -0.329642 128 128 255 -0.698660 0.136650 0.702283
-0.585415 0.282843 -0.329490 128 128 255 -0.704695 0.111295 0.700727
-0.591601 0.236678 -0.329361 128 128 255 -0.709653 0.085294 0.699369
-0.595958 0.192882 -0.329258 128 128 255 -0.713444 0.056949 0.698395
-0.598546 0.146969 -0.329181 128 128 255 -0.710468 0.033667 0.702924
-0.599405 0.101111 -0.329130 128 128 255 -0.709154 0.000862 0.705053
-0.598546 0.053031 -0.329106 128 128 255 -0.708451 -0.025516 0.705299
-0.595958 0.007118 -0.329108 128 128 255 -0.710603 -0.060762 0.700965
-0.591601 -0.036678 -0.329136 128 128 255 -0.709948 -0.083511 0.699285
-0.585415 -0.082843 -0.329191 128 128 255 -0.705114 -0.109589 0.700574
-0.577313 -0.129183 -0.329270 128 128 255 -0.702939 -0.130191 0.699234
-0.567191 -0.177931 -0.329373 128 128 255 -0.697548 -0.164926 0.697299
-0.554926 -0.224633 -0.329498 128 128 255 -0.685736 -0.198189 0.700348
-0.540381 -0.271477 -0.329645 128 128 255 -0.673791 -0.224879 0.703872
-0.525631 -0.316180 -0.329811 128 128 255 -0.659644 -0.252530 0.707883
-0.506078 -0.363096 -0.329994 128 128 255 -0.642229 -0.284720 0.711672
-0.483790 -0.412107 -0.330193 128 128 255 -0.624392 -0.310464 0.716761
-0.458616 -0.458616 -0.330405 128 128 255 -0.593568 -0.345323 0.726931
-0.430411 -0.504662 -0.330628 128 128 255 -0.559024 -0.385834 0.733910
-0.396824 -0.547810 -0.330859 128 128 255 -0.531946 -0.413235 0.739101
-0.362185 -0.592260 -0.331096 128 128 255 -0.511003 -0.428785 0.744996
-0.324183 -0.635520 -0.331079 128 128 255 -0.493619 -0.441796 0.749104
-0.282754 -0.679514 -0.330774 128 128 255 -0.465709 -0.464470 0.753248
-0.240090 -0.719478 -0.330476 128 128 255 -0.425378 -0.495953 0.757023
-0.191748 -0.757299 -0.330187 128 128 255 -0.373853 -0.526975 0.763237
-0.137769 -0.790402 -0.329909 128 128 255 -0.335653 -0.541130 0.771048
-0.082681 -0.822872 -0.329645 128 128 255 -0.300798 -0.551812 0.777833
-0.024384 -0.852120 -0.329398 128 128 255 -0.265804 -0.556501 0.787182
0.034729 -0.877784 -0.329170 128 128 255 -0.225422 -0.560260 0.797053
0.098889 -0.901729 -0.328963 128 128 255 -0.176141 -0.567602 0.804240
0.167838 -0.919165 -0.328779 128 128 255 -0.130305 -0.572987 0.809139
0.234607 -0.931990 -0.328620 128 128 255 -0.088486 -0.572799 0.814906
0.305517 -0.939902 -0.328487 128 128 255 -0.043435 -0.569639 0.820747
0.380185 -0.942628 -0.328381 128 128 255 -0.001593 -0.563760 0.825937
0.453743 -0.939931 -0.328305 128 128 255 0.041002 -0.554814 0.830963
0.525737 -0.931614 -0.328257 128 128 255 0.081017 -0.542863 0.835904
0.602350 -0.917524 -0.328240 128 128 255 0.123466 -0.528080 0.840171
0.676407 -0.895331 -0.328253 128 128 255 0.165564 -0.510175 0.843984
0.747382 -0.869428 -0.328296 128 128 255 0.198023 -0.493041 0.847170
0.819180 -0.837591 -0.328369 128 128 255 0.229084 -0.472784 0.850879
0.891255 -0.799876 -0.328471 128 128 255 0.261210 -0.451218 0.853330
0.958617 -0.758617 -0.328601 128 128 255 0.301636 -0.423471 0.854218
1.020727 -0.709541 -0.328759 128 128 255 0.329249 -0.391483 0.859265
1.081502 -0.655097 -0.328943 128 128 255 0.349199 -0.359749 0.865240
1.140435 -0.593343 -0.329151 128 128 255 0.375472 -0.330549 0.865885
1.192601 -0.529061 -0.329382 128 128 255 0.406350 -0.297655 0.863876
1.237552 -0.462638 -0.329634 128 128 255 0.426133 -0.261233 0.866123
1.279320 -0.387839 -0.329903 128 128 255 0.437227 -0.225968 0.870500
1.315315 -0.311810 -0.330189 128 128 255 0.450073 -0.188197 0.872935
1.345217 -0.235064 -0.330487 128 128 255 0.456829 -0.155076 0.875933
1.370981 -0.153704 -0.330797 128 128 255 0.466437 -0.115126 0.877031
1.387951 -0.068305 -0.331115 128 128 255 0.478699 -0.072751 0.874960
1.398195 0.013874 -0.331437 128 128 255 0.483353 -0.038621 0.874573
1.401620 0.098889 -0.331375 128 128 255 0.487965 -0.020281 0.872628
1.300022 0.100000 -0.276818 128 128 255 0.478266 0.016485 0.878060
1.296858 0.179630 -0.276593 128 128 255 0.476044 0.035615 0.878700
1.287397 0.255359 -0.276372 128 128 255 0.472157 0.074726 0.878341
1.271724 0.332180 -0.276157 128 128 255 0.465632 0.109517 0.878176
1.249980 0.409545 -0.275951 128 128 255 0.458769 0.147682 0.876197
1.224584 0.480256 -0.275755 128 128 255 0.446938 0.188692 0.874438
1.191338 0.550476 -0.275571 128 128 255 0.431466 0.220541 0.874756
1.152761 0.619727 -0.275403 128 128 255 0.415329 0.253031 0.873771
1.109191 0.683127 -0.275251 128 128 255 0.392648 0.298494 0.869901
1.058788 0.740273 -0.275117 128 128 255 0.370346 0.331909 0.867571
1.006409 0.795254 -0.275004 128 128 255 0.350084 0.353422 0.867487
0.952499 0.845536 -0.274911 128 128 255 0.323635 0.380371 0.866359
0.893082 0.893082 -0.274841 128 128 255 0.294276 0.408495 0.864022
0.828645 0.933238 -0.274794 128 128 255 0.260722 0.445689 0.856379
0.764129 0.968069 -0.274770 128 128 255 0.229413 0.473927 0.850155
0.700039 0.995248 -0.274771 128 128 255 0.193783 0.496577 0.846085
0.632435 1.019169 -0.274797 128 128 255 0.158918 0.512458 0.843879
0.561815 1.037610 -0.274846 128 128 255 0.122589 0.525490 0.841922
0.493109 1.050621 -0.274920 128 128 255 0.078355 0.539137 0.838565
0.426787 1.058299 -0.275017 128 128 255 0.040428 0.546612 0.836410
0.358851 1.060787 -0.275137 128 128 255 -0.001129 0.555762 0.831340
0.289721 1.058266 -0.275278 128 128 255 -0.039492 0.562964 0.825537
0.224231 1.050956 -0.275439 128 128 255 -0.087002 0.569690 0.817242
0.162736 1.039109 -0.275619 128 128 255 -0.131341 0.570363 0.810824
0.101111 1.023003 -0.275816 128 128 255 -0.168917 0.567912 0.805570
0.039634 1.002938 -0.276028 128 128 255 -0.215303 0.565269 0.796314
-0.017011 0.979234 -0.276254 128 128 255 -0.258315 0.558223 0.788454
-0.068627 0.954442 -0.276490 128 128 255 -0.296918 0.546596 0.782989
-0.119503 0.924453 -0.276735 128 128 255 -0.338259 0.529777 0.777765
-0.169523 0.891826 -0.276987 128 128 255 -0.361439 0.511216 0.779757
-0.214167 0.856896 -0.277242 128 128 255 -0.416926 0.485122 0.768654
-0.255621 0.817763 -0.277498 128 128 255 -0.460328 0.464944 0.756257
-0.291658 0.779184 -0.277626 128 128 255 -0.494141 0.445648 0.746473
-0.326752 0.739232 -0.277339 128 128 255 -0.504122 0.431384 0.748177
-0.358741 0.700402 -0.277052 128 128 255 -0.533431 0.404972 0.742596
-0.387706 0.658500 -0.276769 128 128 255 -0.549125 0.377875 0.745434
-0.415975 0.615975 -0.276490 128 128 255 -0.575142 0.341093 0.743551
-0.439223 0.570800 -0.276220 128 128 255 -0.602613 0.311433 0.734756
-0.459805 0.527590 -0.275960 128 128 255 -0.627267 0.284826 0.724852
-0.477861 0.484261 -0.275713 128 128 255 -0.644028 0.259567 0.719620
-0.493535 0.443147 -0.275482 128 128 255 -0.663383 0.227265 0.712933
-0.506967 0.399886 -0.275267 128 128 255 -0.678449 0.196570 0.707861
-0.518293 0.356756 -0.275072 128 128 255 -0.694795 0.155657 0.702161
-0.525418 0.311567 -0.274898 128 128 255 -0.704237 0.125844 0.698723
-0.532900 0.268772 -0.274746 128 128 255 -0.704828 0.112541 0.700394
-0.538613 0.226138 -0.274618 128 128 255 -0.710378 0.085022 0.698666
-0.542635 0.185862 -0.274515 128 128 255 -0.713615 0.057293 0.698192
-0.545026 0.143461 -0.274437 128 128 255 -0.716004 0.028353 0.697520
-0.545819 0.101111 -0.274385 128 128 255 -0.716807 0.001005 0.697271
-0.545026 0.056539 -0.274359 128 128 255 -0.716140 -0.025621 0.697487
-0.542635 0.014138 -0.274359 128 128 255 -0.714132 -0.054718 0.697869
-0.538613 -0.026138 -0.274385 128 128 255 -0.710508 -0.084423 0.698607
-0.532900 -0.068772 -0.274437 128 128 255 -0.705210 -0.109544 0.700485
-0.525418 -0.111567 -0.274513 128 128 255 -0.699346 -0.124009 0.703944
-0.518293 -0.156756 -0.274613 128 128 255 -0.691677 -0.150367 0.706380
-0.506967 -0.199886 -0.274735 128 128 255 -0.679359 -0.196387 0.707038
-0.493535 -0.243147 -0.274878 128 128 255 -0.665801 -0.229706 0.709890
-0.477861 -0.284261 -0.275040 128 128 255 -0.647609 -0.257605 0.717107
-0.459805 -0.327590 -0.275219 128 128 255 -0.623954 -0.286509 0.727045
-0.439223 -0.370800 -0.275414 128 128 255 -0.605096 -0.302849 0.736303
-0.415975 -0.415975 -0.275621 128 128 255 -0.580450 -0.339077 0.740341
-0.387706 -0.458500 -0.275840 128 128 255 -0.554741 -0.374477 0.742987
-0.358741 -0.500402 -0.276067 128 128 255 -0.529695 -0.408344 0.743424
-0.326752 -0.539232 -0.276300 128 128 255 -0.513410 -0.429607 0.742865
-0.291658 -0.579184 -0.276282 128 128 255 -0.488934 -0.447901 0.748551
-0.255621 -0.617763 -0.275983 128 128 255 -0.462024 -0.458496 0.759154
-0.214167 -0.656896 -0.275690 128 128 255 -0.416365 -0.481935 0.770960
-0.169523 -0.691826 -0.275405 128 128 255 -0.373022 -0.505684 0.777906
-0.119503 -0.724453 -0.275132 128 128 255 -0.331986 -0.533588 0.777862
-0.068627 -0.754442 -0.274874 128 128 255 -0.301409 -0.548074 0.780236
-0.017011 -0.779234 -0.274632 128 128 255 -0.257959 -0.562154 0.785774
0.039634 -0.802938 -0.274408 128 128 255 -0.219292 -0.567525 0.793616
0.098889 -0.823003 -0.274206 128 128 255 -0.173840 -0.569351 0.803504
0.162736 -0.839109 -0.274026 128 128 255 -0.129210 -0.570317 0.811199
0.224231 -0.850956 -0.273871 128 128 255 -0.085339 -0.568048 0.818559
0.289721 -0.858266 -0.273741 128 128 255 -0.043292 -0.562122 0.825921
0.358851 -0.860787 -0.273639 128 128 255 -0.001775 -0.556061 0.831140
0.426787 -0.858299 -0.273566 128 128 255 0.037044 -0.549610 0.834599
0.493109 -0.850621 -0.273521 128 128 255 0.082224 -0.540101 0.837574
0.561815 -0.837610 -0.273506 128 128 255 0.117927 -0.525068 0.842850
0.632435 -0.819169 -0.273521 128 128 255 0.158758 -0.509880 0.845470
0.700039 -0.795248 -0.273565 128 128 255 0.194632 -0.494139 0.847316
0.764129 -0.768068 -0.273639 128 128 255 0.230572 -0.471538 0.851169
0.828645 -0.733238 -0.273742 128 128 255 0.261303 -0.443476 0.857350
0.893082 -0.693082 -0.273873 128 128 255 0.289520 -0.414005 0.863005
0.952499 -0.645536 -0.274031 128 128 255 0.328585 -0.381391 0.864044
1.006409 -0.595254 -0.274214 128 128 255 0.351483 -0.355020 0.866268
1.058788 -0.540273 -0.274421 128 128 255 0.367163 -0.329604 0.869800
1.109191 -0.483127 -0.274650 128 128 255 0.389151 -0.294617 0.872790
1.152761 -0.419727 -0.274900 128 128 255 0.414150 -0.254245 0.873979
1.191338 -0.350476 -0.275167 128 128 255 0.432987 -0.223634 0.873218
1.224584 -0.280256 -0.275450 128 128 255 0.451921 -0.186488 0.872347
1.249980 -0.209545 -0.275746 128 128 255 0.463123 -0.146800 0.874052
1.271724 -0.132180 -0.276053 128 128 255 0.466365 -0.113007 0.877344
1.287397 -0.055359 -0.276367 128 128 255 0.472005 -0.074338 0.878456
1.296858 0.020370 -0.276686 128 128 255 0.476012 -0.038019 0.878617
1.300022 0.098889 -0.276627 128 128 255 0.476191 -0.019839 0.879118
1.200550 0.100000 -0.222336 128 128 255 0.458825 0.015567 0.888390
1.197654 0.172982 -0.222122 128 128 255 0.463352 0.034367 0.885508
1.188994 0.242111 -0.221911 128 128 255 0.459337 0.072480 0.885300
1.174647 0.312428 -0.221706 128 128 255 0.453559 0.106751 0.884810
1.154743 0.383431 -0.221509 128 128 255 0.445092 0.142830 0.884021
1.129462 0.450189 -0.221322 128 128 255 0.431444 0.185860 0.882786
1.096808 0.512241 -0.221147 128 128 255 0.417291 0.221671 0.881323
1.061496 0.573594 -0.220986 128 128 255 0.402333 0.245775 0.881886
1.021614 0.633847 -0.220841 128 128 255 0.383994 0.278544 0.880319
0.977511 0.688187 -0.220714 128 128 255 0.363641 0.321241 0.874397
0.931788 0.736289 -0.220605 128 128 255 0.341492 0.352040 0.871465
0.880407 0.782313 -0.220517 128 128 255 0.311668 0.379864 0.870957
0.823797 0.823797 -0.220450 128 128 255 0.286595 0.396844 0.871996
0.766849 0.862773 -0.220406 128 128 255 0.258048 0.422109 0.869043
0.710017 0.894652 -0.220384 128 128 255 0.223120 0.449778 0.864822
0.649319 0.921562 -0.220386 128 128 255 0.188630 0.475362 0.859331
0.585216 0.943455 -0.220410 128 128 255 0.153812 0.498960 0.852866
0.522610 0.960332 -0.220459 128 128 255 0.119581 0.515595 0.848447
0.461944 0.972238 -0.220530 128 128 255 0.074804 0.534792 0.841666
0.399204 0.977041 -0.220623 128 128 255 0.033152 0.546470 0.836822
0.334799 0.979316 -0.220738 128 128 255 -0.001107 0.551980 0.833857
0.273557 0.977006 -0.220874 128 128 255 -0.036211 0.556079 0.830340
0.215836 0.972535 -0.221029 128 128 255 -0.078468 0.559245 0.825280
0.157516 0.961688 -0.221202 128 128 255 -0.128000 0.561907 0.817237
0.101111 0.946943 -0.221392 128 128 255 -0.169377 0.557896 0.812443
0.044654 0.928576 -0.221596 128 128 255 -0.205797 0.549933 0.809457
-0.007192 0.906878 -0.221812 128 128 255 -0.256076 0.539670 0.801986
-0.054247 0.882150 -0.222039 128 128 255 -0.291875 0.525647 0.799065
-0.100812 0.854699 -0.222274 128 128 255 -0.335256 0.509880 0.792228
-0.144560 0.822613 -0.222515 128 128 255 -0.361944 0.495716 0.789469
-0.187644 0.790640 -0.222760 128 128 255 -0.393378 0.480889 0.783581
-0.225584 0.756855 -0.223005 128 128 255 -0.436568 0.462768 0.771527
-0.260601 0.723766 -0.223127 128 128 255 -0.476779 0.442184 0.759707
-0.290499 0.687197 -0.222848 128 128 255 -0.513694 0.412537 0.752284
-0.319776 0.649622 -0.222568 128 128 255 -0.519953 0.392270 0.758797
-0.346286 0.611270 -0.222292 128 128 255 -0.552261 0.359041 0.752394
-0.370125 0.570125 -0.222020 128 128 255 -0.569214 0.333240 0.751629
-0.391402 0.530812 -0.221757 128 128 255 -0.582867 0.312938 0.749891
-0.412462 0.491262 -0.221503 128 128 255 -0.600981 0.290260 0.744695
-0.428987 0.453827 -0.221262 128 128 255 -0.625395 0.253068 0.738131
-0.443332 0.414162 -0.221036 128 128 255 -0.639771 0.225587 0.734713
-0.455625 0.374567 -0.220826 128 128 255 -0.658834 0.189498 0.728030
-0.465991 0.332870 -0.220635 128 128 255 -0.669165 0.161501 0.725352
-0.474546 0.293544 -0.220464 128 128 255 -0.684355 0.129945 0.717476
-0.481393 0.254375 -0.220315 128 128 255 -0.691528 0.113016 0.713454
-0.486622 0.217576 -0.220188 128 128 255 -0.697626 0.083952 0.711526
-0.490303 0.178680 -0.220085 128 128 255 -0.701050 0.055620 0.710940
-0.492491 0.139872 -0.220007 128 128 255 -0.703236 0.028082 0.710401
-0.493217 0.101111 -0.219954 128 128 255 -0.703862 0.001175 0.710336
-0.492491 0.060128 -0.219927 128 128 255 -0.703534 -0.024956 0.710224
-0.490303 0.021320 -0.219924 128 128 255 -0.701281 -0.052678 0.710936
-0.486622 -0.017576 -0.219947 128 128 255 -0.697783 -0.083104 0.711472
-0.481393 -0.054375 -0.219995 128 128 255 -0.692479 -0.109598 0.713065
-0.474546 -0.093544 -0.220066 128 128 255 -0.685724 -0.135529 0.715132
-0.465991 -0.132870 -0.220160 128 128 255 -0.674095 -0.152497 0.722731
-0.455625 -0.174567 -0.220276 128 128 255 -0.655401 -0.190315 0.730911
-0.443332 -0.214162 -0.220411 128 128 255 -0.641310 -0.217639 0.735768
-0.428987 -0.253827 -0.220566 128 128 255 -0.626289 -0.253270 0.737304
-0.412462 -0.291262 -0.220737 128 128 255 -0.605642 -0.292587 0.739993
-0.391402 -0.330812 -0.220924 128 128 255 -0.587821 -0.313001 0.745987
-0.370125 -0.370125 -0.221123 128 128 255 -0.572581 -0.324141 0.753049
-0.346286 -0.411270 -0.221333 128 128 255 -0.547261 -0.358424 0.756332
-0.319776 -0.449622 -0.221551 128 128 255 -0.530595 -0.384605 0.755347
-0.290499 -0.487197 -0.221775 128 128 255 -0.507474 -0.415537 0.754850
-0.260601 -0.523766 -0.221757 128 128 255 -0.478897 -0.442391 0.758253
-0.225584 -0.556855 -0.221468 128 128 255 -0.439144 -0.466483 0.767820
-0.187644 -0.590640 -0.221184 128 128 255 -0.399549 -0.479078 0.781566
-0.144560 -0.622613 -0.220909 128 128 255 -0.366271 -0.490128 0.790961
-0.100812 -0.654699 -0.220646 128 128 255 -0.332265 -0.506389 0.795720
-0.054247 -0.682150 -0.220397 128 128 255 -0.296223 -0.522652 0.799429
-0.007192 -0.706878 -0.220163 128 128 255 -0.253063 -0.538254 0.803892
0.044654 -0.728576 -0.219948 128 128 255 -0.215402 -0.549977 0.806925
0.098889 -0.746943 -0.219754 128 128 255 -0.167617 -0.559752 0.811531
0.157516 -0.761688 -0.219581 128 128 255 -0.126060 -0.562523 0.817115
0.215836 -0.772535 -0.219433 128 128 255 -0.081102 -0.562971 0.822488
0.273557 -0.777006 -0.219309 128 128 255 -0.037415 -0.559476 0.828001
0.334799 -0.779316 -0.219212 128 128 255 -0.001960 -0.552256 0.833673
0.399204 -0.777041 -0.219143 128 128 255 0.032150 -0.543233 0.838966
0.461944 -0.772238 -0.219102 128 128 255 0.074503 -0.531531 0.843756
0.522610 -0.760332 -0.219090 128 128 255 0.119166 -0.516506 0.847951
0.585216 -0.743455 -0.219107 128 128 255 0.154470 -0.496531 0.854164
0.649319 -0.721562 -0.219152 128 128 255 0.186141 -0.475764 0.859652
0.710017 -0.694652 -0.219226 128 128 255 0.224003 -0.452567 0.863137
0.766849 -0.662773 -0.219328 128 128 255 0.262238 -0.424073 0.866829
0.823797 -0.623797 -0.219457 128 128 255 0.281428 -0.402687 0.871000
0.880407 -0.582313 -0.219612 128 128 255 0.310879 -0.378117 0.871999
0.931788 -0.536289 -0.219792 128 128 255 0.343773 -0.349342 0.871653
0.977511 -0.488187 -0.219995 128 128 255 0.367809 -0.317897 0.873875
1.021614 -0.433847 -0.220220 128 128 255 0.383689 -0.284664 0.878493
1.061496 -0.373594 -0.220463 128 128 255 0.402461 -0.246546 0.881612
1.096808 -0.312241 -0.220725 128 128 255 0.413179 -0.219355 0.883836
1.129462 -0.250189 -0.221001 128 128 255 0.427226 -0.185490 0.884913
1.154743 -0.183431 -0.221290 128 128 255 0.444524 -0.141080 0.884587
1.174647 -0.112428 -0.221589 128 128 255 0.453736 -0.106851 0.884707
1.188994 -0.042111 -0.221895 128 128 255 0.459535 -0.072583 0.885189
1.197654 0.027018 -0.222206 128 128 255 0.463037 -0.037007 0.885566
1.200550 0.098889 -0.222152 128 128 255 0.469507 -0.019583 0.882711
1.094508 0.100000 -0.169202 128 128 255 0.437942 0.014624 0.898884
1.091886 0.166196 -0.169003 128 128 255 0.439680 0.032078 0.897582
1.084042 0.228587 -0.168807 128 128 255 0.437761 0.066700 0.896614
1.071050 0.292264 -0.168616 128 128 255 0.433525 0.102111 0.895338
1.053025 0.356771 -0.168432 128 128 255 0.425261 0.135107 0.894930
1.030130 0.417225 -0.168258 128 128 255 0.414314 0.172800 0.893579
1.002571 0.475429 -0.168095 128 128 255 0.402404 0.210194 0.891005
0.972814 0.528765 -0.167946 128 128 255 0.387038 0.241121 0.889979
0.936698 0.581315 -0.167811 128 128 255 0.368648 0.266497 0.890549
0.896758 0.632745 -0.167693 128 128 255 0.348763 0.296755 0.888988
0.853339 0.678316 -0.167592 128 128 255 0.323345 0.335979 0.884628
0.804587 0.719992 -0.167511 128 128 255 0.298416 0.367586 0.880812
0.755335 0.755335 -0.167449 128 128 255 0.274646 0.393615 0.877289
0.705985 0.788615 -0.167409 128 128 255 0.246701 0.411345 0.877459
0.652507 0.817482 -0.167389 128 128 255 0.211384 0.431400 0.877047
0.595318 0.841848 -0.167392 128 128 255 0.182534 0.447989 0.875207
0.539281 0.863893 -0.167416 128 128 255 0.151651 0.466508 0.871420
0.482587 0.879174 -0.167463 128 128 255 0.113135 0.487045 0.866018
0.427860 0.889954 -0.167531 128 128 255 0.076002 0.500093 0.862630
0.371046 0.896313 -0.167619 128 128 255 0.033864 0.516409 0.855672
0.312514 0.898370 -0.167729 128 128 255 -0.001114 0.526389 0.850243
0.257057 0.896276 -0.167857 128 128 255 -0.041708 0.532784 0.845223
0.204998 0.890213 -0.168004 128 128 255 -0.078407 0.532181 0.842992
0.152188 0.880389 -0.168167 128 128 255 -0.120439 0.531361 0.838541
0.101111 0.867035 -0.168345 128 128 255 -0.165119 0.530319 0.831563
0.049778 0.848179 -0.168537 128 128 255 -0.204255 0.525319 0.826026
0.002830 0.828529 -0.168741 128 128 255 -0.245212 0.515101 0.821305
-0.039569 0.806135 -0.168955 128 128 255 -0.282116 0.506841 0.814569
-0.081734 0.781276 -0.169176 128 128 255 -0.319027 0.497305 0.806790
-0.121348 0.754232 -0.169402 128 128 255 -0.355693 0.484431 0.799255
-0.160570 0.725279 -0.169632 128 128 255 -0.374414 0.474204 0.796834
-0.194925 0.696907 -0.169862 128 128 255 -0.420076 0.451051 0.787457
-0.226633 0.664931 -0.169975 128 128 255 -0.452358 0.425616 0.783724
-0.255717 0.631817 -0.169708 128 128 255 -0.496479 0.393078 0.773950
-0.280005 0.595569 -0.169440 128 128 255 -0.522496 0.371538 0.767436
-0.304010 0.560841 -0.169176 128 128 255 -0.535889 0.350261 0.768206
-0.325595 0.525595 -0.168915 128 128 255 -0.556395 0.327051 0.763847
-0.344861 0.489996 -0.168663 128 128 255 -0.575934 0.305340 0.758332
-0.361918 0.456406 -0.168419 128 128 255 -0.588068 0.280306 0.758686
-0.376881 0.420495 -0.168187 128 128 255 -0.606078 0.243879 0.757094
-0.389870 0.384579 -0.167970 128 128 255 -0.616042 0.218141 0.756906
-0.403223 0.346503 -0.167767 128 128 255 -0.626110 0.193091 0.755449
-0.412609 0.310758 -0.167583 128 128 255 -0.643282 0.157082 0.749342
-0.420355 0.275149 -0.167417 128 128 255 -0.651521 0.131694 0.747113
-0.426555 0.239681 -0.167272 128 128 255 -0.657698 0.108349 0.745449
-0.431289 0.206570 -0.167149 128 128 255 -0.662576 0.081270 0.744572
-0.434623 0.171349 -0.167048 128 128 255 -0.666751 0.052795 0.743409
-0.436604 0.136209 -0.166970 128 128 255 -0.668881 0.027052 0.742877
-0.437261 0.101111 -0.166916 128 128 255 -0.669426 0.001382 0.742877
-0.436604 0.063791 -0.166887 128 128 255 -0.669244 -0.023465 0.742673
-0.434623 0.028651 -0.166881 128 128 255 -0.667060 -0.049962 0.743327
-0.431289 -0.006570 -0.166899 128 128 255 -0.663467 -0.078379 0.744088
-0.426555 -0.039681 -0.166941 128 128 255 -0.657935 -0.105473 0.745652
-0.420355 -0.075149 -0.167005 128 128 255 -0.652297 -0.128958 0.746913
-0.412609 -0.110758 -0.167091 128 128 255 -0.644119 -0.156042 0.748841
-0.403223 -0.146503 -0.167198 128 128 255 -0.632866 -0.188427 0.750984
-0.389870 -0.184579 -0.167324 128 128 255 -0.619944 -0.218760 0.753534
