ply
format ascii 1.0
element vertex 696
property float x
property float y
property float z
property uchar red
property uchar green
property uchar blue
property float nx
property float ny
property float nz
end_header
-1.780368 -0.987384 0.969748 128 128 255 0.778849 0.528413 0.337896
-1.701771 -1.116582 1.000811 128 128 255 0.755210 0.566902 0.329059
-1.610957 -1.246601 1.028009 128 128 255 0.738207 0.602353 0.303679
-1.517352 -1.367731 1.051226 128 128 255 0.724915 0.638227 0.259160
-1.414865 -1.488047 1.070361 128 128 255 0.702093 0.677434 0.219427
-1.304102 -1.597866 1.085331 128 128 255 0.687253 0.717146 0.115696
-1.192362 -1.705306 1.096072 128 128 255 0.660360 0.747518 -0.071706
-1.071408 -1.800744 1.102537 128 128 255 0.518531 0.646233 -0.559918
-0.950797 -1.890152 1.104700 128 128 255 0.001497 -0.003831 -0.999992
-0.822316 -1.972886 1.102549 128 128 255 -0.303867 -0.468836 -0.829372
-0.695533 -2.041694 1.096096 128 128 255 -0.360368 -0.634163 -0.684085
-0.562238 -2.102719 1.085367 128 128 255 -0.367163 -0.718472 -0.590754
-0.431991 -2.155508 1.070409 128 128 255 -0.334382 -0.767881 -0.546395
-0.296565 -2.195236 1.051286 128 128 255 -0.290235 -0.822014 -0.489956
-0.165493 -2.223829 1.028082 128 128 255 -0.232144 -0.867173 -0.440591
-0.030512 -2.241068 1.000895 128 128 255 -0.165249 -0.899710 -0.403998
0.101111 -2.246825 0.969844 128 128 255 -0.093205 -0.924523 -0.369554
0.228801 -2.241055 0.935063 128 128 255 -0.011156 -0.941411 -0.337078
0.358678 -2.223803 0.896701 128 128 255 0.075203 -0.948608 -0.307387
0.481340 -2.195202 0.854924 128 128 255 0.164159 -0.946041 -0.279389
0.605195 -2.155469 0.809913 128 128 255 0.258086 -0.929447 -0.263667
0.723132 -2.102681 0.761861 128 128 255 0.345349 -0.908590 -0.234943
0.834738 -2.041663 0.710975 128 128 255 0.412986 -0.884499 -0.217036
0.946306 -1.972868 0.657476 128 128 255 0.490332 -0.846185 -0.208677
1.048605 -1.890153 0.601723 128 128 255 0.564954 -0.799697 -0.203250
1.150219 -1.800770 0.544246 128 128 255 0.615068 -0.764785 -0.191820
1.241984 -1.705363 0.484869 128 128 255 0.674807 -0.712741 -0.191405
1.330324 -1.597954 0.423847 128 128 255 0.710524 -0.676421 -0.193933
1.415025 -1.488167 0.361438 128 128 255 0.751526 -0.628537 -0.200373
1.489234 -1.367880 0.297909 128 128 255 0.788248 -0.581212 -0.202132
1.559456 -1.246773 0.233530 128 128 255 0.808580 -0.547467 -0.215589
1.625553 -1.116769 0.168575 128 128 255 0.828461 -0.510487 -0.230335
1.682963 -0.987577 0.103322 128 128 255 0.853141 -0.460696 -0.244762
1.731588 -0.851132 0.038049 128 128 255 0.870592 -0.422599 -0.251951
1.775793 -0.717138 -0.026966 128 128 255 0.880931 -0.388436 -0.270329
1.813289 -0.577511 -0.091445 128 128 255 0.886934 -0.358105 -0.291733
1.844025 -0.441919 -0.155114 128 128 255 0.893273 -0.324664 -0.310897
1.870184 -0.302229 -0.217699 128 128 255 0.900415 -0.287391 -0.326587
1.887294 -0.168048 -0.278934 128 128 255 0.908176 -0.245271 -0.339203
1.897559 -0.031168 -0.338556 128 128 255 0.914647 -0.200292 -0.351147
1.900968 0.100000 -0.396311 128 128 255 0.916849 -0.159674 -0.365914
1.897519 0.228201 -0.451952 128 128 255 0.918106 -0.112153 -0.380134
1.887219 0.356235 -0.505238 128 128 255 0.917371 -0.063229 -0.392979
1.870080 0.475840 -0.555944 128 128 255 0.908779 -0.007391 -0.417213
1.843902 0.593255 -0.603849 128 128 255 0.902824 0.050875 -0.426990
1.813158 0.708107 -0.648750 128 128 255 0.900527 0.114150 -0.419548
1.775666 0.813409 -0.690453 128 128 255 0.887848 0.185180 -0.421230
1.731476 0.917783 -0.728778 128 128 255 0.876668 0.256195 -0.407207
1.682875 1.012121 -0.763561 128 128 255 0.850598 0.346323 -0.395656
1.625495 1.105140 -0.794651 128 128 255 0.816490 0.442434 -0.370939
1.559432 1.190048 -0.821914 128 128 255 0.769964 0.544420 -0.332809
1.489245 1.266756 -0.845232 128 128 255 0.733097 0.629898 -0.256511
1.415069 1.339656 -0.864504 128 128 255 0.677919 0.721876 -0.139003
1.330396 1.408726 -0.879646 128 128 255 0.597692 0.801503 0.018917
1.242079 1.469527 -0.890592 128 128 255 0.496300 0.829776 0.255260
1.150330 1.522082 -0.897293 128 128 255 0.281288 0.592455 0.754900
1.048725 1.570878 -0.899460 128 128 255 0.004647 0.003945 0.999981
0.946427 1.615965 -0.897053 128 128 255 -0.119911 -0.419653 0.899729
0.834856 1.652958 -0.890373 128 128 255 -0.128839 -0.625389 0.769603
0.723241 1.684138 -0.879451 128 128 255 -0.106736 -0.740525 0.663498
0.605290 1.709562 -0.864334 128 128 255 -0.068495 -0.832080 0.550410
0.481417 1.727060 -0.845090 128 128 255 -0.027620 -0.873507 0.486027
0.358732 1.741119 -0.821801 128 128 255 0.012492 -0.889824 0.456132
0.228830 1.749550 -0.794570 128 128 255 0.053286 -0.910583 0.409876
0.101111 1.752370 -0.763513 128 128 255 0.093923 -0.924514 0.369395
-0.030543 1.749586 -0.728765 128 128 255 0.131082 -0.933170 0.334680
-0.165558 1.741190 -0.690476 128 128 255 0.166640 -0.939611 0.298934
-0.296663 1.727160 -0.648810 128 128 255 0.200963 -0.942511 0.266996
-0.432122 1.709684 -0.603946 128 128 255 0.239943 -0.939335 0.245107
-0.562399 1.684273 -0.556078 128 128 255 0.283620 -0.930767 0.230720
-0.695720 1.653099 -0.505410 128 128 255 0.328609 -0.918603 0.219511
-0.822525 1.616103 -0.452161 128 128 255 0.378317 -0.902446 0.206075
-0.951021 1.571005 -0.396556 128 128 255 0.422974 -0.884606 0.196380
-1.071639 1.522192 -0.338836 128 128 255 0.456854 -0.869223 0.189037
-1.192593 1.469615 -0.279247 128 128 255 0.506569 -0.843521 0.178491
-1.304325 1.408790 -0.218043 128 128 255 0.570080 -0.800251 0.186032
-1.415075 1.339693 -0.155486 128 128 255 0.620044 -0.757991 0.202475
-1.517544 1.266767 -0.091845 128 128 255 0.675706 -0.710699 0.195777
-1.611128 1.190035 -0.027389 128 128 255 0.723286 -0.658281 0.208621
-1.701919 1.105107 0.037604 128 128 255 0.780299 -0.583378 0.225395
-1.780493 1.012069 0.102858 128 128 255 0.831326 -0.504020 0.234222
-1.853020 0.917719 0.168095 128 128 255 0.864728 -0.428259 0.262374
-1.919051 0.813338 0.233036 128 128 255 0.895104 -0.343225 0.284578
-1.973742 0.708033 0.297404 128 128 255 0.922438 -0.246441 0.297280
-2.018972 0.593184 0.360925 128 128 255 0.940286 -0.153374 0.303874
-2.052231 0.475777 0.423329 128 128 255 0.945008 -0.068174 0.319862
-2.077738 0.356187 0.484349 128 128 255 0.938408 0.012463 0.345305
-2.093105 0.228175 0.543725 128 128 255 0.929975 0.088753 0.356748
-2.098236 0.101242 0.601536 128 128 255 0.923041 0.125292 0.363728
-2.067319 0.098889 0.524052 128 128 255 0.908392 0.202009 0.366081
-2.062309 -0.031208 0.582743 128 128 255 0.903424 0.222763 0.366336
-2.047324 -0.168262 0.639371 128 128 255 0.889709 0.274328 0.364914
-2.024676 -0.302749 0.693691 128 128 255 0.872760 0.324670 0.364527
-1.990073 -0.442875 0.745468 128 128 255 0.852782 0.373456 0.365095
-1.945949 -0.579024 0.794480 128 128 255 0.830270 0.423587 0.362253
-1.890348 -0.719325 0.840516 128 128 255 0.809455 0.461560 0.362967
-1.828037 -0.854097 0.883377 128 128 255 0.797476 0.491535 0.349893
-1.759389 -0.991414 0.922879 128 128 255 0.786827 0.526726 0.321655
-1.680382 -1.121556 0.958851 128 128 255 0.764139 0.568428 0.304927
-1.591482 -1.252572 0.991138 128 128 255 0.746385 0.600487 0.286922
-1.499861 -1.374734 1.019602 128 128 255 0.728606 0.636042 0.254135
-1.397170 -1.496101 1.044119 128 128 255 0.703805 0.674172 0.223943
-1.290648 -1.606970 1.064584 128 128 255 0.688978 0.707526 0.157213
-1.180894 -1.715444 1.080909 128 128 255 0.664307 0.746004 0.046629
-1.061857 -1.811880 1.093024 128 128 255 0.623724 0.770651 -0.130633
-0.943062 -1.904456 1.100877 128 128 255 0.508175 0.681766 -0.526264
-0.816264 -1.985847 1.104434 128 128 255 0.150668 0.229107 -0.961670
-0.691003 -2.055449 1.103679 128 128 255 -0.197429 -0.350317 -0.915587
-0.559043 -2.117172 1.098617 128 128 255 -0.306065 -0.604111 -0.735781
-0.429921 -2.170548 1.089270 128 128 255 -0.309592 -0.725985 -0.614084
-0.295390 -2.210745 1.075677 128 128 255 -0.271420 -0.801774 -0.532437
-0.164968 -2.239678 1.057898 128 128 255 -0.219088 -0.856254 -0.467792
-0.030380 -2.257124 1.036010 128 128 255 -0.148910 -0.901049 -0.407354
0.101111 -2.262949 1.010107 128 128 255 -0.078230 -0.931889 -0.354207
0.228934 -2.257110 0.980301 128 128 255 0.004510 -0.943856 -0.330328
0.359207 -2.239651 0.946722 128 128 255 0.091927 -0.950814 -0.295808
0.482520 -2.210709 0.909513 128 128 255 0.181047 -0.947090 -0.265035
0.607270 -2.170506 0.868836 128 128 255 0.276960 -0.930496 -0.239730
0.724108 -2.117128 0.824867 128 128 255 0.364369 -0.906196 -0.214577
0.839269 -2.055410 0.777794 128 128 255 0.423803 -0.883035 -0.201595
0.952356 -1.985819 0.727822 128 128 255 0.497175 -0.845771 -0.193616
1.056336 -1.904446 0.675293 128 128 255 0.570753 -0.797542 -0.195367
1.159762 -1.811892 0.620721 128 128 255 0.619954 -0.761340 -0.189783
1.253440 -1.715484 0.563922 128 128 255 0.672799 -0.714583 -0.191606
1.343762 -1.607040 0.505139 128 128 255 0.707816 -0.677650 -0.199465
1.430479 -1.496200 0.444622 128 128 255 0.748596 -0.631582 -0.201764
1.506705 -1.374861 0.382628 128 128 255 0.779620 -0.588225 -0.214906
1.578910 -1.252721 0.319422 128 128 255 0.799079 -0.555659 -0.229600
1.646922 -1.121721 0.255272 128 128 255 0.825176 -0.514673 -0.232799
1.706147 -0.991586 0.190453 128 128 255 0.848909 -0.468666 -0.244349
1.756455 -0.854267 0.125241 128 128 255 0.862149 -0.431581 -0.265399
1.802181 -0.719484 0.059914 128 128 255 0.869954 -0.403808 -0.283054
1.841013 -0.579164 -0.005249 128 128 255 0.878687 -0.370633 -0.300899
1.875097 -0.442990 -0.069971 128 128 255 0.887961 -0.334035 -0.316142
1.899931 -0.302836 -0.133973 128 128 255 0.898131 -0.293104 -0.327796
1.917693 -0.168319 -0.196983 128 128 255 0.906807 -0.250446 -0.339083
1.928355 -0.031235 -0.258732 128 128 255 0.912190 -0.208473 -0.352772
1.931899 0.100000 -0.318955 128 128 255 0.915684 -0.166925 -0.365594
1.928320 0.228131 -0.377394 128 128 255 0.918439 -0.117965 -0.377563
1.917627 0.355958 -0.433798 128 128 255 0.919262 -0.067331 -0.387844
1.899840 0.475224 -0.487927 128 128 255 0.918040 -0.011495 -0.396321
1.874991 0.592173 -0.539547 128 128 255 0.908508 0.051449 -0.414687
1.840903 0.706441 -0.588438 128 128 255 0.900660 0.119306 -0.417824
1.802078 0.811049 -0.634388 128 128 255 0.895154 0.192120 -0.402231
1.756368 0.914631 -0.677201 128 128 255 0.880502 0.269785 -0.389784
1.706085 1.008093 -0.716692 128 128 255 0.858474 0.357916 -0.367312
1.646892 1.097947 -0.752691 128 128 255 0.820892 0.451374 -0.349853
1.578913 1.184080 -0.785042 128 128 255 0.770479 0.554231 -0.314944
1.506742 1.259755 -0.813607 128 128 255 0.726471 0.638807 -0.253309
1.430546 1.331605 -0.838260 128 128 255 0.671934 0.716514 -0.187380
1.343854 1.399625 -0.858896 128 128 255 0.593901 0.800496 -0.080549
1.253552 1.459393 -0.875424 128 128 255 0.503901 0.857224 0.106069
1.159886 1.510951 -0.887772 128 128 255 0.392593 0.846776 0.358944
1.056466 1.558802 -0.895630 128 128 255 0.250422 0.653401 0.714392
0.952485 1.603013 -0.898932 128 128 255 0.058794 0.176890 0.982473
0.839391 1.639213 -0.897953 128 128 255 -0.062940 -0.311012 0.948320
0.724218 1.669697 -0.892700 128 128 255 -0.089547 -0.594101 0.799390
0.607365 1.694535 -0.883195 128 128 255 -0.070491 -0.744037 0.664410
0.482595 1.713787 -0.869482 128 128 255 -0.036513 -0.846974 0.530378
0.359260 1.725283 -0.851620 128 128 255 -0.002104 -0.896595 0.442846
0.228962 1.733506 -0.829687 128 128 255 0.034715 -0.918511 0.393869
0.101111 1.736255 -0.803778 128 128 255 0.074736 -0.935561 0.345168
-0.030410 1.733538 -0.774006 128 128 255 0.112091 -0.945492 0.305745
-0.165029 1.725345 -0.740498 128 128 255 0.147996 -0.948438 0.280290
-0.295483 1.713874 -0.703399 128 128 255 0.186815 -0.949555 0.251886
-0.430046 1.694641 -0.662869 128 128 255 0.230423 -0.944363 0.234699
-0.559197 1.669816 -0.619081 128 128 255 0.275027 -0.935829 0.220419
-0.691183 1.639337 -0.572224 128 128 255 0.321078 -0.923498 0.209905
-0.816465 1.603135 -0.522498 128 128 255 0.368936 -0.907196 0.202191
-0.943279 1.558916 -0.470117 128 128 255 0.414842 -0.890954 0.184681
-1.062083 1.511051 -0.415304 128 128 255 0.450208 -0.874781 0.179085
-1.181123 1.459474 -0.358295 128 128 255 0.502466 -0.845951 0.178595
-1.290874 1.399685 -0.299332 128 128 255 0.573383 -0.798620 0.182859
-1.397385 1.331643 -0.238668 128 128 255 0.620245 -0.759991 0.194190
-1.500061 1.259771 -0.176563 128 128 255 0.673219 -0.711416 0.201653
-1.591664 1.184074 -0.113281 128 128 255 0.731368 -0.647862 0.213017
-1.680543 1.097922 -0.049093 128 128 255 0.782405 -0.577063 0.234180
-1.759527 1.008052 0.015727 128 128 255 0.834624 -0.493861 0.243935
-1.828152 0.914578 0.080903 128 128 255 0.873400 -0.408687 0.264855
-1.890442 0.810988 0.146157 128 128 255 0.897896 -0.328048 0.293545
-1.946023 0.706376 0.211210 128 128 255 0.921778 -0.234027 0.309123
-1.990130 0.592111 0.275785 128 128 255 0.936150 -0.139879 0.322578
-2.024716 0.475169 0.339607 128 128 255 0.943784 -0.054262 0.326078
-2.047350 0.355916 0.402404 128 128 255 0.940663 0.026449 0.338310
-2.062322 0.228108 0.463909 128 128 255 0.928328 0.098203 0.358557
-2.067319 0.101242 0.524184 128 128 255 0.921714 0.133967 0.363999
-2.035122 0.098889 0.443487 128 128 255 0.914666 0.200224 0.351137
-2.030250 -0.031267 0.504526 128 128 255 0.905681 0.222738 0.360735
-2.017896 -0.168494 0.563837 128 128 255 0.890845 0.276292 0.360637
-1.993701 -0.303263 0.621162 128 128 255 0.872610 0.328309 0.361615
-1.960028 -0.443776 0.676256 128 128 255 0.851309 0.378459 0.363376
-1.917071 -0.580411 0.728882 128 128 255 0.832233 0.421777 0.359850
-1.862856 -0.721288 0.778812 128 128 255 0.818874 0.460445 0.342690
-1.802126 -0.856716 0.825833 128 128 255 0.807332 0.487181 0.332971
-1.735228 -0.994758 0.869740 128 128 255 0.788069 0.524773 0.321810
-1.658108 -1.125681 0.910346 128 128 255 0.765538 0.565939 0.306047
-1.571201 -1.257522 0.947475 128 128 255 0.753423 0.597359 0.274802
-1.481644 -1.380539 0.980968 128 128 255 0.734635 0.632411 0.245700
-1.381055 -1.502775 1.010680 128 128 255 0.713942 0.670412 0.202073
-1.276636 -1.614515 1.036484 128 128 255 0.696506 0.702118 0.148020
-1.168948 -1.723844 1.058269 128 128 255 0.665061 0.740462 0.097002
-1.051908 -1.821107 1.075941 128 128 255 0.631612 0.775283 0.001453
-0.935004 -1.914468 1.089424 128 128 255 0.591002 0.793410 -0.145660
-0.809960 -1.996586 1.098661 128 128 255 0.491021 0.759084 -0.427423
-0.686284 -2.066848 1.103612 128 128 255 0.254654 0.447604 -0.857206
-0.555715 -2.129149 1.104256 128 128 255 -0.099148 -0.197878 -0.975199
-0.427764 -2.183013 1.100591 128 128 255 -0.241264 -0.578435 -0.779233
-0.294165 -2.223599 1.092633 128 128 255 -0.243784 -0.743720 -0.622455
-0.164420 -2.252815 1.080416 128 128 255 -0.200656 -0.842163 -0.500499
-0.030243 -2.270433 1.063994 128 128 255 -0.131357 -0.901845 -0.411607
0.101111 -2.274094 1.043438 128 128 255 -0.058983 -0.938137 -0.341203
0.229073 -2.270420 1.018837 128 128 255 0.019012 -0.955746 -0.293577
0.359757 -2.252789 0.990297 128 128 255 0.108960 -0.953680 -0.280398
0.483748 -2.223564 0.957943 128 128 255 0.197946 -0.948639 -0.246781
0.609431 -2.182972 0.921912 128 128 255 0.292567 -0.930323 -0.221142
0.727440 -2.129105 0.882362 128 128 255 0.377025 -0.904044 -0.201387
0.843990 -2.066808 0.839463 128 128 255 0.432907 -0.881530 -0.188405
0.958660 -1.996555 0.793401 128 128 255 0.505535 -0.843592 -0.181073
1.064390 -1.914451 0.744497 128 128 255 0.577676 -0.796566 -0.178252
1.169704 -1.821110 0.693243 128 128 255 0.625836 -0.758966 -0.179721
1.265374 -1.723871 0.639452 128 128 255 0.671904 -0.717212 -0.184802
1.359982 -1.614568 0.583353 128 128 255 0.706268 -0.679476 -0.198740
1.446577 -1.502854 0.525185 128 128 255 0.746382 -0.632697 -0.206417
1.524903 -1.380642 0.465196 128 128 255 0.774326 -0.595317 -0.214516
1.601395 -1.257646 0.403641 128 128 255 0.793847 -0.561264 -0.234073
1.669178 -1.125819 0.340782 128 128 255 0.820499 -0.516261 -0.245470
1.728069 -0.994903 0.276889 128 128 255 0.842735 -0.476484 -0.250521
1.782351 -0.856860 0.212232 128 128 255 0.853203 -0.445582 -0.271111
1.829662 -0.721423 0.147088 128 128 255 0.861502 -0.415285 -0.292152
1.872105 -0.580530 0.081735 128 128 255 0.872988 -0.379284 -0.306651
1.905139 -0.443874 0.016453 128 128 255 0.885202 -0.339401 -0.318157
1.930907 -0.303337 -0.048481 128 128 255 0.898352 -0.294573 -0.325869
1.949350 -0.168542 -0.112788 128 128 255 0.908378 -0.254176 -0.332029
1.960425 -0.031290 -0.176194 128 128 255 0.914903 -0.210994 -0.344142
1.964110 0.100000 -0.238426 128 128 255 0.919707 -0.167909 -0.354887
1.960396 0.228073 -0.299219 128 128 255 0.923854 -0.116996 -0.364426
1.949296 0.355728 -0.358312 128 128 255 0.924191 -0.068749 -0.375693
1.930834 0.474713 -0.415452 128 128 255 0.921121 -0.011865 -0.389096
1.905056 0.591276 -0.470393 128 128 255 0.918457 0.051859 -0.392106
1.872021 0.705058 -0.522900 128 128 255 0.906420 0.124464 -0.403623
1.829587 0.809092 -0.572748 128 128 255 0.894588 0.201505 -0.398884
1.782294 0.912018 -0.619721 128 128 255 0.882550 0.284140 -0.374660
1.728038 1.004755 -0.663618 128 128 255 0.861420 0.371407 -0.346428
1.669178 1.093827 -0.704250 128 128 255 0.827124 0.458849 -0.324535
1.601427 1.179134 -0.741442 128 128 255 0.769690 0.564475 -0.298236
1.524966 1.253955 -0.775033 128 128 255 0.717763 0.652319 -0.243510
1.446668 1.324934 -0.804878 128 128 255 0.667295 0.722580 -0.180542
1.360095 1.392084 -0.830847 128 128 255 0.586094 0.802996 -0.108126
1.265503 1.450996 -0.852829 128 128 255 0.500471 0.865733 0.005976
1.169841 1.501728 -0.870728 128 128 255 0.414426 0.897268 0.152188
1.064530 1.548796 -0.884217 128 128 255 0.334584 0.880811 0.334999
0.958795 1.590059 -0.893206 128 128 255 0.231088 0.737264 0.634854
0.844116 1.627824 -0.897939 128 128 255 0.093647 0.381949 0.919427
0.727552 1.657731 -0.898397 128 128 255 -0.026140 -0.184682 0.982451
0.609526 1.682082 -0.894580 128 128 255 -0.059985 -0.574625 0.816215
0.483823 1.700946 -0.886504 128 128 255 -0.043952 -0.759062 0.649533
0.359809 1.714382 -0.874207 128 128 255 -0.013144 -0.865679 0.500427
0.229100 1.722431 -0.857742 128 128 255 0.020050 -0.915123 0.402677
0.101111 1.725120 -0.837180 128 128 255 0.059350 -0.938714 0.339548
-0.030272 1.722457 -0.812611 128 128 255 0.096848 -0.951613 0.291639
-0.164479 1.714433 -0.784141 128 128 255 0.136554 -0.957427 0.254336
-0.294254 1.701018 -0.751893 128 128 255 0.176525 -0.954756 0.239333
-0.427882 1.682170 -0.716005 128 128 255 0.220960 -0.949748 0.221711
-0.555861 1.657830 -0.676632 128 128 255 0.262353 -0.943675 0.201614
-0.686456 1.627928 -0.633942 128 128 255 0.313352 -0.930959 0.187421
-0.810152 1.590162 -0.588119 128 128 255 0.359296 -0.914254 0.187207
-0.935213 1.548892 -0.539359 128 128 255 0.403699 -0.897821 0.175910
-1.052128 1.501813 -0.487870 128 128 255 0.443956 -0.880218 0.167690
-1.169173 1.451066 -0.433874 128 128 255 0.496488 -0.851771 0.167291
-1.276859 1.392137 -0.377600 128 128 255 0.572141 -0.801780 0.172639
-1.381271 1.324969 -0.319289 128 128 255 0.621094 -0.761168 0.186726
-1.481847 1.253971 -0.259192 128 128 255 0.673687 -0.711570 0.199535
-1.571387 1.179133 -0.197563 128 128 255 0.737804 -0.637852 0.220883
-1.658274 1.093809 -0.134667 128 128 255 0.787061 -0.567330 0.242222
-1.735372 1.004724 -0.070772 128 128 255 0.837694 -0.482141 0.256532
-1.802249 0.911976 -0.006151 128 128 255 0.878380 -0.389078 0.277608
-1.862957 0.809042 0.058921 128 128 255 0.902512 -0.309554 0.299414
-1.917152 0.705006 0.124167 128 128 255 0.920689 -0.222023 0.320995
-1.960090 0.591224 0.189308 128 128 255 0.935651 -0.125509 0.329856
-1.993746 0.474667 0.254066 128 128 255 0.938428 -0.043362 0.342742
-2.017925 0.355693 0.318165 128 128 255 0.938940 0.037041 0.342082
-2.030264 0.228053 0.381333 128 128 255 0.932434 0.104355 0.345943
-2.035122 0.101242 0.443612 128 128 255 0.923794 0.137792 0.357237
-2.004113 0.098889 0.360319 128 128 255 0.910806 0.206731 0.357344
-1.999382 -0.031314 0.423239 128 128 255 0.906494 0.228609 0.354975
-1.985230 -0.168677 0.484778 128 128 255 0.889794 0.280616 0.359891
-1.961733 -0.303670 0.544671 128 128 255 0.870239 0.334025 0.362094
-1.929019 -0.444487 0.602661 128 128 255 0.852638 0.379677 0.358961
-1.885045 -0.581505 0.658497 128 128 255 0.837292 0.419466 0.350699
-1.834483 -0.722835 0.711940 128 128 255 0.827027 0.452129 0.334073
-1.775384 -0.858779 0.762760 128 128 255 0.816621 0.484275 0.314020
-1.710290 -0.997390 0.810737 128 128 255 0.795071 0.523900 0.305599
-1.632895 -1.128927 0.855666 128 128 255 0.772561 0.562455 0.294609
-1.550267 -1.261415 0.897353 128 128 255 0.759955 0.590733 0.271114
-1.462841 -1.385103 0.935619 128 128 255 0.740231 0.628285 0.239409
-1.364421 -1.508021 0.970299 128 128 255 0.718417 0.663552 0.208749
-1.264394 -1.620444 1.001245 128 128 255 0.696445 0.698301 0.165352
-1.156617 -1.730445 1.028323 128 128 255 0.663377 0.736816 0.130512
-1.041637 -1.828357 1.051417 128 128 255 0.632504 0.771925 0.063803
-0.926685 -1.922333 1.070428 128 128 255 0.597829 0.801484 -0.014987
-0.803451 -2.005023 1.085275 128 128 255 0.536218 0.831852 -0.143156
-0.681412 -2.075803 1.095894 128 128 255 0.459491 0.817706 -0.346735
-0.552278 -2.138559 1.102240 128 128 255 0.317741 0.642973 -0.696869
-0.425537 -2.192807 1.104287 128 128 255 0.008201 0.014501 -0.999861
-0.292900 -2.233699 1.102025 128 128 255 -0.174230 -0.551763 -0.815599
-0.163855 -2.263138 1.095465 128 128 255 -0.171563 -0.779835 -0.602016
-0.030102 -2.278670 1.084636 128 128 255 -0.116310 -0.893241 -0.434272
0.101111 -2.284600 1.069585 128 128 255 -0.043795 -0.932259 -0.359131
0.229216 -2.278659 1.050378 128 128 255 0.030832 -0.958592 -0.283108
0.360326 -2.263116 1.027097 128 128 255 0.123522 -0.960760 -0.248361
0.485017 -2.233669 0.999844 128 128 255 0.214834 -0.951014 -0.222304
0.611663 -2.192771 0.968737 128 128 255 0.307858 -0.930738 -0.197359
0.730880 -2.138521 0.933910 128 128 255 0.388028 -0.903292 -0.183025
0.848864 -2.075767 0.895513 128 128 255 0.442432 -0.879360 -0.176010
0.965169 -2.004994 0.853713 128 128 255 0.513174 -0.841991 -0.166443
1.072706 -1.922315 0.808809 128 128 255 0.582152 -0.795594 -0.167716
1.179968 -1.828354 0.761260 128 128 255 0.627913 -0.758901 -0.172610
1.277696 -1.730461 0.710883 128 128 255 0.671792 -0.718301 -0.180939
1.374434 -1.620481 0.657892 128 128 255 0.708548 -0.680212 -0.187808
1.463197 -1.508080 0.602514 128 128 255 0.747181 -0.634505 -0.197797
1.543690 -1.385181 0.544984 128 128 255 0.769784 -0.600063 -0.217614
1.622312 -1.261511 0.485546 128 128 255 0.790408 -0.566993 -0.231890
1.692152 -1.129034 0.424455 128 128 255 0.817100 -0.520438 -0.247976
1.752991 -0.997503 0.361971 128 128 255 0.834540 -0.483943 -0.263328
1.809080 -0.858891 0.298360 128 128 255 0.844332 -0.458833 -0.276722
1.860248 -0.722941 0.233894 128 128 255 0.855555 -0.423174 -0.298244
1.901904 -0.581599 0.168847 128 128 255 0.869816 -0.384245 -0.309478
1.936147 -0.444565 0.103499 128 128 255 0.884961 -0.340851 -0.317278
1.962879 -0.303728 0.038127 128 128 255 0.896563 -0.298750 -0.326991
1.979800 -0.168716 -0.026988 128 128 255 0.904770 -0.257943 -0.338905
1.991303 -0.031333 -0.091568 128 128 255 0.912893 -0.217015 -0.345732
1.995133 0.100000 -0.155337 128 128 255 0.918821 -0.172701 -0.354885
1.991281 0.228026 -0.218021 128 128 255 0.924160 -0.120114 -0.362632
1.979760 0.355546 -0.279353 128 128 255 0.928718 -0.068668 -0.364374
1.962825 0.474310 -0.339068 128 128 255 0.928476 -0.012863 -0.371169
1.936088 0.590569 -0.396912 128 128 255 0.922057 0.055711 -0.383024
1.901848 0.703971 -0.452635 128 128 255 0.915946 0.129693 -0.379767
1.860204 0.807552 -0.505999 128 128 255 0.899524 0.216966 -0.379186
1.809056 0.909964 -0.556774 128 128 255 0.882655 0.299649 -0.362120
1.752994 1.002132 -0.604742 128 128 255 0.859798 0.382409 -0.338395
1.692183 1.090590 -0.649696 128 128 255 0.826994 0.467319 -0.312559
1.622373 1.175249 -0.691443 128 128 255 0.767871 0.580549 -0.270808
1.543780 1.249398 -0.729803 128 128 255 0.707560 0.671806 -0.219169
1.463311 1.319694 -0.764610 128 128 255 0.660519 0.731508 -0.169148
1.374568 1.386160 -0.795714 128 128 255 0.579568 0.806790 -0.114851
1.277842 1.444400 -0.822981 128 128 255 0.494714 0.868170 -0.039217
1.180119 1.494483 -0.846291 128 128 255 0.419096 0.906865 0.044213
1.072855 1.540937 -0.865308 128 128 255 0.353945 0.924397 0.142173
0.965310 1.581629 -0.879919 128 128 255 0.292769 0.916104 0.273935
0.851216 1.618878 -0.890330 128 128 255 0.212765 0.856933 0.469464
0.730993 1.648332 -0.896499 128 128 255 0.112761 0.610558 0.783903
0.611757 1.672300 -0.898400 128 128 255 0.004781 -0.004270 0.999979
0.485091 1.690858 -0.896026 128 128 255 -0.038231 -0.556356 0.830064
0.360377 1.704071 -0.889389 128 128 255 -0.021849 -0.792073 0.610035
0.229242 1.711983 -0.878519 128 128 255 0.011706 -0.884961 0.465518
0.101111 1.714624 -0.863462 128 128 255 0.049669 -0.927964 0.369345
-0.030129 1.712003 -0.844286 128 128 255 0.087025 -0.948768 0.303752
-0.163910 1.704110 -0.821072 128 128 255 0.126768 -0.958041 0.257073
-0.292984 1.690914 -0.793921 128 128 255 0.166376 -0.960801 0.221765
-0.425649 1.672368 -0.762949 128 128 255 0.207254 -0.958334 0.196574
-0.552417 1.648408 -0.728291 128 128 255 0.249671 -0.951937 0.177425
-0.681575 1.618958 -0.690094 128 128 255 0.302263 -0.938761 0.165426
-0.803635 1.581709 -0.648522 128 128 255 0.349258 -0.923731 0.157287
-0.926886 1.541012 -0.603754 128 128 255 0.392092 -0.906911 0.154192
-1.041850 1.494550 -0.555981 128 128 255 0.440131 -0.884067 0.157198
-1.156836 1.444456 -0.505408 128 128 255 0.491458 -0.855112 0.165084
-1.264612 1.386203 -0.452250 128 128 255 0.571778 -0.803228 0.167015
-1.364633 1.319723 -0.396735 128 128 255 0.624978 -0.759079 0.182214
-1.463041 1.249413 -0.339101 128 128 255 0.677151 -0.707891 0.200889
-1.550451 1.175250 -0.279593 128 128 255 0.745168 -0.628607 0.222660
-1.633060 1.090578 -0.218466 128 128 255 0.792016 -0.557267 0.249326
-1.710434 1.002110 -0.155980 128 128 255 0.838388 -0.476866 0.264017
-1.775506 0.909933 -0.092403 128 128 255 0.883171 -0.376423 0.279847
-1.834583 0.807515 -0.028005 128 128 255 0.906669 -0.290953 0.305447
-1.885124 0.703931 0.036939 128 128 255 0.920969 -0.201695 0.333369
-1.929079 0.590530 0.102152 128 128 255 0.930804 -0.113790 0.347355
-1.961775 0.474274 0.167355 128 128 255 0.936888 -0.031612 0.348198
-1.985257 0.355519 0.232272 128 128 255 0.933230 0.044098 0.356564
-1.999396 0.228011 0.296626 128 128 255 0.928119 0.112328 0.354933
-2.004113 0.101242 0.360433 128 128 255 0.925847 0.140418 0.350843
-1.970097 0.098889 0.275180 128 128 255 0.907307 0.211804 0.363226
-1.965513 -0.031350 0.339500 128 128 255 0.901878 0.234251 0.362963
-1.951795 -0.168812 0.402797 128 128 255 0.886690 0.287247 0.362312
-1.929012 -0.303965 0.464800 128 128 255 0.870662 0.335571 0.359638
-1.895059 -0.445004 0.525241 128 128 255 0.856602 0.377127 0.352149
-1.854541 -0.582298 0.583862 128 128 255 0.844797 0.413519 0.339589
-1.805443 -0.723954 0.640409 128 128 255 0.835048 0.442982 0.326284
-1.750236 -0.860269 0.694639 128 128 255 0.822597 0.479832 0.305116
-1.684767 -0.999290 0.746319 128 128 255 0.801389 0.522247 0.291606
-1.609365 -1.131269 0.795228 128 128 255 0.784230 0.557010 0.273355
-1.528840 -1.264222 0.841154 128 128 255 0.771211 0.585307 0.250298
-1.443595 -1.388391 0.883901 128 128 255 0.745562 0.623858 0.234388
-1.347394 -1.511800 0.923284 128 128 255 0.722682 0.659140 0.208003
-1.249588 -1.624712 0.959136 128 128 255 0.696808 0.695010 0.177258
-1.141772 -1.735195 0.991300 128 128 255 0.664641 0.732422 0.147684
-1.031123 -1.833574 1.019641 128 128 255 0.634940 0.766785 0.094295
-0.918169 -1.927993 1.044035 128 128 255 0.597306 0.800342 0.051750
-0.796787 -2.011094 1.064380 128 128 255 0.540017 0.841485 -0.016872
-0.676424 -2.082246 1.080587 128 128 255 0.485795 0.865636 -0.121148
-0.548759 -2.145329 1.092587 128 128 255 0.420764 0.862416 -0.281420
-0.423256 -2.199854 1.100330 128 128 255 0.325237 0.809984 -0.488003
-0.291605 -2.240968 1.103783 128 128 255 0.108409 0.355819 -0.928246
-0.163276 -2.270568 1.102931 128 128 255 -0.107740 -0.531538 -0.840155
-0.029957 -2.286198 1.097778 128 128 255 -0.097073 -0.837445 -0.537831
0.101111 -2.292162 1.088349 128 128 255 -0.032246 -0.926770 -0.374242
0.229362 -2.286190 1.074683 128 128 255 0.046091 -0.958632 -0.280892
0.360908 -2.270552 1.056841 128 128 255 0.136053 -0.964928 -0.224505
0.486316 -2.240946 1.034900 128 128 255 0.231749 -0.954632 -0.187001
0.613947 -2.199828 1.008955 128 128 255 0.318137 -0.931959 -0.173900
0.734402 -2.145301 0.979118 128 128 255 0.397220 -0.902270 -0.167707
0.856077 -2.082219 0.945518 128 128 255 0.454390 -0.878015 -0.150395
0.971833 -2.011071 0.908302 128 128 255 0.522413 -0.840312 -0.144774
1.081221 -1.927978 0.867739 128 128 255 0.586059 -0.795262 -0.155219
1.190478 -1.833570 0.824254 128 128 255 0.629511 -0.759425 -0.164287
1.290312 -1.735205 0.777672 128 128 255 0.671309 -0.719878 -0.176410
1.389231 -1.624736 0.728191 128 128 255 0.707378 -0.680778 -0.190154
1.477989 -1.511839 0.676021 128 128 255 0.743554 -0.638463 -0.198729
1.562923 -1.388444 0.621385 128 128 255 0.764409 -0.607160 -0.216876
1.643725 -1.264287 0.564516 128 128 255 0.787595 -0.570386 -0.233138
1.715670 -1.131342 0.505655 128 128 255 0.813192 -0.527135 -0.246673
1.778503 -0.999368 0.445054 128 128 255 0.825915 -0.493484 -0.272651
1.836441 -0.860347 0.382971 128 128 255 0.836061 -0.465908 -0.289708
1.889280 -0.724027 0.319671 128 128 255 0.852046 -0.430492 -0.297816
1.932403 -0.582363 0.255425 128 128 255 0.869222 -0.385643 -0.309406
1.967884 -0.445058 0.190507 128 128 255 0.882625 -0.344852 -0.319454
1.993379 -0.304006 0.125194 128 128 255 0.892752 -0.305484 -0.331169
2.013241 -0.168838 0.059766 128 128 255 0.899711 -0.267496 -0.344916
2.025181 -0.031362 -0.005498 128 128 255 0.906199 -0.226215 -0.357253
2.029160 0.100000 -0.070318 128 128 255 0.913257 -0.181020 -0.364957
2.025167 0.227992 -0.134417 128 128 255 0.919832 -0.127071 -0.371162
2.013215 0.355414 -0.197520 128 128 255 0.924390 -0.070199 -0.374933
1.993347 0.474018 -0.259356 128 128 255 0.930772 -0.009892 -0.365466
1.967851 0.590059 -0.319661 128 128 255 0.929754 0.059226 -0.363387
1.932378 0.703186 -0.378176 128 128 255 0.919082 0.137961 -0.369128
1.889269 0.806443 -0.434649 128 128 255 0.904645 0.224245 -0.362398
1.836450 0.908484 -0.488838 128 128 255 0.881654 0.315820 -0.350634
1.778538 1.000243 -0.540510 128 128 255 0.858519 0.402633 -0.317540
1.715733 1.088260 -0.589443 128 128 255 0.826257 0.484248 -0.287754
1.643816 1.172453 -0.635425 128 128 255 0.763054 0.592485 -0.258284
1.563039 1.246119 -0.678261 128 128 255 0.698434 0.682211 -0.216283
1.478127 1.315924 -0.717763 128 128 255 0.653876 0.736983 -0.171178
1.389383 1.381899 -0.753763 128 128 255 0.576762 0.807185 -0.125692
1.290473 1.439656 -0.786104 128 128 255 0.492264 0.867188 -0.075235
1.190640 1.489273 -0.814647 128 128 255 0.420922 0.906856 -0.020897
1.081378 1.535284 -0.839047 128 128 255 0.359310 0.932351 0.040225
0.971980 1.575566 -0.859171 128 128 255 0.308149 0.944909 0.110415
0.856210 1.612443 -0.875184 128 128 255 0.243634 0.950687 0.191929
0.734517 1.641570 -0.887019 128 128 255 0.177826 0.927508 0.328797
0.614042 1.665262 -0.894626 128 128 255 0.116079 0.814455 0.568496
0.486389 1.683600 -0.897974 128 128 255 0.033824 0.311320 0.949703
0.360958 1.696651 -0.897050 128 128 255 -0.021007 -0.550895 0.834310
0.229388 1.704464 -0.891859 128 128 255 -0.001793 -0.846482 0.532415
0.101111 1.707069 -0.882425 128 128 255 0.034292 -0.929036 0.368397
-0.029983 1.704477 -0.868788 128 128 255 0.071810 -0.957948 0.277812
-0.163328 1.696677 -0.851008 128 128 255 0.111729 -0.968504 0.222525
-0.291685 1.683637 -0.829161 128 128 255 0.151865 -0.970900 0.185179
-0.423362 1.665308 -0.803343 128 128 255 0.193573 -0.967727 0.161349
-0.548891 1.641622 -0.773664 128 128 255 0.237089 -0.960607 0.144994
-0.676579 1.612498 -0.740251 128 128 255 0.291399 -0.946745 0.136970
-0.796963 1.575620 -0.703247 128 128 255 0.340135 -0.930929 0.132964
-0.918361 1.535335 -0.662811 128 128 255 0.383138 -0.914326 0.131196
-1.031327 1.489319 -0.619117 128 128 255 0.436536 -0.889651 0.134003
-1.141982 1.439695 -0.572351 128 128 255 0.488843 -0.858627 0.154248
-1.249798 1.381929 -0.522713 128 128 255 0.570282 -0.803777 0.169472
-1.347599 1.315945 -0.470416 128 128 255 0.629883 -0.754635 0.183775
-1.443788 1.246130 -0.415682 128 128 255 0.678878 -0.706859 0.198680
-1.529017 1.172455 -0.358746 128 128 255 0.750780 -0.622452 0.221096
-1.609521 1.088253 -0.299851 128 128 255 0.797782 -0.548648 0.250060
-1.684902 1.000229 -0.239248 128 128 255 0.838811 -0.471511 0.272166
-1.750349 0.908464 -0.177197 128 128 255 0.886295 -0.361468 0.289520
-1.805533 0.806418 -0.113961 128 128 255 0.910278 -0.272499 0.311671
-1.854611 0.703159 -0.049810 128 128 255 0.925013 -0.185964 0.331312
-1.895110 0.590032 0.014981 128 128 255 0.929593 -0.101945 0.354208
-1.929048 0.473994 0.080137 128 128 255 0.931229 -0.023275 0.363692
-1.951817 0.355395 0.145380 128 128 255 0.931479 0.052091 0.360047
-1.965524 0.227981 0.210431 128 128 255 0.923978 0.118882 0.363500
-1.970097 0.101242 0.275282 128 128 255 0.918518 0.152219 0.364903
-1.935554 0.098889 0.188719 128 128 255 0.900754 0.218634 0.375288
-1.931120 -0.031372 0.253947 128 128 255 0.897534 0.238641 0.370786
-1.917843 -0.168896 0.318519 128 128 255 0.886227 0.289265 0.361839
-1.893565 -0.304148 0.382157 128 128 255 0.873676 0.332954 0.354727
-1.862832 -0.445321 0.444589 128 128 255 0.863062 0.370633 0.343153
-1.823568 -0.582783 0.505545 128 128 255 0.854614 0.403744 0.326538
-1.775957 -0.724637 0.564764 128 128 255 0.843130 0.438366 0.311395
-1.722446 -0.861177 0.621990 128 128 255 0.823438 0.476748 0.307672
-1.658852 -1.000445 0.676979 128 128 255 0.802523 0.518893 0.294461
-1.585472 -1.132688 0.729494 128 128 255 0.790534 0.549458 0.270464
-1.509307 -1.265921 0.779309 128 128 255 0.776914 0.580239 0.244392
-1.424053 -1.390379 0.826210 128 128 255 0.750170 0.621667 0.225334
-1.330106 -1.514082 0.869996 128 128 255 0.726850 0.654800 0.207187
-1.234553 -1.627288 0.910479 128 128 255 0.699674 0.690973 0.181691
-1.128954 -1.738060 0.947485 128 128 255 0.668363 0.727667 0.154246
-1.022668 -1.836719 0.980856 128 128 255 0.634539 0.763718 0.118725
-0.909520 -1.931403 1.010448 128 128 255 0.592844 0.799455 0.096993
-0.790019 -2.014752 1.036135 128 128 255 0.537036 0.841965 0.051845
-0.671357 -2.086128 1.057807 128 128 255 0.486961 0.873364 0.010203
-0.545184 -2.151631 1.075371 128 128 255 0.430537 0.899639 -0.072716
-0.420939 -2.204101 1.088753 128 128 255 0.355610 0.924801 -0.135222
-0.290289 -2.245349 1.097894 128 128 255 0.267705 0.940719 -0.208284
-0.162687 -2.275047 1.102758 128 128 255 0.167855 0.871941 -0.459939
-0.029809 -2.290738 1.103323 128 128 255 -0.048477 -0.497539 -0.866086
0.101111 -2.296723 1.099588 128 128 255 -0.015171 -0.925343 -0.378827
0.229511 -2.290734 1.091570 128 128 255 0.068979 -0.977659 -0.198554
0.361498 -2.275039 1.079304 128 128 255 0.156595 -0.979794 -0.124427
0.487634 -2.245337 1.062843 128 128 255 0.248745 -0.959757 -0.130357
0.616266 -2.204088 1.042260 128 128 255 0.330110 -0.936639 -0.117196
0.737978 -2.151617 1.017642 128 128 255 0.409074 -0.902818 -0.132585
0.861144 -2.086114 0.989098 128 128 255 0.467724 -0.874921 -0.125491
0.976379 -2.014740 0.956750 128 128 255 0.531048 -0.839090 -0.117967
1.089868 -1.931395 0.920839 128 128 255 0.588389 -0.797125 -0.135613
1.201152 -1.836716 0.881747 128 128 255 0.630696 -0.760558 -0.154189
1.303126 -1.738065 0.839312 128 128 255 0.670511 -0.721941 -0.170927
1.404259 -1.627300 0.793715 128 128 255 0.704932 -0.683815 -0.188329
1.495271 -1.514101 0.745149 128 128 255 0.735395 -0.644017 -0.210796
1.582456 -1.390406 0.693821 128 128 255 0.755250 -0.613497 -0.230691
1.665472 -1.265954 0.639950 128 128 255 0.782722 -0.573415 -0.241952
1.737331 -1.132725 0.583765 128 128 255 0.807304 -0.533449 -0.252374
1.804411 -1.000484 0.525507 128 128 255 0.819196 -0.505275 -0.271322
1.866447 -0.861216 0.465423 128 128 255 0.830018 -0.472512 -0.296314
1.918762 -0.724675 0.403770 128 128 255 0.848904 -0.431778 -0.304843
1.963374 -0.582816 0.340812 128 128 255 0.866487 -0.389454 -0.312292
1.997888 -0.445349 0.276817 128 128 255 0.878210 -0.351269 -0.324588
2.026606 -0.304169 0.212059 128 128 255 0.886921 -0.314618 -0.338212
2.047197 -0.168909 0.146814 128 128 255 0.894901 -0.275875 -0.350779
2.059581 -0.031379 0.081363 128 128 255 0.904698 -0.229770 -0.358787
2.063711 0.100000 0.015985 128 128 255 0.912872 -0.183074 -0.364896
2.059574 0.227970 -0.049041 128 128 255 0.920539 -0.127247 -0.369344
2.047185 0.355332 -0.113435 128 128 255 0.925990 -0.067943 -0.371383
2.026595 0.476062 -0.176921 128 128 255 0.928756 -0.003185 -0.370678
1.997881 0.589748 -0.239228 128 128 255 0.932102 0.066601 -0.356020
1.963378 0.702710 -0.300088 128 128 255 0.926076 0.146049 -0.347927
1.918783 0.805771 -0.359239 128 128 255 0.908483 0.232823 -0.347063
1.866489 0.907590 -0.416429 128 128 255 0.881913 0.329442 -0.337190
1.804478 0.999103 -0.471410 128 128 255 0.851089 0.423094 -0.310868
1.737425 1.086854 -0.523948 128 128 255 0.822490 0.497790 -0.275163
1.665591 1.170767 -0.573815 128 128 255 0.762822 0.596604 -0.249333
1.582597 1.244143 -0.620797 128 128 255 0.691990 0.687683 -0.219641
1.495429 1.313653 -0.664693 128 128 255 0.647826 0.739807 -0.181679
1.404429 1.379333 -0.705312 128 128 255 0.574918 0.805606 -0.143068
1.303301 1.436800 -0.742480 128 128 255 0.490839 0.865366 -0.101085
1.201326 1.486135 -0.776036 128 128 255 0.422816 0.903914 -0.064548
1.090034 1.531880 -0.805634 128 128 255 0.363446 0.931133 -0.029974
0.976532 1.571915 -0.831120 128 128 255 0.317601 0.948168 0.010350
0.861282 1.608568 -0.852615 128 128 255 0.258529 0.964875 0.046686
0.738096 1.637498 -0.870028 128 128 255 0.198857 0.975750 0.091477
0.616363 1.661023 -0.883286 128 128 255 0.150660 0.976103 0.156606
0.487707 1.679227 -0.892333 128 128 255 0.104342 0.954826 0.278245
0.361548 1.692179 -0.897131 128 128 255 0.056061 0.784689 0.617349
0.229536 1.699930 -0.897660 128 128 255 -0.004499 -0.552800 0.833302
0.101111 1.702513 -0.893921 128 128 255 0.019698 -0.930757 0.365107
-0.029835 1.699937 -0.885929 128 128 255 0.056893 -0.973648 0.220843
-0.162738 1.692192 -0.873719 128 128 255 0.096850 -0.982504 0.159080
-0.290366 1.679245 -0.857345 128 128 255 0.137439 -0.982539 0.125406
-0.421041 1.661046 -0.836877 128 128 255 0.179996 -0.977688 0.108298
-0.545310 1.637524 -0.812403 128 128 255 0.224673 -0.969387 0.099053
-0.671506 1.608595 -0.784028 128 128 255 0.280837 -0.954685 0.098522
-0.790187 1.571942 -0.751875 128 128 255 0.332987 -0.937128 0.104456
-0.909703 1.531906 -0.716079 128 128 255 0.375221 -0.919931 0.113733
-1.022863 1.486159 -0.676796 128 128 255 0.432189 -0.894495 0.114417
-1.129154 1.436819 -0.634192 128 128 255 0.488646 -0.862307 0.132863
-1.234752 1.379348 -0.588451 128 128 255 0.569118 -0.806662 0.159376
-1.330298 1.313664 -0.539767 128 128 255 0.633185 -0.752282 0.182066
-1.424233 1.244149 -0.488350 128 128 255 0.680957 -0.703443 0.203633
-1.509470 1.170768 -0.434417 128 128 255 0.756364 -0.613523 0.226944
-1.585614 1.086851 -0.378201 128 128 255 0.807222 -0.529885 0.260028
-1.658970 0.999096 -0.319941 128 128 255 0.841819 -0.455617 0.289402
-1.722541 0.907580 -0.259885 128 128 255 0.886539 -0.349824 0.302773
-1.776030 0.805759 -0.198290 128 128 255 0.913308 -0.254332 0.318094
-1.823621 0.702697 -0.135419 128 128 255 0.924466 -0.172602 0.339956
-1.862869 0.589734 -0.071540 128 128 255 0.932097 -0.089082 0.351083
-1.893588 0.476049 -0.006925 128 128 255 0.929231 -0.014153 0.369227
-1.917857 0.355323 0.058149 128 128 255 0.924150 0.060864 0.377151
-1.931126 0.227964 0.123406 128 128 255 0.918088 0.128454 0.374985
-1.935554 0.101242 0.188805 128 128 255 0.914571 0.159060 0.371834
-1.898523 0.098889 0.101594 128 128 255 0.904475 0.214929 0.368416
-1.894240 -0.031382 0.167231 128 128 255 0.898619 0.237509 0.368882
-1.881410 -0.168928 0.232585 128 128 255 0.887873 0.283559 0.362321
-1.860086 -0.304216 0.297373 128 128 255 0.879245 0.326073 0.347283
-1.830360 -0.445437 0.361317 128 128 255 0.871952 0.360036 0.331774
-1.792359 -0.582956 0.424144 128 128 255 0.861860 0.395663 0.317251
-1.748470 -0.724878 0.485582 128 128 255 0.848554 0.432720 0.304481
-1.694445 -0.861493 0.545368 128 128 255 0.829182 0.476528 0.292196
-1.630519 -1.000844 0.603246 128 128 255 0.808709 0.513476 0.286936
-1.561400 -1.133175 0.658965 128 128 255 0.796943 0.541417 0.267862
-1.487388 -1.266500 0.712289 128 128 255 0.777878 0.576513 0.250080
-1.404365 -1.391052 0.762986 128 128 255 0.750568 0.618233 0.233314
-1.312687 -1.514851 0.810841 128 128 255 0.730903 0.650555 0.206299
-1.219405 -1.628152 0.855647 128 128 255 0.702461 0.687279 0.184924
-1.116039 -1.739019 0.897213 128 128 255 0.669598 0.724584 0.163146
-1.011910 -1.837769 0.935360 128 128 255 0.631652 0.762393 0.140617
-0.898583 -1.932540 0.969924 128 128 255 0.587923 0.798690 0.128223
-0.783199 -2.015970 1.000759 128 128 255 0.533531 0.839757 0.100760
-0.666251 -2.087420 1.027731 128 128 255 0.480340 0.873888 0.074783
-0.541582 -2.152989 1.050725 128 128 255 0.422415 0.904688 0.055731
-0.418603 -2.205516 1.069644 128 128 255 0.344162 0.938148 0.037826
-0.288962 -2.246809 1.084407 128 128 255 0.262629 0.964895 0.001729
-0.162093 -2.274319 1.094950 128 128 255 0.173728 0.984718 0.012212
-0.029660 -2.292253 1.101230 128 128 255 0.088691 0.993824 0.066692
0.101111 -2.298248 1.103219 128 128 255 0.080457 0.996503 -0.022560
0.229660 -2.292253 1.100911 128 128 255 0.089249 -0.993485 -0.070865
0.362093 -2.274319 1.094316 128 128 255 0.173758 -0.984708 -0.012605
0.488962 -2.246809 1.083463 128 128 255 0.262663 -0.964886 -0.001765
0.618603 -2.205516 1.068399 128 128 255 0.344039 -0.938170 -0.038385
0.741582 -2.152989 1.049191 128 128 255 0.422227 -0.904737 -0.056349
0.866251 -2.087420 1.025920 128 128 255 0.480100 -0.873965 -0.075426
0.983199 -2.015970 0.998689 128 128 255 0.533261 -0.839846 -0.101445
1.098583 -1.932540 0.967704 128 128 255 0.587730 -0.798709 -0.128985
1.211910 -1.837769 0.933301 128 128 255 0.631546 -0.762330 -0.141433
1.316039 -1.739019 0.895335 128 128 255 0.669462 -0.724502 -0.164063
1.419405 -1.628152 0.853965 128 128 255 0.702294 -0.687179 -0.185925
1.512687 -1.514851 0.809370 128 128 255 0.730703 -0.650438 -0.207372
1.604365 -1.391052 0.761739 128 128 255 0.750325 -0.618090 -0.234472
1.687388 -1.266500 0.711275 128 128 255 0.777608 -0.576362 -0.251265
1.761400 -1.133175 0.658192 128 128 255 0.796645 -0.541257 -0.269067
1.830519 -1.000844 0.602718 128 128 255 0.808385 -0.513303 -0.288156
1.894445 -0.861493 0.545089 128 128 255 0.828860 -0.476364 -0.293374
1.948470 -0.724878 0.485552 128 128 255 0.848223 -0.432560 -0.305631
1.992359 -0.582956 0.424359 128 128 255 0.861522 -0.395503 -0.318366
2.030360 -0.445437 0.361774 128 128 255 0.871609 -0.359874 -0.332848
2.060086 -0.304216 0.298062 128 128 255 0.878900 -0.325908 -0.348309
2.081409 -0.168928 0.233498 128 128 255 0.887532 -0.283393 -0.363284
2.094240 -0.031382 0.168357 128 128 255 0.898504 -0.236420 -0.369859
2.098523 0.100000 0.102918 128 128 255 0.907824 -0.188650 -0.374522
2.094240 0.227960 0.037460 128 128 255 0.916658 -0.131343 -0.377474
2.081412 0.355302 -0.027735 128 128 255 0.924837 -0.065632 -0.374658
2.060093 0.475998 -0.092387 128 128 255 0.930915 0.002924 -0.365223
2.030377 0.589640 -0.156221 128 128 255 0.929990 0.077543 -0.359314
1.992390 0.702547 -0.218962 128 128 255 0.927479 0.157186 -0.339228
1.948519 0.805543 -0.280342 128 128 255 0.913509 0.244609 -0.325067
1.894517 0.907288 -0.340095 128 128 255 0.883650 0.340315 -0.321478
1.830614 0.998720 -0.397967 128 128 255 0.845666 0.440268 -0.301685
1.761521 1.086383 -0.453708 128 128 255 0.816902 0.508497 -0.272216
1.687531 1.170204 -0.507078 128 128 255 0.761947 0.600403 -0.242802
1.604527 1.243485 -0.557849 128 128 255 0.686380 0.694730 -0.215019
1.512864 1.312898 -0.605801 128 128 255 0.640164 0.745394 -0.185950
1.419591 1.378480 -0.650729 128 128 255 0.571683 0.806231 -0.152215
1.316227 1.435852 -0.692439 128 128 255 0.490512 0.863020 -0.120809
1.212094 1.485095 -0.730752 128 128 255 0.427600 0.898461 -0.099635
1.098758 1.530751 -0.765322 128 128 255 0.369272 0.925715 -0.081789
0.983359 1.570704 -0.795979 128 128 255 0.326069 0.943483 -0.059330
0.866393 1.607282 -0.822794 128 128 255 0.270495 0.961725 -0.043782
0.741703 1.636146 -0.845656 128 128 255 0.212267 0.976777 -0.029135
0.618701 1.659614 -0.864465 128 128 255 0.166327 0.985871 -0.019819
0.489036 1.677771 -0.879143 128 128 255 0.122909 0.992353 -0.011391
0.362143 1.690689 -0.889628 128 128 255 0.082241 0.996585 -0.007395
0.229685 1.698418 -0.895877 128 128 255 0.044241 0.999019 -0.002010
0.101111 1.700991 -0.897862 128 128 255 0.172029 -0.984701 -0.027749
-0.029685 1.698418 -0.895577 128 128 255 0.043676 -0.999042 0.002629
-0.162143 1.690689 -0.889032 128 128 255 0.082182 -0.996591 0.007210
-0.289036 1.677771 -0.878256 128 128 255 0.122890 -0.992357 0.011207
-0.418701 1.659614 -0.863294 128 128 255 0.166322 -0.985877 0.019588
-0.541703 1.636146 -0.844213 128 128 255 0.212277 -0.976783 0.028879
-0.666393 1.607282 -0.821092 128 128 255 0.270515 -0.961733 0.043485
-0.783359 1.570704 -0.794033 128 128 255 0.326108 -0.943489 0.059018
-0.898757 1.530751 -0.763150 128 128 255 0.369264 -0.925750 0.081435
-1.012094 1.485095 -0.728576 128 128 255 0.427433 -0.898587 0.099212
-1.116227 1.435852 -0.690458 128 128 255 0.490209 -0.863267 0.120271
-1.219591 1.378480 -0.648961 128 128 255 0.571306 -0.806629 0.151526
-1.312864 1.312898 -0.604261 128 128 255 0.639713 -0.745992 0.185102
-1.404527 1.243485 -0.556549 128 128 255 0.685883 -0.695522 0.214041
-1.487531 1.170204 -0.506030 128 128 255 0.761485 -0.601417 0.241740
-1.561520 1.086383 -0.452918 128 128 255 0.816518 -0.509717 0.271085
-1.630614 0.998720 -0.397442 128 128 255 0.845355 -0.441677 0.300493
-1.694517 0.907288 -0.339837 128 128 255 0.883496 -0.341814 0.320309
-1.748519 0.805543 -0.280350 128 128 255 0.913498 -0.246083 0.323982
-1.792390 0.702547 -0.219235 128 128 255 0.927607 -0.158640 0.338199
-1.830377 0.589640 -0.156752 128 128 255 0.930248 -0.078969 0.358334
-1.860093 0.475998 -0.093168 128 128 255 0.931260 -0.004250 0.364331
-1.881412 0.355302 -0.028755 128 128 255 0.925249 0.064446 0.373847
-1.894240 0.227960 0.036214 128 128 255 0.917000 0.131187 0.376698
-1.898523 0.101242 0.101663 128 128 255 0.910789 0.164424 0.378720
-1.863711 0.098889 0.014467 128 128 255 0.908389 0.209879 0.361637
-1.859581 -0.031379 0.080014 128 128 255 0.904770 0.230792 0.357948
-1.847197 -0.168909 0.145649 128 128 255 0.895193 0.275998 0.349934
-1.826606 -0.304169 0.211092 128 128 255 0.887226 0.314742 0.337293
-1.797888 -0.445349 0.276062 128 128 255 0.878520 0.351394 0.323611
-1.763374 -0.582816 0.340279 128 128 255 0.866800 0.389581 0.311263
-1.718762 -0.724675 0.403468 128 128 255 0.849223 0.431915 0.303760
-1.666447 -0.861216 0.465357 128 128 255 0.830338 0.472657 0.295186
-1.604411 -1.000484 0.525681 128 128 255 0.819481 0.505406 0.270212
-1.537331 -1.132725 0.584181 128 128 255 0.807566 0.533571 0.251277
-1.465472 -1.265954 0.640606 128 128 255 0.782972 0.573541 0.240845
-1.382456 -1.390406 0.694714 128 128 255 0.755486 0.613622 0.229585
-1.295271 -1.514101 0.746272 128 128 255 0.735601 0.644128 0.209738
-1.204259 -1.627300 0.795060 128 128 255 0.705103 0.683910 0.187342
-1.103126 -1.738065 0.840868 128 128 255 0.670657 0.722025 0.169997
-1.001152 -1.836716 0.883501 128 128 255 0.630820 0.760631 0.153321
-0.889868 -1.931395 0.922774 128 128 255 0.588610 0.797095 0.134824
-0.776379 -2.014740 0.958522 128 128 255 0.531408 0.838970 0.117199
-0.661144 -2.086114 0.990589 128 128 255 0.468193 0.874808 0.124522
-0.537978 -2.151617 1.018840 128 128 255 0.409620 0.902752 0.131343
-0.416266 -2.204088 1.043153 128 128 255 0.330615 0.936629 0.115843
-0.287634 -2.245337 1.063424 128 128 255 0.249349 0.959854 0.128469
-0.161498 -2.275039 1.079568 128 128 255 0.157169 0.980000 0.122056
-0.029511 -2.290734 1.091515 128 128 255 0.069371 0.978566 0.193897
0.101111 -2.296723 1.099215 128 128 255 -0.013647 0.932064 0.362036
