ply
format ascii 1.0
element vertex 702
property float x
property float y
property float z
property uchar red
property uchar green
property uchar blue
property float nx
property float ny
property float nz
end_header
-1.667071 0.971986 0.274889 128 128 255 -0.858694 0.462811 0.220116
-1.723113 0.855809 0.275214 128 128 255 -0.895443 0.397653 0.200134
-1.771588 0.733830 0.275534 128 128 255 -0.927521 0.329280 0.176861
-1.810034 0.613201 0.275845 128 128 255 -0.947733 0.274924 0.161921
-1.842686 0.485534 0.276147 128 128 255 -0.965054 0.218438 0.144763
-1.867141 0.360236 0.276437 128 128 255 -0.979792 0.155385 0.125947
-1.883255 0.228951 0.276714 128 128 255 -0.990166 0.090803 0.106420
-1.890915 0.100000 0.276977 128 128 255 -0.995844 0.026417 0.087165
-1.890044 -0.029396 0.277225 128 128 255 -0.996923 -0.039088 0.067944
-1.880604 -0.162009 0.277457 128 128 255 -0.993309 -0.104796 0.048518
-1.862592 -0.289494 0.277672 128 128 255 -0.984982 -0.170058 0.029844
-1.836042 -0.420170 0.277868 128 128 255 -0.972003 -0.234712 0.010957
-1.801031 -0.544579 0.278047 128 128 255 -0.956821 -0.290594 -0.006965
-1.759894 -0.671044 0.278207 128 128 255 -0.935158 -0.353357 -0.024858
-1.708339 -0.790115 0.278349 128 128 255 -0.902687 -0.428281 -0.041620
-1.646558 -0.910128 0.278472 128 128 255 -0.872334 -0.485304 -0.059278
-1.579227 -1.023877 0.278577 128 128 255 -0.843687 -0.531875 -0.072802
-1.506614 -1.130835 0.278663 128 128 255 -0.806148 -0.585069 -0.088425
-1.424582 -1.237159 0.278732 128 128 255 -0.755869 -0.646615 -0.102723
-1.333473 -1.333473 0.278784 128 128 255 -0.714681 -0.689830 -0.115611
-1.240332 -1.428199 0.278819 128 128 255 -0.669064 -0.732397 -0.126282
-1.136680 -1.514232 0.278839 128 128 255 -0.607411 -0.782682 -0.135870
-1.029628 -1.591160 0.278844 128 128 255 -0.565882 -0.811337 -0.146662
-0.919649 -1.665270 0.278988 128 128 255 -0.505091 -0.847612 -0.162593
-0.800574 -1.729547 0.279291 128 128 255 -0.441607 -0.881100 -0.169252
-0.681818 -1.783681 0.279577 128 128 255 -0.380376 -0.909134 -0.169677
-0.555038 -1.831842 0.279844 128 128 255 -0.320627 -0.930373 -0.177777
-0.429690 -1.871572 0.280091 128 128 255 -0.267292 -0.945862 -0.184121
-0.297467 -1.904899 0.280315 128 128 255 -0.200508 -0.960646 -0.192238
-0.167854 -1.927227 0.280514 128 128 255 -0.130248 -0.971833 -0.196407
-0.032569 -1.940668 0.280687 128 128 255 -0.064816 -0.977921 -0.198668
0.098889 -1.945156 0.280833 128 128 255 0.000883 -0.980033 -0.198832
0.232569 -1.940668 0.280951 128 128 255 0.066003 -0.977914 -0.198311
0.367854 -1.927227 0.281038 128 128 255 0.131970 -0.971454 -0.197132
0.497467 -1.904899 0.281095 128 128 255 0.204717 -0.959459 -0.193724
0.629690 -1.871572 0.281120 128 128 255 0.266225 -0.945638 -0.186795
0.755038 -1.831842 0.281113 128 128 255 0.324360 -0.928755 -0.179458
0.881818 -1.783681 0.281074 128 128 255 0.377129 -0.910331 -0.170504
1.000574 -1.729547 0.281002 128 128 255 0.442192 -0.881663 -0.164731
1.119649 -1.665270 0.280899 128 128 255 0.513697 -0.842123 -0.164148
1.229628 -1.591160 0.280763 128 128 255 0.562629 -0.813260 -0.148515
1.336680 -1.514232 0.280597 128 128 255 0.606016 -0.783950 -0.134787
1.440331 -1.428199 0.280400 128 128 255 0.671138 -0.730145 -0.128305
1.533473 -1.333473 0.280174 128 128 255 0.715025 -0.689419 -0.115932
1.624582 -1.237159 0.279920 128 128 255 0.756400 -0.645979 -0.102813
1.706614 -1.130835 0.279640 128 128 255 0.807516 -0.583244 -0.088003
1.779227 -1.023877 0.279335 128 128 255 0.841619 -0.535289 -0.071723
1.846558 -0.910128 0.279007 128 128 255 0.874454 -0.481346 -0.060299
1.908339 -0.790115 0.278657 128 128 255 0.902295 -0.428943 -0.043264
1.959894 -0.671044 0.278289 128 128 255 0.935317 -0.352951 -0.024665
2.001031 -0.544579 0.277905 128 128 255 0.956896 -0.290332 -0.007530
2.036042 -0.420170 0.277506 128 128 255 0.972056 -0.234481 0.011252
2.062592 -0.289494 0.277095 128 128 255 0.985027 -0.169914 0.029161
2.080604 -0.162009 0.276676 128 128 255 0.993303 -0.104723 0.048801
2.090044 -0.029396 0.276249 128 128 255 0.996959 -0.039379 0.067245
2.090918 0.098759 0.276050 128 128 255 0.997694 -0.015584 0.066057
2.068148 0.101111 0.448948 128 128 255 0.976501 0.095213 0.193341
2.057246 0.227246 0.447938 128 128 255 0.974369 0.116419 0.192487
2.038043 0.356406 0.446929 128 128 255 0.962068 0.175150 0.209158
2.010706 0.479173 0.445926 128 128 255 0.944311 0.241610 0.223385
1.975435 0.603930 0.444931 128 128 255 0.924634 0.291054 0.245643
1.934678 0.723523 0.443948 128 128 255 0.895861 0.355234 0.266912
1.884248 0.837488 0.442981 128 128 255 0.863772 0.413006 0.288658
1.824425 0.952051 0.442034 128 128 255 0.830799 0.466301 0.303868
1.759956 1.057906 0.441109 128 128 255 0.799065 0.511096 0.316664
1.691165 1.163551 0.440211 128 128 255 0.761920 0.556553 0.331249
1.613951 1.259732 0.439343 128 128 255 0.713737 0.606999 0.349474
1.528671 1.354996 0.438508 128 128 255 0.678388 0.637070 0.365966
1.442364 1.442364 0.437709 128 128 255 0.624318 0.687700 0.370535
1.346526 1.521547 0.436950 128 128 255 0.577334 0.719934 0.385203
1.248220 1.596726 0.436234 128 128 255 0.540279 0.738653 0.403102
1.147849 1.667665 0.435563 128 128 255 0.482262 0.773085 0.412024
1.039158 1.727482 0.434940 128 128 255 0.425632 0.803521 0.416163
0.931454 1.782658 0.434369 128 128 255 0.377467 0.821835 0.426739
0.816271 1.830804 0.433852 128 128 255 0.332365 0.833457 0.441455
0.702926 1.874001 0.433391 128 128 255 0.276599 0.849101 0.450022
0.582959 1.907686 0.432988 128 128 255 0.219175 0.866307 0.448859
0.465692 1.933985 0.432645 128 128 255 0.164105 0.879441 0.446825
0.342671 1.952822 0.432365 128 128 255 0.111051 0.886107 0.449979
0.223221 1.964146 0.432148 128 128 255 0.055217 0.890595 0.451432
0.098889 1.967924 0.431997 128 128 255 0.000616 0.892053 0.451931
-0.023221 1.964146 0.431912 128 128 255 -0.054988 0.890758 0.451140
-0.142671 1.952822 0.431894 128 128 255 -0.108502 0.886493 0.449841
-0.265692 1.933985 0.431945 128 128 255 -0.167253 0.878214 0.448069
-0.382959 1.907686 0.432064 128 128 255 -0.216350 0.867426 0.448067
-0.502926 1.874001 0.432252 128 128 255 -0.274419 0.852598 0.444714
-0.616271 1.830804 0.432508 128 128 255 -0.327257 0.837271 0.438041
-0.731454 1.782658 0.432833 128 128 255 -0.380759 0.820821 0.425765
-0.839158 1.727482 0.433288 128 128 255 -0.426094 0.802636 0.417396
-0.947849 1.667665 0.434011 128 128 255 -0.479371 0.775813 0.410265
-1.048220 1.596726 0.434797 128 128 255 -0.537970 0.742005 0.400022
-1.146526 1.521547 0.435640 128 128 255 -0.572448 0.721357 0.389805
-1.242364 1.442364 0.436538 128 128 255 -0.628944 0.681486 0.374174
-1.328671 1.354996 0.437484 128 128 255 -0.672653 0.644650 0.363269
-1.413951 1.259732 0.438474 128 128 255 -0.711961 0.609195 0.349274
-1.491165 1.163551 0.439504 128 128 255 -0.762962 0.556112 0.329588
-1.559956 1.057906 0.440568 128 128 255 -0.801800 0.509046 0.313033
-1.624425 0.952051 0.441661 128 128 255 -0.827458 0.470359 0.306716
-1.684248 0.837488 0.442778 128 128 255 -0.859776 0.419483 0.291237
-1.734678 0.723523 0.443914 128 128 255 -0.897392 0.352862 0.264908
-1.775435 0.603930 0.445063 128 128 255 -0.924754 0.293009 0.242848
-1.810706 0.479173 0.446220 128 128 255 -0.944897 0.237193 0.225630
-1.838043 0.356406 0.447380 128 128 255 -0.960492 0.180173 0.212117
-1.857246 0.227246 0.448537 128 128 255 -0.974412 0.116338 0.192321
-1.868148 0.100000 0.449687 128 128 255 -0.983396 0.053198 0.173499
-1.870618 -0.028123 0.450824 128 128 255 -0.987878 -0.012204 0.154752
-1.864560 -0.159897 0.451944 128 128 255 -0.987674 -0.077795 0.135826
-1.849913 -0.286972 0.453043 128 128 255 -0.982632 -0.143489 0.117667
-1.826661 -0.417656 0.454115 128 128 255 -0.973628 -0.206357 0.097295
-1.794825 -0.542473 0.455156 128 128 255 -0.960044 -0.268772 0.077954
-1.756693 -0.669718 0.456163 128 128 255 -0.941642 -0.330359 0.064600
-1.707928 -0.789913 0.457131 128 128 255 -0.911935 -0.407467 0.048428
-1.648683 -0.911355 0.458058 128 128 255 -0.883804 -0.466808 0.031331
-1.583598 -1.024575 0.458939 128 128 255 -0.855297 -0.517853 0.017174
-1.512913 -1.135668 0.459771 128 128 255 -0.822600 -0.568604 0.004293
-1.432470 -1.244077 0.460552 128 128 255 -0.771755 -0.635832 -0.010557
-1.342595 -1.342595 0.461279 128 128 255 -0.731236 -0.681735 -0.023059
-1.250326 -1.439595 0.461949 128 128 255 -0.682840 -0.729741 -0.034749
-1.147182 -1.525697 0.462561 128 128 255 -0.624156 -0.780145 -0.042462
-1.040281 -1.607103 0.463113 128 128 255 -0.584602 -0.809547 -0.053611
-0.930108 -1.683385 0.463727 128 128 255 -0.525534 -0.848367 -0.063931
-0.810514 -1.749704 0.464417 128 128 255 -0.453398 -0.888387 -0.072102
-0.690940 -1.805704 0.465039 128 128 255 -0.391192 -0.916965 -0.078381
-0.563074 -1.855515 0.465590 128 128 255 -0.336898 -0.937569 -0.086394
-0.436408 -1.896645 0.466066 128 128 255 -0.274227 -0.957193 -0.092636
-0.302678 -1.931094 0.466464 128 128 255 -0.210689 -0.973109 -0.093106
-0.171411 -1.954239 0.466783 128 128 255 -0.135560 -0.986182 -0.095234
-0.034372 -1.968178 0.467020 128 128 255 -0.067635 -0.992950 -0.097339
0.098889 -1.972833 0.467174 128 128 255 0.000614 -0.995235 -0.097499
0.234372 -1.968178 0.467243 128 128 255 0.068280 -0.992940 -0.096999
0.371411 -1.954239 0.467227 128 128 255 0.136764 -0.985955 -0.095859
0.502678 -1.931094 0.467125 128 128 255 0.209210 -0.973283 -0.094607
0.636408 -1.896645 0.466937 128 128 255 0.280385 -0.955342 -0.093307
0.763074 -1.855515 0.466665 128 128 255 0.335502 -0.938256 -0.084347
0.890940 -1.805704 0.466307 128 128 255 0.392136 -0.916487 -0.079253
1.010514 -1.749704 0.465867 128 128 255 0.454308 -0.887945 -0.071820
1.130108 -1.683385 0.465346 128 128 255 0.526398 -0.847784 -0.064550
1.240281 -1.607103 0.464746 128 128 255 0.586902 -0.807755 -0.055481
1.347182 -1.525697 0.464069 128 128 255 0.621314 -0.782404 -0.042580
1.450325 -1.439595 0.463319 128 128 255 0.684939 -0.727824 -0.033644
1.542595 -1.342595 0.462499 128 128 255 0.731556 -0.681381 -0.023356
1.632470 -1.244077 0.461612 128 128 255 0.772169 -0.635328 -0.010646
1.712913 -1.135668 0.460664 128 128 255 0.822886 -0.568206 0.001297
1.783597 -1.024575 0.459657 128 128 255 0.855528 -0.517469 0.017248
1.848683 -0.911355 0.458597 128 128 255 0.883925 -0.466435 0.033375
1.907928 -0.789913 0.457489 128 128 255 0.912103 -0.407195 0.047542
1.956693 -0.669718 0.456339 128 128 255 0.940956 -0.332667 0.062719
1.994825 -0.542473 0.455151 128 128 255 0.961610 -0.263360 0.077120
2.026661 -0.417656 0.453931 128 128 255 0.972870 -0.208890 0.099444
2.049913 -0.286972 0.452685 128 128 255 0.982740 -0.143476 0.116780
2.064560 -0.159897 0.451420 128 128 255 0.987660 -0.077859 0.135886
2.070618 -0.028123 0.450141 128 128 255 0.988020 -0.012564 0.153812
2.068155 0.098760 0.449042 128 128 255 0.988221 0.011468 0.152601
2.030397 0.101111 0.619317 128 128 255 0.954992 0.116326 0.272870
2.016487 0.224575 0.616827 128 128 255 0.952323 0.143557 0.269208
1.994491 0.348450 0.614345 128 128 255 0.936601 0.195189 0.290998
1.966848 0.472229 0.611882 128 128 255 0.915765 0.258233 0.307717
1.929362 0.588767 0.609446 128 128 255 0.889426 0.319371 0.326992
1.884527 0.706499 0.607048 128 128 255 0.858236 0.375595 0.349799
1.830418 0.816112 0.604698 128 128 255 0.827034 0.426041 0.366748
1.771796 0.926098 0.602405 128 128 255 0.796250 0.470765 0.379954
1.708995 1.027201 0.600180 128 128 255 0.757627 0.517495 0.397744
1.637918 1.127972 0.598030 128 128 255 0.718976 0.555747 0.417395
1.558925 1.221436 0.595965 128 128 255 0.669991 0.607217 0.427082
1.476831 1.307311 0.593994 128 128 255 0.632954 0.633453 0.445091
1.392010 1.392010 0.592124 128 128 255 0.591176 0.660830 0.462401
1.298178 1.468639 0.590364 128 128 255 0.537549 0.704344 0.463617
1.204607 1.536993 0.588721 128 128 255 0.494967 0.727078 0.475778
1.105017 1.603562 0.587202 128 128 255 0.451052 0.743091 0.494335
0.999793 1.661522 0.585814 128 128 255 0.396916 0.771245 0.497632
0.895987 1.712960 0.584562 128 128 255 0.345757 0.792846 0.501844
0.785095 1.755537 0.583452 128 128 255 0.296034 0.808668 0.508350
0.676389 1.793602 0.582488 128 128 255 0.250132 0.815832 0.521394
0.561359 1.824850 0.581676 128 128 255 0.204296 0.821768 0.531941
0.449273 1.851442 0.581019 128 128 255 0.154855 0.829603 0.536450
0.331620 1.868882 0.580520 128 128 255 0.100160 0.837598 0.537027
0.217664 1.879360 0.580181 128 128 255 0.050446 0.840630 0.539256
0.098889 1.882855 0.580005 128 128 255 0.000701 0.842082 0.539349
-0.017664 1.879360 0.579992 128 128 255 -0.049505 0.841038 0.538706
-0.131620 1.868882 0.580143 128 128 255 -0.098782 0.837599 0.537279
-0.249273 1.851442 0.580458 128 128 255 -0.153851 0.832316 0.532522
-0.361359 1.824850 0.580936 128 128 255 -0.201321 0.825537 0.527217
-0.476389 1.793602 0.581576 128 128 255 -0.248598 0.816889 0.520473
-0.585095 1.755537 0.582375 128 128 255 -0.296355 0.805836 0.512643
-0.695987 1.712960 0.583330 128 128 255 -0.344735 0.791570 0.504554
-0.799793 1.661522 0.584485 128 128 255 -0.398699 0.770351 0.497593
-0.905017 1.603562 0.585941 128 128 255 -0.439364 0.752429 0.490725
-1.004607 1.536993 0.587539 128 128 255 -0.501145 0.723851 0.474229
-1.098178 1.468639 0.589270 128 128 255 -0.538481 0.701926 0.466196
-1.192010 1.392010 0.591127 128 128 255 -0.583972 0.670324 0.457867
-1.276831 1.307311 0.593102 128 128 255 -0.635241 0.633116 0.442303
-1.358925 1.221436 0.595185 128 128 255 -0.669037 0.604754 0.432044
-1.437918 1.127972 0.597367 128 128 255 -0.711396 0.564344 0.418845
-1.508994 1.027201 0.599638 128 128 255 -0.761699 0.514744 0.393514
-1.571796 0.926098 0.601988 128 128 255 -0.798658 0.468682 0.377468
-1.630418 0.816112 0.604406 128 128 255 -0.822948 0.431312 0.369765
-1.684527 0.706499 0.606882 128 128 255 -0.854798 0.380258 0.353164
-1.729362 0.588767 0.609404 128 128 255 -0.889438 0.318256 0.328044
-1.766848 0.472229 0.611961 128 128 255 -0.917200 0.256692 0.304719
-1.794491 0.348450 0.614543 128 128 255 -0.937111 0.198724 0.286935
-1.816487 0.224575 0.617138 128 128 255 -0.952010 0.139871 0.272235
-1.830397 0.100000 0.619735 128 128 255 -0.962690 0.080485 0.258362
-1.836037 -0.025856 0.622322 128 128 255 -0.970625 0.015948 0.240069
-1.833256 -0.155775 0.624889 128 128 255 -0.973766 -0.048857 0.222246
-1.821943 -0.281408 0.627424 128 128 255 -0.972818 -0.112782 0.202251
-1.802028 -0.411056 0.629918 128 128 255 -0.967406 -0.174427 0.183576
-1.775705 -0.535228 0.632360 128 128 255 -0.955800 -0.242645 0.166041
-1.738548 -0.662203 0.634739 128 128 255 -0.939266 -0.307272 0.152851
-1.692844 -0.782474 0.637046 128 128 255 -0.912705 -0.384648 0.137895
-1.636483 -0.904312 0.639271 128 128 255 -0.889118 -0.440227 0.125174
-1.574072 -1.020433 0.641406 128 128 255 -0.860757 -0.497635 0.107033
-1.505822 -1.130227 0.643442 128 128 255 -0.829346 -0.550679 0.094543
-1.427550 -1.239762 0.645370 128 128 255 -0.780950 -0.619090 0.082737
-1.339567 -1.339567 0.647183 128 128 255 -0.741456 -0.667258 0.070777
-1.248898 -1.437968 0.648873 128 128 255 -0.695301 -0.716343 0.058386
-1.147061 -1.525538 0.650435 128 128 255 -0.632231 -0.773384 0.046498
-1.041173 -1.608438 0.651862 128 128 255 -0.597644 -0.800751 0.040247
-0.931728 -1.686192 0.653242 128 128 255 -0.536617 -0.843214 0.032137
-0.812593 -1.753921 0.654582 128 128 255 -0.464081 -0.885457 0.024398
-0.693228 -1.811229 0.655769 128 128 255 -0.400935 -0.915920 0.018512
-0.565347 -1.862211 0.656798 128 128 255 -0.347860 -0.937437 0.014352
-0.438472 -1.906568 0.657663 128 128 255 -0.284013 -0.958782 0.008602
-0.304370 -1.939602 0.658361 128 128 255 -0.211080 -0.977465 0.002701
-0.172609 -1.963341 0.658889 128 128 255 -0.139454 -0.990225 0.002625
-0.034992 -1.977641 0.659242 128 128 255 -0.069728 -0.997566 0.000602
0.098889 -1.982417 0.659420 128 128 255 0.000370 -1.000000 0.000488
0.234992 -1.977641 0.659422 128 128 255 0.069880 -0.997555 0.000968
0.372609 -1.963341 0.659246 128 128 255 0.140183 -0.990124 0.002026
0.504370 -1.939602 0.658893 128 128 255 0.211810 -0.977286 0.006962
0.638472 -1.906568 0.658364 128 128 255 0.284650 -0.958599 0.007909
0.765347 -1.862211 0.657662 128 128 255 0.348436 -0.937266 0.011138
0.893228 -1.811229 0.656789 128 128 255 0.401503 -0.915686 0.017731
1.012594 -1.753921 0.655749 128 128 255 0.464588 -0.885179 0.024801
1.131728 -1.686192 0.654546 128 128 255 0.537152 -0.842892 0.031635
1.241173 -1.608438 0.653185 128 128 255 0.596268 -0.801860 0.038534
1.347061 -1.525538 0.651672 128 128 255 0.635890 -0.770379 0.046467
1.448898 -1.437968 0.650013 128 128 255 0.694227 -0.717291 0.059513
1.539567 -1.339567 0.648216 128 128 255 0.741701 -0.667012 0.070527
1.627550 -1.239762 0.646289 128 128 255 0.781202 -0.618780 0.082671
1.705822 -1.130227 0.644240 128 128 255 0.828655 -0.551670 0.094823
1.774072 -1.020433 0.642077 128 128 255 0.862919 -0.493689 0.107899
1.836483 -0.904312 0.639812 128 128 255 0.887206 -0.444620 0.123199
1.892844 -0.782474 0.637453 128 128 255 0.914512 -0.380589 0.137185
1.938548 -0.662203 0.635011 128 128 255 0.937105 -0.312982 0.154519
1.975705 -0.535228 0.632496 128 128 255 0.957545 -0.237463 0.163462
2.002028 -0.411056 0.629922 128 128 255 0.967956 -0.173876 0.181186
2.021943 -0.281408 0.627297 128 128 255 0.972358 -0.114339 0.203584
2.033256 -0.155775 0.624635 128 128 255 0.973839 -0.049688 0.221741
2.036036 -0.025856 0.621948 128 128 255 0.970840 0.015371 0.239237
2.030407 0.098762 0.619390 128 128 255 0.970524 0.039384 0.237764
1.977948 0.101111 0.785745 128 128 255 0.924883 0.137327 0.354587
1.963581 0.223184 0.781258 128 128 255 0.921262 0.164833 0.352288
1.939177 0.340875 0.776787 128 128 255 0.900365 0.229223 0.369864
1.907223 0.460369 0.772352 128 128 255 0.875207 0.280498 0.394124
1.868007 0.572327 0.767971 128 128 255 0.844977 0.341557 0.411526
1.819621 0.685221 0.763662 128 128 255 0.816252 0.389966 0.426215
1.766840 0.789777 0.759444 128 128 255 0.786076 0.433881 0.440263
1.710012 0.894533 0.755334 128 128 255 0.751588 0.477393 0.455205
1.645053 0.990284 0.751350 128 128 255 0.705223 0.528881 0.472171
1.572329 1.083410 0.747509 128 128 255 0.671224 0.554478 0.491947
1.496659 1.173658 0.743827 128 128 255 0.628066 0.594032 0.502652
1.418418 1.254136 0.740319 128 128 255 0.580254 0.632116 0.513551
1.331317 1.331317 0.737001 128 128 255 0.544254 0.647752 0.533109
1.242395 1.405030 0.733887 128 128 255 0.499913 0.672831 0.545330
1.152023 1.470686 0.730989 128 128 255 0.447552 0.705110 0.550015
1.053899 1.528163 0.728321 128 128 255 0.403113 0.722050 0.562267
0.957271 1.581802 0.725893 128 128 255 0.362896 0.731542 0.577193
0.855824 1.631518 0.723717 128 128 255 0.317830 0.745855 0.585393
0.749903 1.672798 0.721802 128 128 255 0.268818 0.764688 0.585653
0.646512 1.707809 0.720155 128 128 255 0.220754 0.778604 0.587404
0.537092 1.734285 0.718785 128 128 255 0.175356 0.786843 0.591716
0.430858 1.756638 0.717696 128 128 255 0.137529 0.787589 0.600658
0.319240 1.772620 0.716895 128 128 255 0.089908 0.791638 0.604339
0.211442 1.782216 0.716385 128 128 255 0.045355 0.793906 0.606347
0.098889 1.785416 0.716168 128 128 255 0.000823 0.795033 0.606565
-0.011442 1.782216 0.716246 128 128 255 -0.044135 0.794287 0.605938
-0.119240 1.772620 0.716618 128 128 255 -0.088305 0.791774 0.604397
-0.230858 1.756638 0.717283 128 128 255 -0.132986 0.787891 0.601284
-0.337092 1.734285 0.718239 128 128 255 -0.175754 0.783602 0.595884
-0.446512 1.707809 0.719482 128 128 255 -0.220073 0.776658 0.590229
-0.549903 1.672798 0.721007 128 128 255 -0.270054 0.764431 0.585420
-0.655824 1.631518 0.722808 128 128 255 -0.311262 0.751755 0.581361
-0.757271 1.581802 0.724908 128 128 255 -0.365427 0.735241 0.570862
-0.853899 1.528163 0.727368 128 128 255 -0.397896 0.723455 0.564173
-0.952023 1.470686 0.730077 128 128 255 -0.447782 0.702413 0.553270
-1.042395 1.405030 0.733022 128 128 255 -0.501863 0.675384 0.540361
-1.131317 1.331317 0.736192 128 128 255 -0.535406 0.655348 0.532784
-1.218418 1.254136 0.739570 128 128 255 -0.582791 0.628809 0.514737
-1.296659 1.173658 0.743144 128 128 255 -0.632164 0.592499 0.499312
-1.372329 1.083410 0.746897 128 128 255 -0.663444 0.562936 0.492895
-1.445053 0.990284 0.750813 128 128 255 -0.702684 0.528835 0.475991
-1.510012 0.894533 0.754874 128 128 255 -0.752852 0.476615 0.453929
-1.566840 0.789777 0.759063 128 128 255 -0.789001 0.431563 0.437299
-1.619621 0.685221 0.763362 128 128 255 -0.811575 0.395413 0.430109
-1.668007 0.572327 0.767751 128 128 255 -0.842918 0.342444 0.414996
-1.707223 0.460369 0.772212 128 128 255 -0.872656 0.286880 0.395185
-1.739177 0.340875 0.776725 128 128 255 -0.900820 0.225764 0.370884
-1.763581 0.223184 0.781272 128 128 255 -0.922380 0.164340 0.349581
-1.777948 0.100000 0.785831 128 128 255 -0.937444 0.102213 0.332794
-1.786491 -0.024831 0.790385 128 128 255 -0.947089 0.045853 0.317679
-1.786791 -0.147436 0.794913 128 128 255 -0.953534 -0.018636 0.300710
-1.778686 -0.275026 0.799396 128 128 255 -0.955092 -0.078725 0.285659
-1.764282 -0.398124 0.803815 128 128 255 -0.952154 -0.143301 0.269938
-1.739060 -0.525011 0.808152 128 128 255 -0.942808 -0.214014 0.255562
-1.705216 -0.646174 0.812387 128 128 255 -0.927672 -0.281664 0.245131
-1.662774 -0.769867 0.816504 128 128 255 -0.906903 -0.352358 0.231021
-1.609586 -0.886560 0.820485 128 128 255 -0.885773 -0.412378 0.212955
-1.550225 -1.004498 0.824313 128 128 255 -0.860502 -0.469379 0.198039
-1.484874 -1.114153 0.827973 128 128 255 -0.827521 -0.528391 0.189767
-1.409325 -1.223780 0.831449 128 128 255 -0.784438 -0.593799 0.179050
-1.323872 -1.323872 0.834726 128 128 255 -0.744039 -0.647170 0.166066
-1.235526 -1.422719 0.837792 128 128 255 -0.704089 -0.692445 0.157412
-1.135796 -1.513080 0.840632 128 128 255 -0.639838 -0.755456 0.141044
-1.031799 -1.594409 0.843237 128 128 255 -0.597450 -0.790577 0.134316
-0.924031 -1.672861 0.845656 128 128 255 -0.544810 -0.828081 0.132150
-0.806369 -1.741299 0.847886 128 128 255 -0.472839 -0.872907 0.120237
-0.688285 -1.799295 0.849850 128 128 255 -0.404893 -0.907353 0.113013
-0.561512 -1.850915 0.851537 128 128 255 -0.348538 -0.930715 0.110860
-0.435594 -1.893607 0.852940 128 128 255 -0.288517 -0.950838 0.112543
-0.302325 -1.929323 0.854054 128 128 255 -0.219948 -0.969409 0.108946
-0.171300 -1.953403 0.854872 128 128 255 -0.142088 -0.984612 0.101733
-0.034354 -1.967913 0.855392 128 128 255 -0.071177 -0.992457 0.099814
0.098889 -1.972760 0.855609 128 128 255 0.000149 -0.995012 0.099755
0.234354 -1.967913 0.855525 128 128 255 0.070883 -0.992438 0.100208
0.371300 -1.953403 0.855137 128 128 255 0.145049 -0.984051 0.102979
0.502325 -1.929323 0.854448 128 128 255 0.217621 -0.970082 0.107622
0.635594 -1.893607 0.853461 128 128 255 0.286349 -0.951765 0.110217
0.761512 -1.850915 0.852179 128 128 255 0.348714 -0.930606 0.111227
0.888285 -1.799295 0.850607 128 128 255 0.409700 -0.905266 0.112429
1.006369 -1.741299 0.848753 128 128 255 0.472820 -0.872380 0.124072
1.124031 -1.672861 0.846625 128 128 255 0.539985 -0.831456 0.130756
1.231799 -1.594409 0.844230 128 128 255 0.600317 -0.788459 0.133984
1.335796 -1.513080 0.841580 128 128 255 0.643206 -0.752054 0.143876
1.435526 -1.422719 0.838686 128 128 255 0.700318 -0.696658 0.155639
1.523872 -1.323872 0.835560 128 128 255 0.746705 -0.644104 0.166018
1.609325 -1.223780 0.832215 128 128 255 0.781797 -0.597213 0.179246
1.684874 -1.114153 0.828667 128 128 255 0.828151 -0.528848 0.185701
1.750225 -1.004498 0.824930 128 128 255 0.863635 -0.464008 0.197055
1.809586 -0.886560 0.821021 128 128 255 0.883537 -0.415130 0.216863
1.862774 -0.769867 0.816957 128 128 255 0.906509 -0.353586 0.230691
1.905216 -0.646174 0.812754 128 128 255 0.928030 -0.282675 0.242601
1.939060 -0.525011 0.808432 128 128 255 0.942343 -0.214395 0.256953
1.964282 -0.398124 0.804009 128 128 255 0.953003 -0.142699 0.267250
1.978686 -0.275026 0.799505 128 128 255 0.956435 -0.078491 0.281195
1.986791 -0.147436 0.794938 128 128 255 0.953818 -0.019389 0.299759
1.986491 -0.024831 0.790330 128 128 255 0.947468 0.044905 0.316683
1.977961 0.098766 0.785796 128 128 255 0.945891 0.067693 0.317345
1.913422 0.101111 0.946967 128 128 255 0.881175 0.178124 0.437952
1.894566 0.218660 0.940025 128 128 255 0.878203 0.194902 0.436776
1.868222 0.331533 0.933109 128 128 255 0.853660 0.257093 0.452955
1.832471 0.445942 0.926250 128 128 255 0.828992 0.307871 0.466892
1.792081 0.552578 0.919477 128 128 255 0.800584 0.355784 0.482165
1.745177 0.659951 0.912819 128 128 255 0.771095 0.400057 0.495346
1.694342 0.758827 0.906304 128 128 255 0.733912 0.447649 0.510865
1.635503 0.857789 0.899961 128 128 255 0.696001 0.482546 0.531726
1.569039 0.949902 0.893815 128 128 255 0.651345 0.531415 0.541616
1.499776 1.034932 0.887894 128 128 255 0.615734 0.556928 0.557408
1.428096 1.119342 0.882222 128 128 255 0.578295 0.580002 0.573736
1.347711 1.196299 0.876824 128 128 255 0.529014 0.619159 0.580334
1.265659 1.265659 0.871724 128 128 255 0.487711 0.641967 0.591622
1.182306 1.331755 0.866942 128 128 255 0.449599 0.652134 0.610395
1.091337 1.394494 0.862500 128 128 255 0.407579 0.667856 0.622774
0.999762 1.449363 0.858417 128 128 255 0.357685 0.694901 0.623838
0.907911 1.496307 0.854709 128 128 255 0.316705 0.706842 0.632513
0.809435 1.539734 0.851394 128 128 255 0.278456 0.710475 0.646288
0.713529 1.577396 0.848484 128 128 255 0.239900 0.714260 0.657480
0.613819 1.611499 0.845994 128 128 255 0.199185 0.720942 0.663753
0.510587 1.637588 0.843933 128 128 255 0.153638 0.731987 0.663770
0.410772 1.657880 0.842310 128 128 255 0.117241 0.735831 0.666939
0.305750 1.672375 0.841134 128 128 255 0.078278 0.739159 0.668967
0.204667 1.681071 0.840408 128 128 255 0.039573 0.740267 0.671147
0.098889 1.683970 0.840136 128 128 255 0.000984 0.741272 0.671204
-0.004667 1.681071 0.840320 128 128 255 -0.037999 0.740862 0.670582
-0.105750 1.672375 0.840959 128 128 255 -0.076335 0.739116 0.669239
-0.210772 1.657880 0.842050 128 128 255 -0.115338 0.736995 0.665985
-0.310587 1.637588 0.843589 128 128 255 -0.155238 0.732616 0.662702
-0.413819 1.611499 0.845569 128 128 255 -0.193848 0.726263 0.659518
-0.513529 1.577396 0.847983 128 128 255 -0.240682 0.718860 0.652160
-0.609435 1.539734 0.850819 128 128 255 -0.274173 0.713230 0.645083
-0.707911 1.496307 0.854081 128 128 255 -0.315956 0.704700 0.635271
-0.799762 1.449363 0.857785 128 128 255 -0.362720 0.690873 0.625403
-0.891337 1.394494 0.861870 128 128 255 -0.397993 0.675645 0.620569
-0.982306 1.331755 0.866319 128 128 255 -0.448119 0.656011 0.607322
-1.065660 1.265659 0.871111 128 128 255 -0.491843 0.638239 0.592234
-1.147711 1.196299 0.876227 128 128 255 -0.523978 0.618961 0.585094
-1.228096 1.119342 0.881645 128 128 255 -0.573523 0.586156 0.572269
-1.299776 1.034932 0.887339 128 128 255 -0.620437 0.555107 0.553998
-1.369038 0.949902 0.893287 128 128 255 -0.648690 0.530909 0.545287
-1.435503 0.857789 0.899462 128 128 255 -0.688550 0.492858 0.531968
-1.494342 0.758827 0.905838 128 128 255 -0.739303 0.441939 0.508057
-1.545177 0.659951 0.912387 128 128 255 -0.772342 0.401022 0.492615
-1.592081 0.552578 0.919080 128 128 255 -0.799864 0.357266 0.482264
-1.632471 0.445942 0.925889 128 128 255 -0.824559 0.311064 0.472591
-1.668222 0.331533 0.932785 128 128 255 -0.851441 0.258113 0.456537
-1.694566 0.218660 0.939737 128 128 255 -0.876107 0.197937 0.439611
-1.713422 0.100000 0.946717 128 128 255 -0.897280 0.134465 0.420485
-1.724518 -0.020624 0.953694 128 128 255 -0.912649 0.080629 0.400713
-1.727614 -0.139353 0.960637 128 128 255 -0.923187 0.011788 0.384170
-1.722508 -0.263410 0.967519 128 128 255 -0.926957 -0.049362 0.371905
-1.709040 -0.383322 0.974308 128 128 255 -0.925911 -0.111372 0.360950
-1.687095 -0.507371 0.980977 128 128 255 -0.920119 -0.179600 0.348029
-1.656606 -0.626039 0.987498 128 128 255 -0.909031 -0.250761 0.332838
-1.615337 -0.747570 0.993841 128 128 255 -0.894888 -0.313802 0.317339
-1.567772 -0.862419 0.999981 128 128 255 -0.877115 -0.374136 0.301151
-1.514009 -0.978815 1.005891 128 128 255 -0.851471 -0.437631 0.288922
-1.449757 -1.087207 1.011547 128 128 255 -0.817478 -0.502789 0.280951
-1.375229 -1.195827 1.016925 128 128 255 -0.782955 -0.561048 0.268715
-1.295143 -1.295143 1.022001 128 128 255 -0.740458 -0.622004 0.254621
-1.209827 -1.391194 1.026754 128 128 255 -0.702963 -0.665317 0.251388
-1.113003 -1.483376 1.031165 128 128 255 -0.649051 -0.721857 0.240117
-1.014003 -1.564449 1.035214 128 128 255 -0.590841 -0.773690 0.228716
-0.906654 -1.640540 1.038912 128 128 255 -0.546589 -0.805694 0.228247
-0.791502 -1.711151 1.042248 128 128 255 -0.482392 -0.848159 0.218916
-0.675803 -1.771384 1.045175 128 128 255 -0.410054 -0.887697 0.209402
-0.551302 -1.820836 1.047680 128 128 255 -0.344187 -0.916441 0.204136
-0.427555 -1.863604 1.049753 128 128 255 -0.283435 -0.936628 0.205896
-0.296373 -1.897175 1.051384 128 128 255 -0.221724 -0.952773 0.207514
-0.167369 -1.923542 1.052567 128 128 255 -0.148644 -0.966800 0.207853
-0.032400 -1.938095 1.053296 128 128 255 -0.071932 -0.976254 0.204336
0.098889 -1.942958 1.053568 128 128 255 -0.000039 -0.978891 0.204384
0.232400 -1.938095 1.053381 128 128 255 0.071254 -0.976210 0.204784
0.367369 -1.923542 1.052736 128 128 255 0.148654 -0.967650 0.203851
0.496373 -1.897175 1.051636 128 128 255 0.219082 -0.953622 0.206419
0.627555 -1.863604 1.050085 128 128 255 0.283355 -0.936760 0.205405
0.751302 -1.820836 1.048090 128 128 255 0.346336 -0.915134 0.206352
0.875803 -1.771384 1.045659 128 128 255 0.411106 -0.887109 0.209831
0.991502 -1.711151 1.042803 128 128 255 0.485941 -0.846623 0.217005
1.106654 -1.640540 1.039533 128 128 255 0.535729 -0.812758 0.228952
1.214003 -1.564449 1.035864 128 128 255 0.599985 -0.766609 0.228755
1.313003 -1.483376 1.031811 128 128 255 0.647651 -0.723314 0.239510
1.409827 -1.391194 1.027391 128 128 255 0.697995 -0.671562 0.248611
1.495143 -1.295143 1.022624 128 128 255 0.747997 -0.613187 0.253974
1.575230 -1.195827 1.017530 128 128 255 0.778367 -0.565376 0.272937
1.649757 -1.087207 1.012130 128 128 255 0.814328 -0.506502 0.283419
1.714009 -0.978815 1.006448 128 128 255 0.854356 -0.434150 0.285639
1.767772 -0.862419 1.000508 128 128 255 0.880175 -0.370431 0.296771
1.815337 -0.747570 0.994336 128 128 255 0.891911 -0.318651 0.320869
1.856606 -0.626039 0.987958 128 128 255 0.908130 -0.250818 0.335245
1.887095 -0.507371 0.981401 128 128 255 0.920025 -0.180217 0.347959
1.909040 -0.383322 0.974694 128 128 255 0.925281 -0.114672 0.361533
1.922508 -0.263410 0.967866 128 128 255 0.926996 -0.050037 0.371718
1.927614 -0.139353 0.960945 128 128 255 0.923878 0.016487 0.382331
1.924518 -0.020624 0.953962 128 128 255 0.912374 0.077311 0.401991
1.913437 0.098770 0.946995 128 128 255 0.912659 0.097679 0.396878
1.830661 0.101111 1.101757 128 128 255 0.837068 0.204417 0.507475
1.810022 0.213265 1.091987 128 128 255 0.832056 0.227336 0.505965
1.782274 0.320511 1.082258 128 128 255 0.806821 0.278467 0.521053
1.747748 0.429090 1.072609 128 128 255 0.780134 0.326466 0.533677
1.709021 0.529727 1.063083 128 128 255 0.747071 0.374289 0.549357
1.662019 0.630968 1.053720 128 128 255 0.713368 0.413325 0.565922
1.609345 0.725842 1.044560 128 128 255 0.672967 0.463912 0.576109
1.549167 0.814087 1.035643 128 128 255 0.634662 0.495557 0.592982
1.486322 0.902146 1.027006 128 128 255 0.596639 0.523452 0.608293
1.421198 0.980943 1.018687 128 128 255 0.552319 0.560878 0.616733
1.347514 1.056993 1.010722 128 128 255 0.517338 0.572689 0.635916
1.272312 1.130176 1.003144 128 128 255 0.478012 0.593312 0.647677
1.195958 1.195958 0.995987 128 128 255 0.430780 0.624020 0.651941
1.114357 1.254274 0.989280 128 128 255 0.390529 0.639206 0.662497
1.027844 1.309526 0.983053 128 128 255 0.354948 0.644188 0.677520
0.943404 1.361692 0.977333 128 128 255 0.315844 0.649759 0.691416
0.854673 1.406319 0.972143 128 128 255 0.271482 0.664194 0.696522
0.761934 1.445633 0.967507 128 128 255 0.235168 0.674445 0.699871
0.672119 1.477425 0.963443 128 128 255 0.197872 0.680474 0.705551
0.576592 1.506156 0.959971 128 128 255 0.168190 0.678415 0.715168
0.482254 1.529627 0.957104 128 128 255 0.132277 0.680696 0.720525
0.389329 1.547856 0.954855 128 128 255 0.098347 0.681987 0.724722
0.291361 1.560863 0.953234 128 128 255 0.065532 0.683487 0.727015
0.197445 1.568660 0.952248 128 128 255 0.033184 0.683704 0.729005
0.098889 1.571259 0.951901 128 128 255 0.001024 0.684180 0.729312
0.002555 1.568660 0.952194 128 128 255 -0.031467 0.684010 0.728794
-0.091361 1.560863 0.953127 128 128 255 -0.063487 0.683283 0.727388
-0.189329 1.547856 0.954696 128 128 255 -0.095930 0.682678 0.724395
-0.282254 1.529627 0.956894 128 128 255 -0.131757 0.680787 0.720534
-0.376592 1.506156 0.959711 128 128 255 -0.161386 0.678571 0.716586
-0.472119 1.477425 0.963137 128 128 255 -0.199023 0.675178 0.710299
-0.561934 1.445633 0.967155 128 128 255 -0.231783 0.671386 0.703930
-0.654673 1.406319 0.971752 128 128 255 -0.268216 0.665768 0.696285
-0.743404 1.361692 0.976916 128 128 255 -0.314336 0.656335 0.685870
-0.827844 1.309526 0.982613 128 128 255 -0.356032 0.645388 0.675808
-0.914356 1.254274 0.988820 128 128 255 -0.383420 0.638895 0.666935
-0.995958 1.195958 0.995510 128 128 255 -0.434489 0.619919 0.653390
-1.072312 1.130176 1.002654 128 128 255 -0.478034 0.597350 0.643938
-1.147514 1.056993 1.010222 128 128 255 -0.508721 0.580520 0.635767
-1.221198 0.980943 1.018180 128 128 255 -0.554746 0.555209 0.619677
-1.286322 0.902146 1.026495 128 128 255 -0.598388 0.526202 0.604189
-1.349167 0.814087 1.035130 128 128 255 -0.630060 0.499232 0.594803
-1.409345 0.725842 1.044049 128 128 255 -0.668454 0.461928 0.582917
-1.462019 0.630968 1.053213 128 128 255 -0.710953 0.418549 0.565122
-1.509021 0.529727 1.062583 128 128 255 -0.751056 0.373283 0.544587
-1.547748 0.429090 1.072118 128 128 255 -0.782731 0.325998 0.530149
-1.582274 0.320511 1.081777 128 128 255 -0.806695 0.282628 0.519003
-1.610022 0.213265 1.091518 128 128 255 -0.831366 0.225019 0.508131
-1.630661 0.100000 1.101301 128 128 255 -0.851298 0.168863 0.496766
-1.643884 -0.015484 1.111083 128 128 255 -0.867369 0.118097 0.483450
-1.651640 -0.129350 1.120822 128 128 255 -0.881816 0.051133 0.468812
-1.647026 -0.248837 1.130476 128 128 255 -0.890965 -0.017147 0.453749
-1.636512 -0.364484 1.140005 128 128 255 -0.893825 -0.075414 0.442028
-1.617726 -0.484578 1.149367 128 128 255 -0.893567 -0.137934 0.427214
-1.590567 -0.599605 1.158523 128 128 255 -0.887448 -0.206622 0.412000
-1.554988 -0.717809 1.167435 128 128 255 -0.876745 -0.269848 0.398121
-1.513219 -0.829640 1.176063 128 128 255 -0.858508 -0.335565 0.387764
-1.460884 -0.943318 1.184371 128 128 255 -0.833819 -0.400246 0.380196
-1.398111 -1.049282 1.192324 128 128 255 -0.803575 -0.467374 0.368549
-1.329532 -1.155751 1.199888 128 128 255 -0.777757 -0.516449 0.358294
-1.255399 -1.255399 1.207031 128 128 255 -0.732651 -0.585953 0.346241
-1.171580 -1.347582 1.213722 128 128 255 -0.690146 -0.637483 0.342510
-1.078449 -1.438344 1.219934 128 128 255 -0.649707 -0.682147 0.335495
-0.983103 -1.520426 1.225638 128 128 255 -0.586251 -0.742248 0.324618
-0.877141 -1.593271 1.230818 128 128 255 -0.538144 -0.778846 0.322180
-0.769992 -1.663028 1.235451 128 128 255 -0.485749 -0.814328 0.317674
-0.655580 -1.722561 1.239512 128 128 255 -0.415779 -0.854895 0.310296
-0.534538 -1.773672 1.242982 128 128 255 -0.342305 -0.890023 0.301141
-0.414204 -1.813778 1.245846 128 128 255 -0.277856 -0.912966 0.298814
-0.286396 -1.847019 1.248093 128 128 255 -0.213798 -0.929840 0.299479
-0.160736 -1.870936 1.249713 128 128 255 -0.146304 -0.942006 0.302027
-0.029089 -1.885356 1.250698 128 128 255 -0.072146 -0.950552 0.302070
0.098889 -1.890174 1.251045 128 128 255 -0.000227 -0.953286 0.302070
0.229089 -1.885356 1.250751 128 128 255 0.071084 -0.950524 0.302408
0.360736 -1.870936 1.249819 128 128 255 0.142743 -0.942269 0.302909
0.486396 -1.847019 1.248250 128 128 255 0.215157 -0.929412 0.299836
0.614204 -1.813778 1.246054 128 128 255 0.276766 -0.912877 0.300093
0.734538 -1.773672 1.243238 128 128 255 0.347838 -0.887432 0.302444
0.855580 -1.722561 1.239815 128 128 255 0.410909 -0.856777 0.311587
0.969992 -1.663028 1.235799 128 128 255 0.486374 -0.814730 0.315681
1.077141 -1.593271 1.231207 128 128 255 0.534135 -0.782101 0.320963
1.183103 -1.520426 1.226059 128 128 255 0.592005 -0.737065 0.325982
1.278449 -1.438344 1.220377 128 128 255 0.646392 -0.685234 0.335606
1.371580 -1.347582 1.214185 128 128 255 0.685589 -0.642052 0.343127
1.455399 -1.255399 1.207510 128 128 255 0.738830 -0.579527 0.343918
1.529532 -1.155751 1.200380 128 128 255 0.777982 -0.519514 0.353339
1.598111 -1.049282 1.192825 128 128 255 0.802959 -0.466603 0.370862
1.660884 -0.943318 1.184879 128 128 255 0.828458 -0.407615 0.384067
1.713219 -0.829640 1.176574 128 128 255 0.862288 -0.331420 0.382909
1.754988 -0.717809 1.167946 128 128 255 0.879169 -0.269047 0.393287
1.790567 -0.599605 1.159033 128 128 255 0.887634 -0.207556 0.411129
1.817726 -0.484578 1.149872 128 128 255 0.892142 -0.141200 0.429123
1.836512 -0.364484 1.140502 128 128 255 0.894092 -0.076345 0.441328
1.847026 -0.248837 1.130965 128 128 255 0.889170 -0.017765 0.457232
1.851640 -0.129350 1.121299 128 128 255 0.882199 0.050096 0.468204
1.843884 -0.015484 1.111548 128 128 255 0.869198 0.117364 0.480334
1.830678 0.098776 1.101771 128 128 255 0.866078 0.130206 0.482654
1.736943 0.101111 1.248936 128 128 255 0.786242 0.233393 0.572146
1.717287 0.207041 1.236102 128 128 255 0.779413 0.256915 0.571411
1.688724 0.307902 1.223320 128 128 255 0.750004 0.307098 0.585820
1.653831 0.409966 1.210645 128 128 255 0.719312 0.353523 0.598007
1.612980 0.503993 1.198130 128 128 255 0.683063 0.399954 0.611116
1.564335 0.596341 1.185831 128 128 255 0.649067 0.433385 0.625211
1.512737 0.686746 1.173797 128 128 255 0.612198 0.465636 0.639059
1.458583 0.768320 1.162083 128 128 255 0.568523 0.507630 0.647374
1.397826 0.847548 1.150736 128 128 255 0.532971 0.524580 0.663896
1.330858 0.924287 1.139806 128 128 255 0.490695 0.553647 0.672825
1.262505 0.991763 1.129340 128 128 255 0.449597 0.576335 0.682422
1.193134 1.056568 1.119382 128 128 255 0.414764 0.579543 0.701499
1.118655 1.118655 1.109975 128 128 255 0.371583 0.593693 0.713761
1.039402 1.173561 1.101159 128 128 255 0.332118 0.609631 0.719755
0.962356 1.223507 1.092972 128 128 255 0.293734 0.623047 0.724936
0.881143 1.266289 1.085449 128 128 255 0.257799 0.625098 0.736744
0.796036 1.306382 1.078622 128 128 255 0.223490 0.624408 0.748443
0.713951 1.341605 1.072521 128 128 255 0.195957 0.621182 0.758771
0.628452 1.374225 1.067171 128 128 255 0.162962 0.624935 0.763479
0.539750 1.399845 1.062596 128 128 255 0.132818 0.628600 0.766304
0.454703 1.420733 1.058816 128 128 255 0.105159 0.627678 0.771338
0.366822 1.436931 1.055847 128 128 255 0.077343 0.626799 0.775333
0.276273 1.448474 1.053702 128 128 255 0.051572 0.626710 0.777544
0.189875 1.455389 1.052390 128 128 255 0.026080 0.625521 0.779771
0.098889 1.457692 1.051917 128 128 255 0.000898 0.625780 0.779999
0.010125 1.455389 1.052285 128 128 255 -0.024553 0.625868 0.779543
-0.076273 1.448474 1.053494 128 128 255 -0.049895 0.625848 0.778348
-0.166822 1.436931 1.055538 128 128 255 -0.074479 0.626569 0.775799
-0.254703 1.420733 1.058408 128 128 255 -0.104442 0.627273 0.771764
-0.339750 1.399845 1.062093 128 128 255 -0.130694 0.627728 0.767383
-0.428452 1.374225 1.066577 128 128 255 -0.162584 0.627253 0.761656
-0.513951 1.341605 1.071842 128 128 255 -0.193999 0.626204 0.755138
-0.596036 1.306382 1.077884 128 128 255 -0.221691 0.624748 0.748695
-0.681143 1.266289 1.084724 128 128 255 -0.248621 0.623664 0.741101
-0.762356 1.223507 1.092266 128 128 255 -0.296419 0.616600 0.729342
-0.839402 1.173561 1.100478 128 128 255 -0.329632 0.610538 0.720129
-0.918655 1.118655 1.109325 128 128 255 -0.364648 0.599432 0.712540
-0.993134 1.056568 1.118768 128 128 255 -0.413863 0.583831 0.698469
-1.062505 0.991763 1.128767 128 128 255 -0.452629 0.571950 0.684106
-1.130858 0.924287 1.139278 128 128 255 -0.485974 0.554840 0.675264
-1.197827 0.847548 1.150256 128 128 255 -0.526578 0.532085 0.663024
-1.258583 0.768320 1.161654 128 128 255 -0.575123 0.502676 0.645407
-1.312737 0.686746 1.173422 128 128 255 -0.612093 0.470562 0.635542
-1.364335 0.596341 1.185510 128 128 255 -0.645202 0.435098 0.628017
-1.412980 0.503993 1.197865 128 128 255 -0.677095 0.403697 0.615282
-1.453831 0.409966 1.210435 128 128 255 -0.718316 0.352744 0.599662
-1.488724 0.307902 1.223164 128 128 255 -0.750327 0.311453 0.583100
-1.517287 0.207041 1.235999 128 128 255 -0.782934 0.255076 0.567407
-1.536943 0.100000 1.248883 128 128 255 -0.808010 0.198126 0.554857
-1.551807 -0.009449 1.261763 128 128 255 -0.826405 0.149729 0.542804
-1.559358 -0.117494 1.274583 128 128 255 -0.840589 0.093061 0.533619
-1.559333 -0.231394 1.287288 128 128 255 -0.853381 0.026231 0.520627
-1.551507 -0.341706 1.299824 128 128 255 -0.860919 -0.033944 0.507608
-1.535701 -0.456734 1.312137 128 128 255 -0.862689 -0.092211 0.497257
-1.514011 -0.566974 1.324175 128 128 255 -0.857509 -0.159798 0.489022
-1.481915 -0.680678 1.335888 128 128 255 -0.847684 -0.225199 0.480330
-1.441619 -0.788301 1.347225 128 128 255 -0.830306 -0.297127 0.471495
-1.390939 -0.895845 1.358139 128 128 255 -0.812586 -0.352945 0.463825
-1.334425 -1.002637 1.368582 128 128 255 -0.788224 -0.418927 0.450780
-1.272242 -1.101338 1.378511 128 128 255 -0.758872 -0.475616 0.444863
-1.200174 -1.200174 1.387883 128 128 255 -0.719574 -0.536865 0.440442
-1.118515 -1.289606 1.396659 128 128 255 -0.674100 -0.600659 0.429881
-1.032066 -1.375674 1.404802 128 128 255 -0.638064 -0.640822 0.426874
-0.941241 -1.457775 1.412276 128 128 255 -0.586695 -0.690877 0.422466
-0.839848 -1.528678 1.419091 128 128 255 -0.526194 -0.745376 0.409309
-0.737306 -1.594525 1.425221 128 128 255 -0.477001 -0.777570 0.409701
-0.625305 -1.654836 1.430596 128 128 255 -0.416557 -0.811113 0.410580
-0.513361 -1.704740 1.435193 128 128 255 -0.348230 -0.846379 0.402962
-0.393250 -1.746091 1.438990 128 128 255 -0.276121 -0.876611 0.394094
-0.274563 -1.776358 1.441973 128 128 255 -0.208404 -0.896992 0.389837
-0.151363 -1.799741 1.444127 128 128 255 -0.143333 -0.909755 0.389616
-0.024402 -1.813842 1.445444 128 128 255 -0.071972 -0.918750 0.388225
0.098889 -1.818554 1.445917 128 128 255 -0.000504 -0.921489 0.388404
0.224402 -1.813842 1.445544 128 128 255 0.070973 -0.918796 0.388299
0.351363 -1.799741 1.444327 128 128 255 0.140683 -0.910055 0.389883
0.474563 -1.776358 1.442270 128 128 255 0.209722 -0.895869 0.391708
0.593250 -1.746091 1.439382 128 128 255 0.276755 -0.875284 0.396592
0.713361 -1.704740 1.435676 128 128 255 0.346572 -0.847389 0.402268
0.825305 -1.654836 1.431166 128 128 255 0.411067 -0.816423 0.405559
0.937306 -1.594525 1.425873 128 128 255 0.477796 -0.778598 0.406811
1.039848 -1.528678 1.419818 128 128 255 0.531473 -0.739533 0.413071
1.141241 -1.457775 1.413028 128 128 255 0.579170 -0.698117 0.420945
1.232066 -1.375674 1.405531 128 128 255 0.641765 -0.640638 0.421570
1.318515 -1.289606 1.397360 128 128 255 0.674749 -0.597550 0.433183
1.400174 -1.200174 1.388549 128 128 255 0.713765 -0.542793 0.442623
1.472242 -1.101338 1.379137 128 128 255 0.760666 -0.475936 0.441443
1.534425 -1.002637 1.369163 128 128 255 0.794081 -0.411914 0.446947
1.590939 -0.895845 1.358671 128 128 255 0.807688 -0.361784 0.465568
1.641618 -0.788301 1.347705 128 128 255 0.828187 -0.295461 0.476245
1.681915 -0.680678 1.336312 128 128 255 0.846608 -0.227863 0.480972
1.714011 -0.566974 1.324542 128 128 255 0.860886 -0.158719 0.483409
1.735701 -0.456734 1.312445 128 128 255 0.863942 -0.093733 0.494792
1.751506 -0.341706 1.300072 128 128 255 0.861046 -0.034895 0.507329
1.759333 -0.231394 1.287478 128 128 255 0.853956 0.027898 0.519597
1.759358 -0.117494 1.274715 128 128 255 0.840914 0.086328 0.534239
1.751807 -0.009449 1.261839 128 128 255 0.824730 0.152050 0.544702
1.736961 0.098782 1.248979 128 128 255 0.822706 0.165195 0.543935
1.632981 0.101111 1.387386 128 128 255 0.719129 0.282203 0.634992
1.610448 0.200038 1.371282 128 128 255 0.716289 0.294852 0.632450
1.579478 0.293812 1.355244 128 128 255 0.685284 0.342886 0.642507
1.544879 0.388736 1.339341 128 128 255 0.653701 0.379109 0.654944
1.504813 0.475605 1.323639 128 128 255 0.614305 0.422235 0.666593
1.461895 0.560813 1.308207 128 128 255 0.579049 0.447805 0.681302
1.412080 0.644132 1.293109 128 128 255 0.542145 0.476871 0.691862
1.357988 0.720934 1.278410 128 128 255 0.496306 0.516599 0.697714
1.297794 0.791077 1.264174 128 128 255 0.457323 0.534230 0.710953
1.236326 0.861122 1.250459 128 128 255 0.420985 0.542450 0.726994
1.173958 0.924335 1.237326 128 128 255 0.378007 0.564415 0.733857
1.106601 0.980680 1.224829 128 128 255 0.339845 0.579463 0.740762
1.034591 1.034591 1.213023 128 128 255 0.303380 0.580618 0.755541
0.964912 1.083864 1.201958 128 128 255 0.268599 0.579057 0.769771
0.891186 1.130757 1.191682 128 128 255 0.234109 0.581068 0.779457
0.813683 1.170877 1.182237 128 128 255 0.197825 0.587872 0.784392
0.737090 1.206508 1.173665 128 128 255 0.171643 0.589070 0.789642
0.661624 1.235497 1.166003 128 128 255 0.141982 0.588813 0.795701
0.580815 1.262362 1.159283 128 128 255 0.122021 0.579716 0.805630
0.501503 1.284951 1.153535 128 128 255 0.096788 0.575902 0.811769
0.423840 1.303330 1.148783 128 128 255 0.074841 0.571829 0.816952
0.341297 1.317559 1.145047 128 128 255 0.054317 0.568805 0.820677
0.260663 1.327686 1.142345 128 128 255 0.036359 0.566561 0.823217
0.182048 1.333747 1.140688 128 128 255 0.018086 0.564566 0.825190
0.098889 1.335765 1.140083 128 128 255 0.000536 0.564279 0.825584
0.017952 1.333747 1.140533 128 128 255 -0.017205 0.564693 0.825122
-0.060663 1.327686 1.142038 128 128 255 -0.035364 0.565903 0.823713
-0.141297 1.317559 1.144591 128 128 255 -0.052592 0.568288 0.821147
-0.223840 1.303330 1.148181 128 128 255 -0.073426 0.571335 0.817426
-0.301503 1.284951 1.152793 128 128 255 -0.096540 0.574798 0.812580
-0.380815 1.262362 1.158409 128 128 255 -0.115743 0.578695 0.807289
-0.461624 1.235497 1.165005 128 128 255 -0.142684 0.582033 0.800549
-0.537090 1.206508 1.172589 128 128 255 -0.166971 0.585890 0.793003
-0.613683 1.170877 1.181212 128 128 255 -0.195467 0.587892 0.784969
-0.691186 1.130757 1.190717 128 128 255 -0.228278 0.585812 0.777633
-0.764912 1.083864 1.201064 128 128 255 -0.269353 0.582913 0.766591
-0.834591 1.034591 1.212207 128 128 255 -0.299928 0.581823 0.755993
-0.906601 0.980680 1.224097 128 128 255 -0.333699 0.574929 0.747062
-0.973958 0.924335 1.236685 128 128 255 -0.375138 0.565393 0.734576
-1.036326 0.861122 1.249915 128 128 255 -0.421613 0.547882 0.722542
-1.097794 0.791077 1.263730 128 128 255 -0.454187 0.535686 0.711866
-1.157988 0.720934 1.278070 128 128 255 -0.492036 0.515060 0.701864
-1.212080 0.644132 1.292873 128 128 255 -0.538577 0.481831 0.691212
-1.261895 0.560813 1.308076 128 128 255 -0.582876 0.451631 0.675489
-1.304813 0.475605 1.323612 128 128 255 -0.618297 0.422979 0.662418
-1.344879 0.388736 1.339415 128 128 255 -0.651762 0.382663 0.654809
-1.379478 0.293812 1.355416 128 128 255 -0.683147 0.342469 0.645001
-1.410448 0.200038 1.371546 128 128 255 -0.710993 0.300175 0.635912
-1.432981 0.100000 1.387737 128 128 255 -0.744492 0.239024 0.623377
-1.448955 -0.002562 1.403919 128 128 255 -0.768361 0.191957 0.610552
-1.458055 -0.103864 1.420022 128 128 255 -0.787881 0.134725 0.600909
-1.459999 -0.211193 1.435979 128 128 255 -0.803311 0.076026 0.590687
-1.454544 -0.315130 1.451720 128 128 255 -0.813421 0.015252 0.581476
-1.441491 -0.424000 1.467179 128 128 255 -0.818631 -0.046884 0.572403
-1.420692 -0.528320 1.482291 128 128 255 -0.816860 -0.114639 0.565330
-1.389826 -0.634138 1.496991 128 128 255 -0.811610 -0.174763 0.557447
-1.353296 -0.740814 1.511217 128 128 255 -0.801268 -0.240780 0.547718
-1.308901 -0.841029 1.524909 128 128 255 -0.786876 -0.300985 0.538734
-1.258941 -0.943011 1.538008 128 128 255 -0.765467 -0.361396 0.532402
-1.199117 -1.037209 1.550460 128 128 255 -0.730832 -0.433163 0.527498
-1.129636 -1.129636 1.562210 128 128 255 -0.702132 -0.482097 0.524016
-1.055214 -1.219647 1.573211 128 128 255 -0.665579 -0.540875 0.514256
-0.976185 -1.299953 1.583415 128 128 255 -0.616805 -0.602734 0.506224
-0.886280 -1.376624 1.592778 128 128 255 -0.576889 -0.639396 0.508304
