ply
format ascii 1.0
element vertex 688
property float x
property float y
property float z
property uchar red
property uchar green
property uchar blue
property float nx
property float ny
property float nz
end_header
2.800625 -1.233460 1.789118 128 128 255 -0.769244 0.376474 0.516267
2.912445 -1.063381 1.840058 128 128 255 -0.794815 0.328451 0.510283
3.005066 -0.885403 1.883543 128 128 255 -0.817830 0.273771 0.506166
3.084125 -0.701003 1.919386 128 128 255 -0.822965 0.224992 0.521639
3.148757 -0.507326 1.947431 128 128 255 -0.839114 0.167092 0.517656
3.193833 -0.306054 1.967553 128 128 255 -0.850863 0.110301 0.513678
3.221080 -0.103382 1.979663 128 128 255 -0.863469 0.051670 0.501748
3.227973 0.100000 1.983706 128 128 255 -0.865042 -0.000921 0.501698
3.221080 0.303382 1.979665 128 128 255 -0.860925 -0.054829 0.505769
3.193833 0.506054 1.967558 128 128 255 -0.853027 -0.111517 0.509812
3.148757 0.707326 1.947439 128 128 255 -0.840413 -0.171952 0.513943
3.084125 0.901003 1.919398 128 128 255 -0.825518 -0.223931 0.518050
3.005066 1.085403 1.883559 128 128 255 -0.813788 -0.277995 0.510360
2.912445 1.263381 1.840077 128 128 255 -0.792598 -0.327227 0.514501
2.800625 1.433460 1.789141 128 128 255 -0.768839 -0.379595 0.514582
2.679679 1.587626 1.730972 128 128 255 -0.741084 -0.428394 0.516984
2.542035 1.731347 1.665820 128 128 255 -0.712728 -0.476351 0.514887
2.398016 1.863588 1.593966 128 128 255 -0.681937 -0.520038 0.514318
2.240263 1.976823 1.515719 128 128 255 -0.638627 -0.584773 0.500195
2.077043 2.077043 1.431414 128 128 255 -0.611432 -0.600586 0.515216
1.910008 2.163763 1.341414 128 128 255 -0.565886 -0.649991 0.507233
1.734167 2.230025 1.246106 128 128 255 -0.509560 -0.702441 0.496916
1.557863 2.282398 1.145899 128 128 255 -0.479235 -0.710440 0.515372
1.382750 2.318752 1.041442 128 128 255 -0.431106 -0.740728 0.515239
1.205989 2.339360 0.933209 128 128 255 -0.386749 -0.754406 0.530374
1.029121 2.344669 0.821416 128 128 255 -0.346023 -0.766082 0.541651
0.860265 2.335284 0.706541 128 128 255 -0.284481 -0.802072 0.525120
0.694101 2.311958 0.589075 128 128 255 -0.220077 -0.829846 0.512758
0.531859 2.275575 0.469518 128 128 255 -0.148545 -0.857911 0.491857
0.381300 2.227133 0.348383 128 128 255 -0.045709 -0.895384 0.442942
0.234488 2.169947 0.226185 128 128 255 -0.055745 -0.862173 0.503537
0.101111 2.098523 0.103447 128 128 255 0.307163 0.405426 -0.860977
-0.024855 2.020757 -0.019305 128 128 255 -0.039001 0.849434 -0.526252
-0.140709 1.937919 -0.141548 128 128 255 -0.065686 0.833853 -0.548065
-0.248360 1.844628 -0.262759 128 128 255 -0.116592 0.822670 -0.556436
-0.340990 1.748833 -0.382420 128 128 255 -0.209585 0.829394 -0.517861
-0.427496 1.651791 -0.500018 128 128 255 -0.272155 0.811126 -0.517693
-0.501373 1.548050 -0.615052 128 128 255 -0.327765 0.790720 -0.517042
-0.562926 1.447645 -0.727027 128 128 255 -0.365894 0.768759 -0.524529
-0.617035 1.342755 -0.835467 128 128 255 -0.409819 0.742332 -0.530087
-0.664256 1.241016 -0.939905 128 128 255 -0.461854 0.721119 -0.516409
-0.700798 1.143283 -1.039896 128 128 255 -0.520842 0.679626 -0.516558
-0.729625 1.043628 -1.135010 128 128 255 -0.562664 0.645808 -0.516083
-0.751541 0.951541 -1.224842 128 128 255 -0.606767 0.607812 -0.512248
-0.767399 0.860825 -1.309004 128 128 255 -0.656053 0.551974 -0.514703
-0.775854 0.771807 -1.387138 128 128 255 -0.687470 0.516010 -0.510997
-0.782232 0.691342 -1.458907 128 128 255 -0.722467 0.473342 -0.503973
-0.785183 0.612813 -1.524004 128 128 255 -0.754645 0.415236 -0.508025
-0.785542 0.536138 -1.582150 128 128 255 -0.780162 0.370889 -0.503774
-0.784094 0.467775 -1.633095 128 128 255 -0.802694 0.324816 -0.500177
-0.781558 0.400737 -1.676619 128 128 255 -0.822856 0.263597 -0.503413
-0.778568 0.334598 -1.712536 128 128 255 -0.837780 0.212201 -0.503086
-0.775662 0.273290 -1.740691 128 128 255 -0.848721 0.175152 -0.498994
-0.775493 0.216226 -1.760962 128 128 255 -0.858141 0.121032 -0.498944
-0.773930 0.158319 -1.773261 128 128 255 -0.862758 0.054008 -0.502725
-0.773388 0.101168 -1.777207 128 128 255 -0.861974 0.026744 -0.506246
-0.811239 0.098889 -1.710622 128 128 255 -0.860568 -0.029296 -0.508493
-0.811609 0.039066 -1.706534 128 128 255 -0.861111 -0.058498 -0.505040
-0.812661 -0.021411 -1.694707 128 128 255 -0.855742 -0.113873 -0.504717
-0.814210 -0.080958 -1.675193 128 128 255 -0.840240 -0.176179 -0.512793
-0.815958 -0.144617 -1.648075 128 128 255 -0.826343 -0.223352 -0.516983
-0.817493 -0.212935 -1.613472 128 128 255 -0.810210 -0.278932 -0.515516
-0.818302 -0.279722 -1.571532 128 128 255 -0.791244 -0.332956 -0.512907
-0.817780 -0.352036 -1.522436 128 128 255 -0.770232 -0.377207 -0.514255
-0.815243 -0.430168 -1.466394 128 128 255 -0.744233 -0.426580 -0.513951
-0.809942 -0.509857 -1.403647 128 128 255 -0.712403 -0.480198 -0.511753
-0.801081 -0.591165 -1.334465 128 128 255 -0.677265 -0.524411 -0.516048
-0.787833 -0.680694 -1.259143 128 128 255 -0.667548 -0.548612 -0.503393
-0.771581 -0.771581 -1.178005 128 128 255 -0.627600 -0.596596 -0.500192
-0.747048 -0.863495 -1.091399 128 128 255 -0.561406 -0.646535 -0.516542
-0.715649 -0.962637 -0.999695 128 128 255 -0.517510 -0.681788 -0.517058
-0.676623 -1.059524 -0.903287 128 128 255 -0.466996 -0.717396 -0.516970
-0.627051 -1.162325 -0.802586 128 128 255 -0.413299 -0.745752 -0.522530
-0.570761 -1.263534 -0.698025 128 128 255 -0.385385 -0.768475 -0.510808
-0.507238 -1.362208 -0.590050 128 128 255 -0.325501 -0.791082 -0.517918
-0.431633 -1.463978 -0.479124 128 128 255 -0.267540 -0.811985 -0.518751
-0.343671 -1.558839 -0.365721 128 128 255 -0.214256 -0.827361 -0.519199
-0.249883 -1.654507 -0.250326 128 128 255 -0.118395 -0.825422 -0.551962
-0.141391 -1.743097 -0.133432 128 128 255 -0.063566 -0.835035 -0.546513
-0.025026 -1.823368 -0.015540 128 128 255 -0.030424 -0.845891 -0.532487
0.101111 -1.898523 0.102847 128 128 255 0.215586 0.950722 0.222821
0.234316 -1.967336 0.221222 128 128 255 -0.044373 0.865112 0.499612
0.380618 -2.024178 0.339081 128 128 255 -0.068145 0.887045 0.456626
0.530335 -2.067917 0.455918 128 128 255 -0.155078 0.855180 0.494590
0.691419 -2.101948 0.571235 128 128 255 -0.221143 0.830256 0.511635
0.856126 -2.123090 0.684540 128 128 255 -0.278696 0.812084 0.512688
1.023251 -2.130497 0.795348 128 128 255 -0.328924 0.792598 0.513417
1.198143 -2.123449 0.903186 128 128 255 -0.378365 0.769761 0.514109
1.372715 -2.101372 1.007693 128 128 255 -0.433091 0.740065 0.514525
1.545467 -2.063846 1.108645 128 128 255 -0.473757 0.714736 0.514496
1.721498 -2.012840 1.205287 128 128 255 -0.516084 0.695526 0.499901
1.892531 -1.943834 1.297204 128 128 255 -0.569932 0.645712 0.508166
2.056935 -1.856935 1.384000 128 128 255 -0.606879 0.605688 0.514626
2.219747 -1.759105 1.465304 128 128 255 -0.646106 0.571247 0.506186
2.372695 -1.641937 1.540765 128 128 255 -0.679675 0.517048 0.520292
2.514223 -1.514985 1.610059 128 128 255 -0.714983 0.475486 0.512556
2.649509 -1.370207 1.672889 128 128 255 -0.743459 0.429444 0.512686
2.768272 -1.217505 1.728984 128 128 255 -0.768914 0.375124 0.517739
2.878119 -1.049163 1.778103 128 128 255 -0.788358 0.327749 0.520646
2.971235 -0.873165 1.820032 128 128 255 -0.816933 0.273213 0.507913
3.046618 -0.690953 1.854591 128 128 255 -0.828307 0.222403 0.514242
3.110093 -0.499635 1.881630 128 128 255 -0.836882 0.169844 0.520366
3.154329 -0.300853 1.901030 128 128 255 -0.850627 0.110526 0.514021
3.181066 -0.100760 1.912706 128 128 255 -0.856003 0.055456 0.513988
3.190011 0.100000 1.916606 128 128 255 -0.861605 -0.002199 0.507575
3.181066 0.300760 1.912715 128 128 255 -0.857868 -0.055726 0.510840
3.154329 0.500853 1.901047 128 128 255 -0.848357 -0.112991 0.517226
3.110093 0.699635 1.881657 128 128 255 -0.837120 -0.168323 0.520477
3.046618 0.890953 1.854627 128 128 255 -0.828020 -0.223481 0.514235
2.971235 1.073165 1.820078 128 128 255 -0.813406 -0.277526 0.511224
2.878119 1.249163 1.778158 128 128 255 -0.790815 -0.326528 0.517679
2.768272 1.417505 1.729049 128 128 255 -0.768867 -0.379381 0.514697
2.649509 1.570207 1.672964 128 128 255 -0.742265 -0.428844 0.514914
2.514223 1.714985 1.610144 128 128 255 -0.711757 -0.479054 0.513721
2.372695 1.841937 1.540860 128 128 255 -0.683082 -0.508949 0.523804
2.219747 1.959105 1.465410 128 128 255 -0.640157 -0.578107 0.505955
2.056935 2.056935 1.384117 128 128 255 -0.608029 -0.609616 0.508595
1.892531 2.143834 1.297332 128 128 255 -0.571121 -0.638953 0.515324
1.721498 2.212840 1.205427 128 128 255 -0.510812 -0.699059 0.500388
1.545467 2.263846 1.108797 128 128 255 -0.472492 -0.720977 0.506896
1.372715 2.301372 1.008055 128 128 255 -0.431381 -0.740660 0.515104
1.198143 2.323449 0.903657 128 128 255 -0.376925 -0.770099 0.514661
1.023251 2.330497 0.795827 128 128 255 -0.328098 -0.792527 0.514055
0.856126 2.323090 0.685023 128 128 255 -0.277620 -0.811958 0.513470
0.691419 2.301948 0.571720 128 128 255 -0.220341 -0.829850 0.512639
0.530335 2.267917 0.456402 128 128 255 -0.172535 -0.841857 0.511379
0.380618 2.224177 0.339561 128 128 255 -0.062121 -0.887438 0.456721
0.234316 2.167336 0.221696 128 128 255 0.008712 -0.894326 0.447332
0.101111 2.098523 0.103311 128 128 255 0.399703 0.118579 -0.908943
-0.025026 2.023368 -0.015087 128 128 255 -0.039061 0.849222 -0.526590
-0.141391 1.943097 -0.132994 128 128 255 -0.100378 0.847662 -0.520955
-0.249883 1.854507 -0.249904 128 128 255 -0.129075 0.825286 -0.549767
-0.343671 1.758839 -0.365318 128 128 255 -0.196519 0.825068 -0.529757
-0.431633 1.663978 -0.478742 128 128 255 -0.271956 0.811188 -0.517701
-0.507238 1.562208 -0.589691 128 128 255 -0.342397 0.789186 -0.509853
-0.570761 1.463534 -0.697690 128 128 255 -0.390355 0.770539 -0.503878
-0.627051 1.362325 -0.802278 128 128 255 -0.414683 0.741442 -0.527543
-0.676623 1.259524 -0.903005 128 128 255 -0.459025 0.719278 -0.521474
-0.715649 1.162637 -0.999442 128 128 255 -0.520712 0.679739 -0.516540
-0.747048 1.063495 -1.091175 128 128 255 -0.576881 0.638368 -0.509602
-0.771581 0.971581 -1.177811 128 128 255 -0.618860 0.603129 -0.503237
-0.787833 0.880694 -1.258979 128 128 255 -0.661282 0.550606 -0.509449
-0.801081 0.791165 -1.334331 128 128 255 -0.689142 0.514681 -0.510085
-0.809942 0.709857 -1.403545 128 128 255 -0.711229 0.482316 -0.511395
-0.815243 0.630168 -1.466322 128 128 255 -0.744910 0.423334 -0.515652
-0.817780 0.552036 -1.522394 128 128 255 -0.770677 0.374722 -0.515404
-0.818302 0.479722 -1.571521 128 128 255 -0.790894 0.334197 -0.512639
-0.817493 0.412935 -1.613490 128 128 255 -0.811436 0.276220 -0.515047
-0.815958 0.344617 -1.648121 128 128 255 -0.827767 0.218520 -0.516770
-0.814210 0.280958 -1.675266 128 128 255 -0.840551 0.169855 -0.514415
-0.812661 0.221411 -1.694807 128 128 255 -0.853373 0.118170 -0.507730
-0.811609 0.160934 -1.706659 128 128 255 -0.861242 0.053891 -0.505329
-0.811239 0.101171 -1.710473 128 128 255 -0.864789 0.026551 -0.501432
-0.859594 0.098889 -1.630081 128 128 255 -0.850563 -0.030029 -0.525014
-0.859758 0.035910 -1.626193 128 128 255 -0.850169 -0.061019 -0.522963
-0.860193 -0.025447 -1.614910 128 128 255 -0.844525 -0.117841 -0.522390
-0.860727 -0.090210 -1.596280 128 128 255 -0.835165 -0.170609 -0.522868
-0.861077 -0.158929 -1.570386 128 128 255 -0.820576 -0.226310 -0.524822
-0.860856 -0.227655 -1.537337 128 128 255 -0.802100 -0.286008 -0.524246
-0.859580 -0.296820 -1.497277 128 128 255 -0.781090 -0.340264 -0.523564
-0.856681 -0.371220 -1.450378 128 128 255 -0.762658 -0.383223 -0.521051
-0.851514 -0.451110 -1.396841 128 128 255 -0.740129 -0.431270 -0.515960
-0.843377 -0.529975 -1.336896 128 128 255 -0.711828 -0.480407 -0.512357
-0.831520 -0.614522 -1.270800 128 128 255 -0.682989 -0.518812 -0.514159
-0.815169 -0.704668 -1.198836 128 128 255 -0.641417 -0.567350 -0.516428
-0.793538 -0.793538 -1.121313 128 128 255 -0.621538 -0.598391 -0.505587
-0.768069 -0.887465 -1.038564 128 128 255 -0.576694 -0.636964 -0.511566
-0.733567 -0.985988 -0.950942 128 128 255 -0.518094 -0.681439 -0.516933
-0.691545 -1.081856 -0.858823 128 128 255 -0.465240 -0.716674 -0.519548
-0.639135 -1.183255 -0.762601 128 128 255 -0.411258 -0.746950 -0.522429
-0.580215 -1.280481 -0.662688 128 128 255 -0.384011 -0.768237 -0.512198
-0.514313 -1.379290 -0.559512 128 128 255 -0.319287 -0.789081 -0.524793
-0.436624 -1.478681 -0.453514 128 128 255 -0.268415 -0.811836 -0.518532
-0.346906 -1.570913 -0.345148 128 128 255 -0.215005 -0.827330 -0.518939
-0.251721 -1.663746 -0.234876 128 128 255 -0.169344 -0.836829 -0.520615
-0.142213 -1.749344 -0.123172 128 128 255 -0.096127 -0.846794 -0.523163
-0.025232 -1.826518 -0.010512 128 128 255 -0.032916 -0.846446 -0.531456
0.101111 -1.898523 0.102622 128 128 255 0.210740 0.957011 0.199295
0.234110 -1.964186 0.215747 128 128 255 -0.045721 0.864662 0.500270
0.379796 -2.017930 0.328378 128 128 255 -0.119032 0.853248 0.507740
0.528498 -2.058678 0.440034 128 128 255 -0.172630 0.842528 0.510241
0.688183 -2.089871 0.550239 128 128 255 -0.223900 0.827547 0.514815
0.851132 -2.108379 0.658522 128 128 255 -0.281808 0.807548 0.518122
1.016169 -2.113399 0.764419 128 128 255 -0.328944 0.792572 0.513445
1.188677 -2.104254 0.867478 128 128 255 -0.380367 0.766825 0.517011
1.360611 -2.080406 0.967348 128 128 255 -0.430795 0.740952 0.515176
1.530513 -2.041466 1.063797 128 128 255 -0.472656 0.721228 0.506385
1.703533 -1.989428 1.156127 128 128 255 -0.520779 0.676300 0.520968
1.871447 -1.919792 1.243942 128 128 255 -0.571340 0.630030 0.525959
2.032677 -1.832677 1.326865 128 128 255 -0.606803 0.605780 0.514608
2.192316 -1.735048 1.404540 128 128 255 -0.645797 0.563742 0.514918
2.339923 -1.618495 1.476632 128 128 255 -0.681143 0.518100 0.517317
2.480664 -1.492562 1.542833 128 128 255 -0.713563 0.475189 0.514804
2.613103 -1.349188 1.602857 128 128 255 -0.740713 0.428646 0.517307
2.729228 -1.198251 1.656446 128 128 255 -0.774239 0.377393 0.508064
2.834471 -1.032004 1.703369 128 128 255 -0.789811 0.328985 0.517656
2.927722 -0.858394 1.743424 128 128 255 -0.811791 0.276197 0.514500
3.001346 -0.678822 1.776437 128 128 255 -0.832625 0.218164 0.509059
3.061201 -0.490352 1.802266 128 128 255 -0.836007 0.168075 0.522344
3.106644 -0.294575 1.820799 128 128 255 -0.843798 0.111895 0.524866
3.132764 -0.097594 1.831953 128 128 255 -0.851054 0.054989 0.522191
3.141502 0.100000 1.835682 128 128 255 -0.852828 -0.000501 0.522191
3.132764 0.297594 1.831969 128 128 255 -0.850976 -0.055976 0.522214
3.106644 0.494575 1.820829 128 128 255 -0.846738 -0.113928 0.519669
3.061201 0.690352 1.802312 128 128 255 -0.839331 -0.167559 0.517154
3.001346 0.878822 1.776498 128 128 255 -0.829622 -0.222870 0.511915
2.927722 1.058394 1.743500 128 128 255 -0.811908 -0.277379 0.513679
2.834471 1.232004 1.703461 128 128 255 -0.791695 -0.328227 0.515253
2.729228 1.398251 1.656553 128 128 255 -0.768772 -0.379326 0.514880
2.613103 1.549188 1.602979 128 128 255 -0.742966 -0.424318 0.517644
2.480664 1.692562 1.542971 128 128 255 -0.710841 -0.484665 0.509710
2.339923 1.818495 1.476785 128 128 255 -0.682585 -0.513121 0.520369
2.192316 1.935048 1.404708 128 128 255 -0.643365 -0.563602 0.518106
2.032677 2.032677 1.327049 128 128 255 -0.604730 -0.603030 0.520247
1.871447 2.119792 1.244141 128 128 255 -0.574249 -0.626987 0.526427
1.703533 2.189428 1.156340 128 128 255 -0.516828 -0.686367 0.511653
1.530513 2.241466 1.064025 128 128 255 -0.469162 -0.721411 0.509366
1.360611 2.280406 0.967765 128 128 255 -0.434600 -0.735076 0.520371
1.188677 2.304255 0.867996 128 128 255 -0.377133 -0.770074 0.514546
1.016169 2.313399 0.764946 128 128 255 -0.329250 -0.790547 0.516362
0.851132 2.308379 0.659055 128 128 255 -0.282384 -0.806883 0.518844
0.688183 2.289871 0.550777 128 128 255 -0.220592 -0.829826 0.512569
0.528498 2.258678 0.440572 128 128 255 -0.172795 -0.841841 0.511318
0.379796 2.217930 0.328914 128 128 255 -0.119035 -0.852294 0.509339
0.234110 2.164186 0.216277 128 128 255 -0.047851 -0.862854 0.503183
0.101111 2.098523 0.103145 128 128 255 0.435787 -0.179412 -0.881987
-0.025232 2.026518 -0.010000 128 128 255 -0.039639 0.849145 -0.526670
-0.142213 1.949344 -0.122673 128 128 255 -0.100620 0.847628 -0.520963
-0.251721 1.863746 -0.234394 128 128 255 -0.173237 0.836935 -0.519162
-0.346906 1.770913 -0.344683 128 128 255 -0.216983 0.827497 -0.517848
-0.436624 1.678681 -0.453070 128 128 255 -0.257922 0.811080 -0.525001
-0.514313 1.579290 -0.559091 128 128 255 -0.320191 0.785239 -0.529978
-0.580215 1.480481 -0.662291 128 128 255 -0.381274 0.771975 -0.508610
-0.639135 1.383255 -0.762231 128 128 255 -0.426069 0.742285 -0.517184
-0.691545 1.281856 -0.858480 128 128 255 -0.469167 0.716427 -0.516348
-0.733567 1.185988 -0.950629 128 128 255 -0.519105 0.680618 -0.517000
-0.768069 1.087465 -1.038281 128 128 255 -0.574620 0.634635 -0.516770
-0.793538 0.993538 -1.121062 128 128 255 -0.615487 0.604914 -0.505228
-0.815169 0.904667 -1.198617 128 128 255 -0.653632 0.558309 -0.510936
-0.831520 0.814522 -1.270613 128 128 255 -0.683271 0.516854 -0.515755
-0.843377 0.729975 -1.336742 128 128 255 -0.710536 0.482645 -0.512047
-0.851514 0.651110 -1.396721 128 128 255 -0.739678 0.431116 -0.516735
-0.856681 0.571220 -1.450291 128 128 255 -0.763041 0.379238 -0.523400
-0.859580 0.496820 -1.497223 128 128 255 -0.782208 0.338234 -0.523210
-0.860856 0.427655 -1.537316 128 128 255 -0.803313 0.284316 -0.523310
-0.861077 0.358929 -1.570397 128 128 255 -0.822031 0.221491 -0.524601
-0.860727 0.290210 -1.596323 128 128 255 -0.835059 0.168648 -0.523673
-0.860193 0.225447 -1.614983 128 128 255 -0.844790 0.116623 -0.522235
-0.859758 0.164090 -1.626296 128 128 255 -0.850641 0.056955 -0.522653
-0.859594 0.101174 -1.629950 128 128 255 -0.853610 0.027944 -0.520162
-0.918087 0.098889 -1.536361 128 128 255 -0.854233 -0.029345 -0.519061
-0.918011 0.032238 -1.532705 128 128 255 -0.850986 -0.059966 -0.521754
-0.917728 -0.032729 -1.522053 128 128 255 -0.844975 -0.117405 -0.521759
-0.917079 -0.100978 -1.504452 128 128 255 -0.836151 -0.168792 -0.521882
-0.915802 -0.172997 -1.479978 128 128 255 -0.823103 -0.223309 -0.522145
-0.913537 -0.244783 -1.448738 128 128 255 -0.803706 -0.285183 -0.522233
-0.909836 -0.316716 -1.410864 128 128 255 -0.782597 -0.337306 -0.523227
-0.904170 -0.393543 -1.366521 128 128 255 -0.754708 -0.390618 -0.527099
-0.893721 -0.475477 -1.315897 128 128 255 -0.727457 -0.441841 -0.524960
-0.882282 -0.555971 -1.259211 128 128 255 -0.698738 -0.486410 -0.524567
-0.866939 -0.641700 -1.196706 128 128 255 -0.669203 -0.526543 -0.524328
-0.846977 -0.732562 -1.128649 128 128 255 -0.641833 -0.566959 -0.516341
-0.821671 -0.821671 -1.055333 128 128 255 -0.603381 -0.607849 -0.516189
-0.790306 -0.917578 -0.977071 128 128 255 -0.575507 -0.637878 -0.511766
-0.754415 -1.013158 -0.894198 128 128 255 -0.535555 -0.676044 -0.506108
-0.708906 -1.107840 -0.807070 128 128 255 -0.472638 -0.713902 -0.516679
-0.655417 -1.207607 -0.716059 128 128 255 -0.413295 -0.746365 -0.521657
-0.591215 -1.302786 -0.621555 128 128 255 -0.374674 -0.769637 -0.516989
-0.522546 -1.401389 -0.523963 128 128 255 -0.323714 -0.787568 -0.524354
-0.442431 -1.495789 -0.423700 128 128 255 -0.254172 -0.812458 -0.524699
-0.350671 -1.584962 -0.321194 128 128 255 -0.215717 -0.827290 -0.518708
-0.253859 -1.674496 -0.216886 128 128 255 -0.170286 -0.836823 -0.520316
-0.143170 -1.756613 -0.111220 128 128 255 -0.097446 -0.846905 -0.522739
-0.025473 -1.830184 -0.004648 128 128 255 -0.035212 -0.846896 -0.530592
0.101111 -1.898523 0.102373 128 128 255 0.199463 0.963566 0.178200
0.233870 -1.960521 0.209387 128 128 255 -0.047068 0.864255 0.500848
0.378839 -2.010661 0.315935 128 128 255 -0.119594 0.853001 0.508023
0.526359 -2.047927 0.421563 128 128 255 -0.172982 0.842354 0.510408
0.684418 -2.075820 0.525818 128 128 255 -0.223162 0.829565 0.511880
0.843100 -2.091263 0.628256 128 128 255 -0.281198 0.808176 0.517474
1.007930 -2.093508 0.728438 128 128 255 -0.329062 0.791162 0.515540
1.177665 -2.081924 0.825936 128 128 255 -0.380758 0.768585 0.514101
1.344307 -2.056016 0.920409 128 128 255 -0.429011 0.739317 0.518999
1.513117 -2.017654 1.011619 128 128 255 -0.472087 0.719371 0.509548
1.682636 -1.962194 1.098933 128 128 255 -0.525519 0.679794 0.511576
1.844699 -1.889603 1.181977 128 128 255 -0.568693 0.637746 0.519488
2.004458 -1.804458 1.260394 128 128 255 -0.605356 0.611156 0.509933
2.160403 -1.707061 1.333847 128 128 255 -0.645667 0.563923 0.514884
2.304381 -1.591222 1.402021 128 128 255 -0.680528 0.521581 0.514621
2.443840 -1.466473 1.464622 128 128 255 -0.715492 0.477258 0.510192
2.568518 -1.324730 1.521383 128 128 255 -0.740593 0.427643 0.518308
2.686016 -1.175845 1.572058 128 128 255 -0.769377 0.378377 0.514675
2.786260 -1.014257 1.616429 128 128 255 -0.794132 0.326215 0.512775
2.877078 -0.841203 1.654305 128 128 255 -0.807905 0.279004 0.519082
2.950876 -0.664703 1.685523 128 128 255 -0.832217 0.220355 0.508782
3.006878 -0.479546 1.709947 128 128 255 -0.846094 0.162803 0.507563
3.048914 -0.287267 1.727472 128 128 255 -0.847351 0.111459 0.519204
3.074316 -0.093909 1.738022 128 128 255 -0.851473 0.055091 0.521497
3.082814 0.100000 1.741551 128 128 255 -0.853249 -0.000484 0.521504
3.074316 0.293909 1.738043 128 128 255 -0.851394 -0.056045 0.521524
3.048914 0.487267 1.727515 128 128 255 -0.847615 -0.109187 0.519257
3.006878 0.679546 1.710012 128 128 255 -0.842304 -0.165792 0.512871
2.950876 0.864703 1.685609 128 128 255 -0.828880 -0.221817 0.513570
2.877078 1.041203 1.654413 128 128 255 -0.810166 -0.276231 0.517038
2.786260 1.214257 1.616558 128 128 255 -0.792735 -0.327973 0.513814
2.686016 1.375845 1.572208 128 128 255 -0.769087 -0.383223 0.511512
2.568518 1.524730 1.521554 128 128 255 -0.743202 -0.424501 0.517155
2.443840 1.666473 1.464814 128 128 255 -0.711695 -0.480044 0.512882
2.304381 1.791222 1.402233 128 128 255 -0.681571 -0.522305 0.512502
2.160403 1.907061 1.334079 128 128 255 -0.646725 -0.566364 0.510861
2.004458 2.004458 1.260645 128 128 255 -0.599235 -0.620736 0.505572
1.844699 2.089603 1.182247 128 128 255 -0.574126 -0.628395 0.524880
1.682636 2.162194 1.099221 128 128 255 -0.524953 -0.673352 0.520598
1.513117 2.217654 1.011925 128 128 255 -0.467092 -0.723850 0.507805
1.344307 2.256016 0.920880 128 128 255 -0.429828 -0.741350 0.515411
1.177665 2.281924 0.826497 128 128 255 -0.379999 -0.767002 0.517019
1.007930 2.293508 0.729010 128 128 255 -0.326386 -0.793345 0.513883
0.843100 2.291263 0.628837 128 128 255 -0.281913 -0.807548 0.518066
0.684418 2.275820 0.526405 128 128 255 -0.223771 -0.827312 0.515249
0.526359 2.247927 0.422152 128 128 255 -0.173102 -0.841786 0.511304
0.378839 2.210661 0.316524 128 128 255 -0.119552 -0.852211 0.509357
0.233870 2.160521 0.209972 128 128 255 -0.048749 -0.862738 0.503296
0.101111 2.098523 0.102952 128 128 255 0.415050 -0.427463 -0.803125
-0.025473 2.030184 -0.004079 128 128 255 -0.040541 0.849144 -0.526603
-0.143170 1.956614 -0.110662 128 128 255 -0.101079 0.847619 -0.520889
-0.253859 1.874496 -0.216343 128 128 255 -0.173462 0.836932 -0.519091
-0.350671 1.784962 -0.320670 128 128 255 -0.217349 0.827441 -0.517785
-0.442431 1.695789 -0.423195 128 128 255 -0.267816 0.814260 -0.515029
-0.522546 1.601389 -0.523481 128 128 255 -0.328984 0.785871 -0.523619
-0.591215 1.502786 -0.621097 128 128 255 -0.366585 0.770571 -0.521379
-0.655417 1.407607 -0.715628 128 128 255 -0.418414 0.743804 -0.521234
-0.708906 1.307840 -0.806667 128 128 255 -0.481037 0.710866 -0.513101
-0.754415 1.213158 -0.893825 128 128 255 -0.529717 0.681169 -0.505380
-0.790306 1.117578 -0.976729 128 128 255 -0.574627 0.634737 -0.516636
-0.821671 1.021671 -1.055024 128 128 255 -0.604386 0.607046 -0.515958
-0.846977 0.932562 -1.128374 128 128 255 -0.634674 0.571376 -0.520305
-0.866939 0.841700 -1.196465 128 128 255 -0.672872 0.519818 -0.526339
-0.882282 0.755971 -1.259006 128 128 255 -0.700493 0.486154 -0.522460
-0.893721 0.675477 -1.315728 128 128 255 -0.731041 0.440057 -0.521467
-0.904170 0.593543 -1.366387 128 128 255 -0.761745 0.383232 -0.522377
-0.909836 0.516716 -1.410767 128 128 255 -0.783413 0.337142 -0.522110
-0.913537 0.444783 -1.448677 128 128 255 -0.804463 0.283435 -0.522019
-0.915802 0.372997 -1.479953 128 128 255 -0.823687 0.221611 -0.521946
-0.917079 0.300978 -1.504462 128 128 255 -0.836468 0.167300 -0.521854
-0.917728 0.232729 -1.522097 128 128 255 -0.845205 0.115817 -0.521742
-0.918011 0.167762 -1.532783 128 128 255 -0.851241 0.057455 -0.521619
-0.918087 0.101178 -1.536250 128 128 255 -0.851264 0.028258 -0.523976
-0.981846 0.098889 -1.430175 128 128 255 -0.861910 -0.028461 -0.506261
-0.981497 0.028077 -1.426779 128 128 255 -0.859082 -0.058277 -0.508509
-0.980401 -0.040980 -1.416841 128 128 255 -0.853402 -0.114443 -0.508536
-0.978412 -0.113177 -1.400405 128 128 255 -0.845011 -0.165075 -0.508632
-0.975290 -0.188937 -1.377540 128 128 255 -0.832742 -0.219557 -0.508267
-0.970709 -0.264191 -1.348347 128 128 255 -0.815573 -0.274063 -0.509637
-0.964258 -0.339259 -1.312950 128 128 255 -0.790911 -0.329892 -0.515394
-0.955457 -0.421057 -1.271500 128 128 255 -0.767386 -0.379866 -0.516547
-0.943762 -0.503086 -1.224177 128 128 255 -0.735319 -0.436485 -0.518446
-0.928582 -0.585423 -1.171183 128 128 255 -0.704741 -0.480775 -0.521723
-0.909289 -0.674713 -1.112746 128 128 255 -0.665168 -0.530402 -0.525570
-0.883013 -0.764165 -1.049115 128 128 255 -0.630239 -0.576402 -0.520153
-0.853545 -0.853545 -0.980563 128 128 255 -0.603728 -0.607586 -0.516093
-0.818017 -0.949175 -0.907385 128 128 255 -0.562607 -0.645501 -0.516530
-0.775811 -1.041717 -0.829893 128 128 255 -0.532399 -0.675855 -0.509678
-0.728575 -1.137277 -0.748419 128 128 255 -0.477231 -0.709894 -0.517978
-0.671345 -1.235196 -0.663312 128 128 255 -0.421687 -0.744844 -0.517095
-0.603676 -1.328056 -0.574937 128 128 255 -0.371726 -0.771089 -0.516954
-0.529651 -1.423907 -0.483671 128 128 255 -0.346427 -0.788772 -0.507766
-0.449011 -1.515171 -0.389905 128 128 255 -0.284776 -0.815922 -0.503165
-0.354935 -1.600878 -0.294041 128 128 255 -0.216415 -0.827245 -0.518489
-0.256282 -1.686676 -0.196488 128 128 255 -0.171168 -0.836817 -0.520038
-0.144255 -1.764850 -0.097664 128 128 255 -0.098702 -0.846999 -0.522351
-0.025745 -1.834337 0.002009 128 128 255 -0.037426 -0.847295 -0.529803
0.101111 -1.898523 0.102104 128 128 255 0.181583 0.970424 0.159073
0.233598 -1.956367 0.202193 128 128 255 -0.048439 0.863864 0.501391
0.377754 -2.002425 0.301849 128 128 255 -0.103943 0.864292 0.492133
0.523936 -2.035747 0.400645 128 128 255 -0.159526 0.857402 0.489299
0.680152 -2.059901 0.498158 128 128 255 -0.223334 0.829468 0.511962
0.836518 -2.071874 0.593973 128 128 255 -0.278639 0.812036 0.512794
0.998597 -2.070976 0.687679 128 128 255 -0.327032 0.793364 0.513443
1.165192 -2.056631 0.778876 128 128 255 -0.377250 0.773145 0.509832
1.328357 -2.028391 0.867234 128 128 255 -0.425563 0.751085 0.504744
1.493415 -1.988167 0.952509 128 128 255 -0.473291 0.715795 0.513452
1.658968 -1.931350 1.034141 128 128 255 -0.526501 0.672694 0.519884
1.816921 -1.857928 1.111780 128 128 255 -0.565867 0.644359 0.514388
1.974718 -1.774718 1.185093 128 128 255 -0.605367 0.610679 0.510492
2.124257 -1.675362 1.253765 128 128 255 -0.645880 0.562263 0.516429
2.264121 -1.560330 1.317500 128 128 255 -0.682683 0.520793 0.512561
2.399610 -1.436919 1.376026 128 128 255 -0.711081 0.478189 0.515461
2.520529 -1.297023 1.429091 128 128 255 -0.747492 0.425293 0.510277
2.634542 -1.148239 1.476466 128 128 255 -0.764911 0.381714 0.518850
2.731637 -0.991631 1.517948 128 128 255 -0.796427 0.322609 0.511495
2.817472 -0.821723 1.553357 128 128 255 -0.807936 0.275490 0.520907
2.891167 -0.646482 1.582542 128 128 255 -0.822651 0.225387 0.521964
2.947541 -0.467301 1.605377 128 128 255 -0.845378 0.163563 0.508510
2.986011 -0.278986 1.621762 128 128 255 -0.855784 0.108893 0.505742
3.010597 -0.089732 1.631627 128 128 255 -0.859249 0.056373 0.508442
3.018821 0.100000 1.634930 128 128 255 -0.861091 -0.000356 0.508451
3.010597 0.289732 1.631656 128 128 255 -0.859326 -0.056976 0.508245
2.986011 0.478986 1.621819 128 128 255 -0.853215 -0.109209 0.509997
2.947541 0.667301 1.605462 128 128 255 -0.842328 -0.166405 0.512633
2.891167 0.846482 1.582655 128 128 255 -0.825732 -0.223383 0.517944
2.817472 1.021723 1.553498 128 128 255 -0.810290 -0.274913 0.517545
2.731637 1.191631 1.518116 128 128 255 -0.791982 -0.328087 0.514902
2.634542 1.348239 1.476661 128 128 255 -0.768671 -0.375243 0.518013
2.520529 1.497023 1.429312 128 128 255 -0.742558 -0.432425 0.511484
2.399610 1.636919 1.376273 128 128 255 -0.713847 -0.472125 0.517224
2.264121 1.760330 1.317773 128 128 255 -0.678013 -0.525103 0.514359
2.124257 1.875362 1.254061 128 128 255 -0.650476 -0.551120 0.522635
1.974718 1.974718 1.185413 128 128 255 -0.599369 -0.619872 0.506474
1.816921 2.057928 1.112123 128 128 255 -0.566537 -0.645218 0.512572
1.658968 2.131350 1.034505 128 128 255 -0.528736 -0.672144 0.518326
1.493415 2.188167 0.952893 128 128 255 -0.469185 -0.722651 0.507583
1.328357 2.228391 0.867757 128 128 255 -0.423396 -0.750575 0.507320
1.165192 2.256631 0.779476 128 128 255 -0.379935 -0.768818 0.514363
0.998597 2.270976 0.688293 128 128 255 -0.326555 -0.793326 0.513805
0.836518 2.271874 0.594598 128 128 255 -0.278199 -0.811907 0.513237
0.680152 2.259901 0.498791 128 128 255 -0.219318 -0.835007 0.504641
0.523936 2.235747 0.401282 128 128 255 -0.154820 -0.858020 0.489727
0.377754 2.202425 0.302488 128 128 255 -0.120123 -0.852088 0.509428
0.233598 2.156368 0.202831 128 128 255 -0.049794 -0.862554 0.503508
0.101111 2.098523 0.102736 128 128 255 0.356459 -0.609024 -0.708539
-0.025745 2.034337 0.002633 128 128 255 -0.041695 0.849208 -0.526410
-0.144255 1.964850 -0.097050 128 128 255 -0.101680 0.847624 -0.520764
-0.256282 1.886676 -0.195888 128 128 255 -0.173796 0.836932 -0.518980
-0.354935 1.800878 -0.293458 128 128 255 -0.230175 0.828779 -0.510044
-0.449011 1.715171 -0.389341 128 128 255 -0.279654 0.816618 -0.504904
-0.529651 1.623907 -0.483129 128 128 255 -0.342008 0.787518 -0.512685
-0.603676 1.528056 -0.574419 128 128 255 -0.376666 0.770408 -0.514388
-0.671345 1.435196 -0.662821 128 128 255 -0.416840 0.745517 -0.520047
-0.728575 1.337277 -0.747956 128 128 255 -0.480360 0.704400 -0.522566
-0.775811 1.241717 -0.829460 128 128 255 -0.527612 0.681977 -0.506490
-0.818017 1.149176 -0.906984 128 128 255 -0.573589 0.639679 -0.511670
-0.853545 1.053545 -0.980197 128 128 255 -0.604696 0.606816 -0.515865
-0.883013 0.964165 -1.048783 128 128 255 -0.632885 0.577133 -0.516114
-0.909289 0.874713 -1.112450 128 128 255 -0.673281 0.522600 -0.523050
-0.928582 0.785423 -1.170925 128 128 255 -0.705393 0.479732 -0.521803
-0.943762 0.703086 -1.223958 128 128 255 -0.734019 0.437880 -0.519112
-0.955457 0.621057 -1.271319 128 128 255 -0.766308 0.377927 -0.519561
-0.964258 0.539259 -1.312807 128 128 255 -0.794697 0.323874 -0.513383
-0.970709 0.464191 -1.348244 128 128 255 -0.815520 0.278386 -0.507374
-0.975290 0.388937 -1.377477 128 128 255 -0.833158 0.216996 -0.508686
-0.978412 0.313177 -1.400380 128 128 255 -0.845326 0.163584 -0.508590
-0.980401 0.240980 -1.416855 128 128 255 -0.853631 0.112859 -0.508504
-0.981497 0.171923 -1.426831 128 128 255 -0.859302 0.056026 -0.508392
-0.981846 0.101182 -1.430086 128 128 255 -0.859557 0.027678 -0.510290
-1.050382 0.098889 -1.312331 128 128 255 -0.859152 -0.028379 -0.510933
-1.049731 0.023459 -1.309223 128 128 255 -0.858637 -0.058190 -0.509271
-1.047732 -0.050137 -1.300076 128 128 255 -0.852882 -0.114392 -0.509418
-1.044255 -0.126716 -1.284930 128 128 255 -0.844434 -0.165348 -0.509501
-1.039087 -0.206626 -1.263850 128 128 255 -0.831249 -0.222072 -0.509617
-1.031934 -0.283506 -1.236927 128 128 255 -0.819104 -0.269552 -0.506369
-1.024654 -0.364275 -1.204276 128 128 255 -0.801519 -0.317118 -0.506955
-1.012372 -0.449124 -1.166038 128 128 255 -0.772420 -0.378688 -0.509866
-0.996828 -0.531501 -1.122377 128 128 255 -0.746220 -0.429300 -0.508779
-0.977495 -0.618106 -1.073479 128 128 255 -0.716597 -0.472374 -0.513178
-0.953819 -0.708882 -1.019555 128 128 255 -0.678338 -0.523054 -0.516015
-0.925224 -0.797012 -0.960835 128 128 255 -0.631640 -0.575077 -0.519921
-0.888913 -0.888913 -0.897571 128 128 255 -0.592307 -0.612331 -0.523663
-0.848766 -0.984238 -0.830033 128 128 255 -0.563041 -0.645222 -0.516405
-0.802020 -1.075873 -0.758512 128 128 255 -0.524042 -0.677435 -0.516199
-0.750401 -1.172163 -0.683313 128 128 255 -0.476949 -0.709138 -0.519272
-0.689021 -1.265810 -0.604759 128 128 255 -0.423742 -0.746323 -0.513268
-0.617504 -1.356096 -0.523184 128 128 255 -0.372279 -0.770924 -0.516802
-0.540002 -1.448894 -0.438940 128 128 255 -0.328502 -0.790140 -0.517461
-0.456312 -1.534457 -0.352385 128 128 255 -0.280968 -0.815199 -0.506466
-0.359668 -1.618541 -0.263891 128 128 255 -0.231020 -0.827753 -0.511327
-0.258971 -1.700192 -0.173836 128 128 255 -0.180433 -0.841355 -0.509476
-0.145458 -1.773990 -0.082605 128 128 255 -0.133030 -0.860440 -0.491879
-0.026047 -1.838946 0.009411 128 128 255 -0.039583 -0.847662 -0.529058
0.101111 -1.898523 0.101818 128 128 255 0.157255 0.977444 0.140974
0.233295 -1.951759 0.194222 128 128 255 -0.049829 0.863481 0.501914
0.376551 -1.993285 0.286228 128 128 255 -0.112790 0.853676 0.508444
0.521248 -2.024452 0.377441 128 128 255 -0.153264 0.863234 0.480975
0.675419 -2.042236 0.467472 128 128 255 -0.215739 0.844433 0.490295
0.829215 -2.050359 0.555935 128 128 255 -0.273646 0.817301 0.507086
0.988241 -2.045975 0.642453 128 128 255 -0.320799 0.804797 0.499389
1.151353 -2.028569 0.726656 128 128 255 -0.374450 0.776894 0.506185
1.310663 -1.999965 0.808227 128 128 255 -0.424814 0.749629 0.507532
1.473780 -1.955456 0.886917 128 128 255 -0.477430 0.717148 0.507699
1.632713 -1.894911 0.962245 128 128 255 -0.527764 0.673571 0.517462
1.786107 -1.822792 1.033888 128 128 255 -0.563840 0.644497 0.516439
1.939264 -1.739264 1.101538 128 128 255 -0.607370 0.605193 0.514628
2.081937 -1.637976 1.164905 128 128 255 -0.644280 0.560876 0.519925
2.221682 -1.526060 1.223717 128 128 255 -0.682940 0.520355 0.512664
2.348320 -1.404133 1.277721 128 128 255 -0.708087 0.478748 0.519051
2.469508 -1.268506 1.326686 128 128 255 -0.747557 0.424813 0.510579
2.575208 -1.120074 1.370401 128 128 255 -0.767042 0.381951 0.515518
2.673249 -0.966526 1.408678 128 128 255 -0.794693 0.327838 0.510867
2.753795 -0.800108 1.441352 128 128 255 -0.816919 0.271226 0.508999
2.822685 -0.628728 1.468283 128 128 255 -0.823572 0.225802 0.520330
2.879225 -0.453712 1.489355 128 128 255 -0.835838 0.169329 0.522210
2.918423 -0.272017 1.504476 128 128 255 -0.850502 0.111006 0.514125
2.942103 -0.085097 1.513582 128 128 255 -0.859053 0.056313 0.508780
2.950023 0.100000 1.516634 128 128 255 -0.860777 -0.000168 0.508981
2.942103 0.285097 1.513618 128 128 255 -0.857667 -0.058082 0.510915
2.918423 0.472017 1.504547 128 128 255 -0.850412 -0.111633 0.514137
2.879225 0.653712 1.489460 128 128 255 -0.839489 -0.169327 0.516320
2.822685 0.828728 1.468423 128 128 255 -0.826307 -0.224185 0.516680
2.753795 1.000108 1.441526 128 128 255 -0.813819 -0.273157 0.512917
2.673249 1.166526 1.408885 128 128 255 -0.793084 -0.331323 0.511120
2.575208 1.320074 1.370641 128 128 255 -0.769622 -0.375224 0.516613
2.469508 1.468506 1.326958 128 128 255 -0.742376 -0.432120 0.512006
2.348320 1.604133 1.278024 128 128 255 -0.714120 -0.472373 0.516621
2.221682 1.726060 1.224050 128 128 255 -0.676818 -0.530796 0.510072
2.081937 1.837976 1.165267 128 128 255 -0.649135 -0.555352 0.519815
1.939264 1.939264 1.101927 128 128 255 -0.604596 -0.604444 0.518760
1.786107 2.022792 1.034304 128 128 255 -0.562568 -0.647040 0.514642
1.632713 2.094911 0.962686 128 128 255 -0.530826 -0.669511 0.519595
1.473780 2.155456 0.887381 128 128 255 -0.476173 -0.713620 0.513815
1.310663 2.199965 0.808802 128 128 255 -0.422152 -0.754544 0.502444
1.151353 2.228569 0.727294 128 128 255 -0.370659 -0.783706 0.498413
0.988241 2.245975 0.643108 128 128 255 -0.320715 -0.801670 0.504447
0.829215 2.250359 0.556603 128 128 255 -0.277200 -0.815732 0.507682
0.675419 2.242236 0.468149 128 128 255 -0.217875 -0.839325 0.498061
0.521248 2.224452 0.378125 128 128 255 -0.158066 -0.856226 0.491825
0.376551 2.193285 0.286915 128 128 255 -0.103261 -0.862974 0.494584
0.233295 2.151758 0.194909 128 128 255 -0.050935 -0.862324 0.503788
0.101111 2.098523 0.102502 128 128 255 0.278226 -0.734680 -0.618737
-0.026047 2.038946 0.010088 128 128 255 -0.075689 0.864209 -0.497408
-0.145458 1.973990 -0.081937 128 128 255 -0.129697 0.861487 -0.490936
-0.258971 1.900192 -0.173180 128 128 255 -0.174206 0.836936 -0.518835
-0.359668 1.818541 -0.263251 128 128 255 -0.226572 0.825040 -0.517662
-0.456312 1.734457 -0.351763 128 128 255 -0.277592 0.816691 -0.505924
-0.540002 1.648894 -0.438339 128 128 255 -0.338403 0.789371 -0.512227
-0.617504 1.556096 -0.522607 128 128 255 -0.380275 0.769781 -0.512667
-0.689021 1.465811 -0.604208 128 128 255 -0.422316 0.749549 -0.509731
-0.750401 1.372163 -0.682791 128 128 255 -0.481561 0.704077 -0.521895
-0.802020 1.275873 -0.758021 128 128 255 -0.519859 0.678923 -0.518468
-0.848766 1.184238 -0.829575 128 128 255 -0.556365 0.648043 -0.520094
-0.888913 1.088913 -0.897147 128 128 255 -0.600368 0.604663 -0.523394
-0.925224 0.997012 -0.960447 128 128 255 -0.633569 0.576463 -0.516024
-0.953819 0.908882 -1.019205 128 128 255 -0.679824 0.521649 -0.515482
-0.977495 0.818106 -1.073168 128 128 255 -0.719778 0.468564 -0.512218
-0.996828 0.731501 -1.122106 128 128 255 -0.745152 0.432724 -0.507444
-1.012372 0.649124 -1.165809 128 128 255 -0.774905 0.375300 -0.508598
-1.024654 0.564275 -1.204089 128 128 255 -0.799179 0.315942 -0.511365
-1.031934 0.483506 -1.236781 128 128 255 -0.816124 0.271560 -0.510095
-1.039087 0.406626 -1.263747 128 128 255 -0.832473 0.218919 -0.508983
-1.044255 0.326716 -1.284869 128 128 255 -0.844895 0.163548 -0.509318
-1.047732 0.250137 -1.300058 128 128 255 -0.853237 0.112479 -0.509250
-1.049731 0.176541 -1.309247 128 128 255 -0.858797 0.055804 -0.509267
-1.050382 0.101186 -1.312265 128 128 255 -0.861524 0.027685 -0.506961
-1.127601 0.098889 -1.183725 128 128 255 -0.852777 -0.028411 -0.521501
-1.126618 0.018419 -1.180929 128 128 255 -0.852063 -0.058440 -0.520166
-1.123634 -0.060130 -1.172644 128 128 255 -0.846052 -0.114732 -0.520608
-1.118534 -0.141491 -1.158905 128 128 255 -0.836838 -0.167873 -0.521076
-1.111131 -0.225930 -1.139771 128 128 255 -0.823931 -0.224113 -0.520492
-1.101171 -0.307009 -1.115324 128 128 255 -0.806047 -0.280335 -0.521249
-1.088337 -0.391574 -1.085670 128 128 255 -0.791075 -0.326960 -0.517008
-1.072257 -0.479752 -1.050935 128 128 255 -0.772035 -0.378855 -0.510325
-1.052511 -0.564933 -1.011268 128 128 255 -0.745761 -0.428267 -0.510321
-1.028648 -0.655992 -0.966840 128 128 255 -0.721226 -0.469175 -0.509616
-1.002409 -0.746167 -0.917840 128 128 255 -0.688807 -0.516206 -0.508995
-0.968859 -0.835279 -0.864479 128 128 255 -0.642945 -0.566226 -0.515761
-0.929729 -0.929729 -0.806984 128 128 255 -0.594118 -0.611348 -0.522759
-0.882318 -1.022497 -0.745602 128 128 255 -0.553099 -0.649915 -0.521241
-0.830618 -1.113142 -0.680597 128 128 255 -0.517682 -0.680204 -0.518968
-0.774217 -1.207806 -0.612246 128 128 255 -0.484068 -0.708883 -0.512995
-0.708307 -1.296994 -0.540841 128 128 255 -0.423720 -0.746005 -0.513748
-0.632593 -1.386694 -0.466689 128 128 255 -0.371646 -0.768761 -0.520468
-0.551296 -1.476161 -0.390106 128 128 255 -0.329033 -0.790035 -0.517282
-0.464279 -1.557928 -0.311422 128 128 255 -0.262127 -0.811013 -0.523017
-0.364833 -1.637815 -0.230971 128 128 255 -0.209881 -0.820848 -0.531185
-0.261904 -1.714942 -0.149099 128 128 255 -0.166019 -0.838156 -0.519551
-0.146771 -1.781742 -0.066156 128 128 255 -0.129105 -0.859867 -0.493923
-0.026377 -1.843976 0.017503 128 128 255 -0.075332 -0.862078 -0.501146
0.101111 -1.898523 0.101520 128 128 255 0.126160 0.984295 0.123479
0.232966 -1.946729 0.185537 128 128 255 -0.051239 0.863092 0.502440
0.375238 -1.983310 0.269192 128 128 255 -0.113405 0.853450 0.508687
0.518314 -2.009702 0.352130 128 128 255 -0.168400 0.842998 0.510877
0.670254 -2.025182 0.433993 128 128 255 -0.218343 0.842709 0.492107
0.821246 -2.026883 0.514433 128 128 255 -0.269028 0.826084 0.495187
0.976942 -2.020920 0.593106 128 128 255 -0.319339 0.804142 0.501376
1.136255 -2.000175 0.669674 128 128 255 -0.376967 0.777741 0.503006
1.291360 -1.966531 0.743839 128 128 255 -0.429796 0.742228 0.514172
1.449937 -1.919772 0.815344 128 128 255 -0.479671 0.705850 0.521240
1.604073 -1.857587 0.883794 128 128 255 -0.526226 0.677721 0.513596
1.752496 -1.784466 0.948894 128 128 255 -0.564824 0.651336 0.506691
1.900592 -1.700592 1.010366 128 128 255 -0.607316 0.605379 0.514474
2.038202 -1.599621 1.067946 128 128 255 -0.644957 0.565336 0.514224
2.172968 -1.490903 1.121387 128 128 255 -0.682157 0.522163 0.511866
2.294797 -1.366148 1.170459 128 128 255 -0.712029 0.474788 0.517293
2.411431 -1.234975 1.214951 128 128 255 -0.740794 0.428453 0.517352
2.512908 -1.089351 1.254673 128 128 255 -0.771310 0.377066 0.512740
2.607130 -0.939138 1.289455 128 128 255 -0.788220 0.333173 0.517402
2.686549 -0.776527 1.319145 128 128 255 -0.817574 0.270876 0.508133
2.750395 -0.609358 1.343618 128 128 255 -0.832533 0.221887 0.507597
2.802468 -0.438886 1.362767 128 128 255 -0.840740 0.167860 0.514762
2.840034 -0.261990 1.376510 128 128 255 -0.845638 0.113332 0.521586
2.864945 -0.080040 1.384788 128 128 255 -0.851179 0.058652 0.521588
2.872533 0.100000 1.387565 128 128 255 -0.854266 -0.000099 0.519836
2.864945 0.280040 1.384830 128 128 255 -0.853235 -0.059191 0.518157
2.840034 0.461990 1.376594 128 128 255 -0.848857 -0.112707 0.516467
2.802468 0.638886 1.362892 128 128 255 -0.840578 -0.168320 0.514875
2.750395 0.809358 1.343784 128 128 255 -0.829590 -0.221780 0.512439
2.686549 0.976527 1.319352 128 128 255 -0.814263 -0.274022 0.511750
2.607130 1.139138 1.289701 128 128 255 -0.792113 -0.328005 0.514751
2.512908 1.289351 1.254958 128 128 255 -0.768354 -0.382913 0.512844
2.411431 1.434975 1.215274 128 128 255 -0.742104 -0.425057 0.518274
2.294797 1.566148 1.170817 128 128 255 -0.712969 -0.473830 0.516876
2.172968 1.690903 1.121781 128 128 255 -0.679392 -0.524307 0.513351
2.038202 1.799621 1.068374 128 128 255 -0.645987 -0.565319 0.512947
1.900592 1.900592 1.010826 128 128 255 -0.608961 -0.606415 0.511299
1.752496 1.984466 0.949384 128 128 255 -0.559525 -0.654390 0.508631
1.604073 2.057587 0.884312 128 128 255 -0.529331 -0.670138 0.520311
1.449937 2.119772 0.815888 128 128 255 -0.480788 -0.706169 0.519777
1.291360 2.166531 0.744462 128 128 255 -0.429507 -0.742252 0.514380
1.136255 2.200175 0.670348 128 128 255 -0.376296 -0.776595 0.505274
0.976942 2.220920 0.593798 128 128 255 -0.313823 -0.811621 0.492734
0.821246 2.226883 0.515140 128 128 255 -0.270370 -0.824449 0.497176
0.670254 2.225182 0.434712 128 128 255 -0.219817 -0.838128 0.499222
0.518314 2.209702 0.352857 128 128 255 -0.164631 -0.848894 0.502270
0.375238 2.183311 0.269925 128 128 255 -0.113492 -0.852900 0.509590
0.232966 2.146729 0.186271 128 128 255 -0.052142 -0.862055 0.504125
0.101111 2.098523 0.102254 128 128 255 0.189987 -0.820131 -0.539714
-0.026377 2.043976 0.018232 128 128 255 -0.054448 0.848790 -0.525919
-0.146771 1.981742 -0.065435 128 128 255 -0.125563 0.860902 -0.493033
-0.261904 1.914942 -0.148389 128 128 255 -0.168073 0.838823 -0.517810
-0.364833 1.837815 -0.230276 128 128 255 -0.216335 0.819627 -0.530482
-0.464279 1.757928 -0.310743 128 128 255 -0.266652 0.813378 -0.517024
-0.551296 1.676161 -0.389448 128 128 255 -0.323485 0.789931 -0.520928
-0.632593 1.586694 -0.466054 128 128 255 -0.375899 0.764632 -0.523486
-0.708307 1.496994 -0.540232 128 128 255 -0.424918 0.749016 -0.508350
-0.774217 1.407806 -0.611665 128 128 255 -0.482687 0.710206 -0.512465
-0.830618 1.313142 -0.680047 128 128 255 -0.523294 0.675129 -0.519965
-0.882318 1.222497 -0.745086 128 128 255 -0.554517 0.653523 -0.515188
-0.929729 1.129729 -0.806503 128 128 255 -0.601716 0.603905 -0.522721
-0.968859 1.035279 -0.864035 128 128 255 -0.643752 0.565248 -0.515828
-1.002409 0.946167 -0.917435 128 128 255 -0.683729 0.522555 -0.509363
-1.028648 0.855992 -0.966476 128 128 255 -0.721107 0.464339 -0.514193
-1.052511 0.764933 -1.010947 128 128 255 -0.744788 0.428933 -0.511182
-1.072257 0.679752 -1.050657 128 128 255 -0.768600 0.382377 -0.512875
-1.088337 0.591574 -1.085436 128 128 255 -0.792974 0.322602 -0.516837
-1.101171 0.507009 -1.115135 128 128 255 -0.809176 0.276140 -0.518634
-1.111131 0.425930 -1.139627 128 128 255 -0.823900 0.223405 -0.520844
-1.118534 0.341491 -1.158808 128 128 255 -0.837535 0.164749 -0.520953
-1.123634 0.260130 -1.172593 128 128 255 -0.846494 0.113551 -0.520149
-1.126618 0.181581 -1.180925 128 128 255 -0.852204 0.056471 -0.520154
-1.127601 0.101192 -1.183683 128 128 255 -0.854793 0.028190 -0.518203
-1.212907 0.098889 -1.045335 128 128 255 -0.859065 -0.028025 -0.511098
-1.211569 0.012997 -1.042874 128 128 255 -0.855497 -0.057685 -0.514584
-1.207524 -0.070881 -1.035514 128 128 255 -0.850049 -0.112785 -0.514486
-1.200676 -0.159611 -1.023287 128 128 255 -0.840271 -0.163480 -0.516932
-1.190868 -0.246701 -1.006245 128 128 255 -0.823791 -0.225383 -0.520165
-1.177888 -0.332296 -0.984462 128 128 255 -0.808136 -0.277247 -0.519664
-1.161469 -0.423169 -0.958031 128 128 255 -0.784368 -0.334887 -0.522129
-1.139079 -0.512705 -0.927064 128 128 255 -0.760510 -0.388002 -0.520652
-1.114813 -0.600903 -0.891695 128 128 255 -0.737671 -0.432563 -0.518393
-1.086074 -0.694362 -0.852074 128 128 255 -0.712023 -0.476920 -0.515335
-1.052464 -0.784059 -0.808372 128 128 255 -0.688300 -0.516758 -0.509120
-1.015805 -0.876449 -0.760776 128 128 255 -0.653173 -0.558040 -0.511817
-0.971251 -0.971251 -0.709489 128 128 255 -0.605274 -0.606520 -0.515535
-0.920639 -1.061437 -0.654731 128 128 255 -0.560274 -0.648848 -0.514868
-0.861387 -1.155463 -0.596736 128 128 255 -0.516172 -0.682744 -0.517132
-0.797618 -1.246154 -0.535753 128 128 255 -0.484505 -0.710944 -0.509719
-0.729058 -1.332935 -0.472042 128 128 255 -0.427405 -0.742542 -0.515710
-0.648828 -1.421837 -0.405877 128 128 255 -0.369312 -0.768680 -0.522246
-0.563448 -1.505499 -0.337540 128 128 255 -0.331367 -0.792513 -0.511975
-0.472851 -1.583182 -0.267324 128 128 255 -0.273975 -0.811424 -0.516265
-0.370390 -1.660776 -0.195529 128 128 255 -0.213862 -0.821297 -0.528899
-0.265061 -1.730812 -0.122463 128 128 255 -0.153892 -0.836060 -0.526613
-0.148184 -1.792475 -0.048439 128 128 255 -0.099023 -0.847341 -0.521736
-0.026731 -1.849388 0.026227 128 128 255 -0.056737 -0.850031 -0.523668
0.101111 -1.898523 0.101215 128 128 255 0.015820 0.990342 0.137742
0.232611 -1.941316 0.176205 128 128 255 -0.054657 0.860812 0.505980
0.373825 -1.972578 0.250874 128 128 255 -0.114814 0.852324 0.510256
0.515157 -1.993831 0.324905 128 128 255 -0.169133 0.842320 0.511753
0.664697 -2.004442 0.397979 128 128 255 -0.224135 0.828853 0.512607
0.812672 -2.003848 0.469784 128 128 255 -0.274353 0.819414 0.503281
0.967009 -1.991574 0.540013 128 128 255 -0.323743 0.799277 0.506307
1.120013 -1.967239 0.608365 128 128 255 -0.384587 0.765651 0.515628
1.270596 -1.930567 0.674559 128 128 255 -0.433923 0.736021 0.519600
1.424292 -1.879169 0.738335 128 128 255 -0.481081 0.706499 0.519056
1.571049 -1.817445 0.799385 128 128 255 -0.519406 0.678487 0.519493
1.718571 -1.745470 0.857448 128 128 255 -0.565106 0.646624 0.512380
1.859003 -1.659003 0.912274 128 128 255 -0.606944 0.605854 0.514353
1.991169 -1.558374 0.963628 128 128 255 -0.648607 0.565088 0.509887
2.120581 -1.450705 1.011291 128 128 255 -0.678565 0.522629 0.516148
2.237240 -1.327689 1.055057 128 128 255 -0.717689 0.472847 0.511213
2.346753 -1.198916 1.094739 128 128 255 -0.738207 0.433312 0.517002
2.448131 -1.056311 1.130166 128 128 255 -0.772355 0.377956 0.510506
2.533801 -0.909685 1.161188 128 128 255 -0.790465 0.329770 0.516156
2.611839 -0.753388 1.187669 128 128 255 -0.808804 0.274363 0.520155
2.674871 -0.588526 1.209497 128 128 255 -0.828307 0.222491 0.514204
2.724526 -0.422941 1.226579 128 128 255 -0.845033 0.166089 0.508266
2.758113 -0.251205 1.238839 128 128 255 -0.854332 0.108509 0.508275
2.779736 -0.074601 1.246226 128 128 255 -0.856252 0.057633 0.513333
2.786967 0.100000 1.248709 128 128 255 -0.857204 -0.000109 0.514976
2.779736 0.274601 1.246275 128 128 255 -0.855392 -0.055935 0.514952
