ply
format ascii 1.0
element vertex 694
property float x
property float y
property float z
property uchar red
property uchar green
property uchar blue
property float nx
property float ny
property float nz
end_header
0.179848 1.300183 0.261666 128 128 255 0.103748 -0.993546 -0.045861
0.101111 1.296036 0.260978 128 128 255 -0.000279 -0.998978 -0.045191
0.020152 1.300183 0.262043 128 128 255 -0.102850 -0.993648 -0.045677
-0.058644 1.312348 0.264843 128 128 255 -0.190577 -0.980544 -0.047052
-0.144113 1.331713 0.269332 128 128 255 -0.255009 -0.965675 -0.049428
-0.238208 1.359173 0.275434 128 128 255 -0.286964 -0.956481 -0.052871
-0.335900 1.388503 0.283046 128 128 255 -0.281808 -0.957747 -0.057482
-0.447315 1.419763 0.292040 128 128 255 -0.266018 -0.961936 -0.062566
-0.564332 1.450496 0.302261 128 128 255 -0.224251 -0.972116 -0.068569
-0.696090 1.475833 0.313537 128 128 255 -0.179096 -0.981734 -0.064217
-0.833400 1.497483 0.325674 128 128 255 -0.122316 -0.989572 -0.076072
-0.984295 1.510522 0.338465 128 128 255 -0.055179 -0.994640 -0.087446
-1.138490 1.512383 0.351691 128 128 255 0.023696 -0.995253 -0.094389
-1.300749 1.500749 0.365125 128 128 255 0.104596 -0.989780 -0.096925
-1.468717 1.475865 0.378537 128 128 255 0.193499 -0.975928 -0.100607
-1.632997 1.431739 0.391696 128 128 255 0.298366 -0.947299 -0.116629
-1.797230 1.369542 0.404377 128 128 255 0.397502 -0.909159 -0.124182
-1.958202 1.286551 0.416360 128 128 255 0.492726 -0.860195 -0.131475
-2.105951 1.189514 0.427439 128 128 255 0.589134 -0.796107 -0.138327
-2.246102 1.070216 0.437423 128 128 255 0.680910 -0.717800 -0.145343
-2.366650 0.938803 0.446139 128 128 255 0.765542 -0.625364 -0.151212
-2.473628 0.788193 0.453437 128 128 255 0.840040 -0.519329 -0.156939
-2.555654 0.629575 0.459189 128 128 255 0.902873 -0.398505 -0.161287
-2.617355 0.459004 0.463296 128 128 255 0.946604 -0.277311 -0.164438
-2.657218 0.279534 0.465684 128 128 255 0.974640 -0.142389 -0.172634
-2.669870 0.101292 0.466674 128 128 255 0.979633 -0.070637 -0.187963
-2.686924 0.098889 0.345690 128 128 255 0.992229 0.070638 -0.102426
-2.674171 -0.080645 0.345376 128 128 255 0.983129 0.145079 -0.111398
-2.634007 -0.261196 0.343877 128 128 255 0.954069 0.278566 -0.110239
-2.571815 -0.432789 0.341221 128 128 255 0.910051 0.400112 -0.108249
-2.489120 -0.592344 0.337456 128 128 255 0.846860 0.521329 -0.105094
-2.381317 -0.743782 0.332648 128 128 255 0.771856 0.627594 -0.101805
-2.259809 -0.875893 0.326881 128 128 255 0.686766 0.720311 -0.097494
-2.118590 -0.995747 0.320256 128 128 255 0.594388 0.798743 -0.093339
-1.969694 -1.093186 0.312889 128 128 255 0.497449 0.862983 -0.088343
-1.807526 -1.176422 0.304907 128 128 255 0.401576 0.911978 -0.083866
-1.642080 -1.238708 0.296448 128 128 255 0.296174 0.951901 -0.078519
-1.476597 -1.280553 0.287658 128 128 255 0.200265 0.977547 -0.065537
-1.307464 -1.307464 0.278690 128 128 255 0.109035 0.991954 -0.064332
-1.144103 -1.318783 0.269697 128 128 255 0.025414 0.997627 -0.063982
-0.988888 -1.316508 0.260835 128 128 255 -0.054031 0.996786 -0.059149
-0.837073 -1.302980 0.252254 128 128 255 -0.124552 0.990700 -0.054776
-0.698953 -1.280792 0.244103 128 128 255 -0.177275 0.982862 -0.050553
-0.566502 -1.254896 0.236520 128 128 255 -0.224613 0.973327 -0.046725
-0.448908 -1.223609 0.229634 128 128 255 -0.266775 0.962828 -0.042343
-0.337028 -1.191828 0.223563 128 128 255 -0.282893 0.958354 -0.039106
-0.238975 -1.162035 0.218409 128 128 255 -0.288241 0.956894 -0.035651
-0.144606 -1.134190 0.214260 128 128 255 -0.256319 0.966017 -0.033337
-0.058932 -1.114537 0.211185 128 128 255 -0.191664 0.980953 -0.031554
0.020020 -1.102194 0.209235 128 128 255 -0.103345 0.994187 -0.030194
0.101111 -1.097987 0.208441 128 128 255 0.000045 0.999556 -0.029782
0.179980 -1.102194 0.208817 128 128 255 0.104847 0.994036 -0.029979
0.258932 -1.114537 0.210355 128 128 255 0.191682 0.980971 -0.030873
0.344606 -1.134190 0.213026 128 128 255 0.256265 0.966061 -0.032457
0.438975 -1.162035 0.216783 128 128 255 0.288129 0.956959 -0.034794
0.537028 -1.191828 0.221563 128 128 255 0.282731 0.958453 -0.037839
0.648908 -1.223609 0.227281 128 128 255 0.266562 0.962932 -0.041303
0.766502 -1.254896 0.233838 128 128 255 0.224384 0.973449 -0.045274
0.898953 -1.280792 0.241247 128 128 255 0.177112 0.982947 -0.049461
1.037073 -1.302980 0.249664 128 128 255 0.124442 0.990792 -0.053347
1.188888 -1.316508 0.258538 128 128 255 0.053908 0.996858 -0.058030
1.344103 -1.318783 0.267720 128 128 255 -0.025548 0.997707 -0.062669
1.507464 -1.307464 0.277056 128 128 255 -0.111086 0.991516 -0.067497
1.676597 -1.280553 0.286387 128 128 255 -0.196281 0.978438 -0.064291
1.842080 -1.238708 0.295557 128 128 255 -0.298516 0.951547 -0.073797
2.007527 -1.176422 0.304410 128 128 255 -0.401716 0.912021 -0.082718
2.169694 -1.093186 0.312797 128 128 255 -0.497552 0.862989 -0.087705
2.318590 -0.995747 0.320577 128 128 255 -0.594521 0.798773 -0.092235
2.459809 -0.875893 0.327617 128 128 255 -0.686846 0.720292 -0.097066
2.581316 -0.743782 0.333799 128 128 255 -0.771960 0.627604 -0.100946
2.689120 -0.592344 0.339016 128 128 255 -0.846909 0.521284 -0.104919
2.771815 -0.432789 0.343178 128 128 255 -0.910113 0.400087 -0.107817
2.834007 -0.261196 0.346211 128 128 255 -0.954111 0.278524 -0.109988
2.874171 -0.080645 0.348055 128 128 255 -0.983179 0.144546 -0.111649
2.886924 0.100000 0.348665 128 128 255 -0.993692 -0.000154 -0.112140
2.874171 0.280645 0.348026 128 128 255 -0.983138 -0.144859 -0.111605
2.834007 0.461196 0.346155 128 128 255 -0.953986 -0.278793 -0.110388
2.771815 0.632789 0.343095 128 128 255 -0.909935 -0.400341 -0.108374
2.689120 0.792344 0.338905 128 128 255 -0.846716 -0.521541 -0.105196
2.581316 0.943782 0.333662 128 128 255 -0.771691 -0.627783 -0.101889
2.459809 1.075893 0.327456 128 128 255 -0.686587 -0.720472 -0.097561
2.318590 1.195747 0.320392 128 128 255 -0.594202 -0.798875 -0.093393
2.169694 1.293186 0.312591 128 128 255 -0.497262 -0.863087 -0.088383
2.007527 1.376422 0.304183 128 128 255 -0.401393 -0.912055 -0.083897
1.842080 1.438708 0.295311 128 128 255 -0.295998 -0.951954 -0.078539
1.676597 1.480553 0.286124 128 128 255 -0.200119 -0.977576 -0.065548
1.507464 1.507464 0.276778 128 128 255 -0.108897 -0.991969 -0.064336
1.344103 1.518783 0.267430 128 128 255 -0.025279 -0.997631 -0.063980
1.188888 1.516508 0.258237 128 128 255 0.054150 -0.996780 -0.059142
1.037073 1.502980 0.249355 128 128 255 0.124613 -0.990693 -0.054767
0.898953 1.480791 0.241184 128 128 255 0.177229 -0.982871 -0.050548
0.766502 1.454896 0.233895 128 128 255 0.224501 -0.973353 -0.046728
0.648908 1.423609 0.227331 128 128 255 0.266661 -0.962859 -0.042354
0.537028 1.391828 0.221605 128 128 255 0.282772 -0.958389 -0.039122
0.438975 1.362035 0.216817 128 128 255 0.288116 -0.956931 -0.035673
0.344606 1.334190 0.213048 128 128 255 0.256191 -0.966050 -0.033365
0.258932 1.314537 0.210366 128 128 255 0.191524 -0.980980 -0.031587
0.179980 1.302194 0.208816 128 128 255 0.104631 -0.994050 -0.030266
0.101111 1.297987 0.208427 128 128 255 -0.000191 -0.999557 -0.029753
0.020020 1.302194 0.209207 128 128 255 -0.103558 -0.994169 -0.030064
-0.058932 1.314537 0.211143 128 128 255 -0.191826 -0.980941 -0.030926
-0.144606 1.334190 0.214204 128 128 255 -0.256396 -0.966025 -0.032518
-0.238975 1.362035 0.218338 128 128 255 -0.288254 -0.956919 -0.034860
-0.337028 1.391828 0.223476 128 128 255 -0.282848 -0.958415 -0.037913
-0.448908 1.423609 0.229533 128 128 255 -0.266674 -0.962898 -0.041384
-0.566502 1.454896 0.236403 128 128 255 -0.224467 -0.973425 -0.045363
-0.698953 1.480791 0.243972 128 128 255 -0.177096 -0.982945 -0.049559
-0.837073 1.502980 0.252110 128 128 255 -0.124335 -0.990800 -0.053442
-0.988888 1.516508 0.260678 128 128 255 -0.053788 -0.996860 -0.058118
-1.144103 1.518783 0.269529 128 128 255 0.025682 -0.997699 -0.062749
-1.307464 1.507464 0.278511 128 128 255 0.111232 -0.991495 -0.067567
-1.476597 1.480553 0.287469 128 128 255 0.196422 -0.978406 -0.064344
-1.642080 1.438708 0.296250 128 128 255 0.298676 -0.951494 -0.073840
-1.807526 1.376422 0.304702 128 128 255 0.401888 -0.911942 -0.082749
-1.969694 1.293186 0.312679 128 128 255 0.497727 -0.862887 -0.087720
-2.118590 1.195747 0.320042 128 128 255 0.594692 -0.798645 -0.092232
-2.259809 1.075893 0.326665 128 128 255 0.687009 -0.720140 -0.097041
-2.381317 0.943782 0.332432 128 128 255 0.772108 -0.627430 -0.100898
-2.489120 0.792344 0.337242 128 128 255 0.847037 -0.521090 -0.104845
-2.571815 0.632789 0.341010 128 128 255 0.910216 -0.399881 -0.107711
-2.634007 0.461196 0.343672 128 128 255 0.954186 -0.278321 -0.109849
-2.674171 0.280645 0.345178 128 128 255 0.983133 -0.144973 -0.111504
-2.686924 0.101293 0.345879 128 128 255 0.990124 -0.070911 -0.120942
-2.697187 0.098889 0.224024 128 128 255 0.996397 0.070849 -0.046629
-2.684373 -0.081314 0.224010 128 128 255 0.987806 0.145362 -0.055763
-2.644028 -0.262516 0.223397 128 128 255 0.958665 0.279112 -0.055304
-2.581539 -0.434723 0.222199 128 128 255 0.914517 0.400882 -0.054344
-2.498442 -0.594842 0.220439 128 128 255 0.851119 0.522323 -0.052692
-2.390141 -0.746777 0.218147 128 128 255 0.775883 0.628795 -0.051208
-2.268054 -0.879309 0.215367 128 128 255 0.690506 0.721670 -0.048934
-2.126193 -0.999496 0.212148 128 128 255 0.597827 0.800245 -0.047015
-1.976606 -1.097176 0.208545 128 128 255 0.500543 0.864573 -0.044389
-1.813718 -1.180559 0.204624 128 128 255 0.405023 0.913267 -0.043591
-1.647540 -1.242898 0.200452 128 128 255 0.297911 0.953676 -0.041841
-1.481333 -1.284706 0.196102 128 128 255 0.199599 0.979184 -0.036872
-1.311498 -1.311498 0.191650 128 128 255 0.112582 0.993036 -0.034707
-1.147473 -1.322626 0.187173 128 128 255 0.026700 0.999121 -0.032321
-0.991645 -1.320100 0.182749 128 128 255 -0.053111 0.998143 -0.029843
-0.839275 -1.306277 0.178453 128 128 255 -0.123978 0.991898 -0.027722
-0.700669 -1.283763 0.174359 128 128 255 -0.177042 0.983872 -0.025514
-0.567800 -1.257529 0.170538 128 128 255 -0.224694 0.974142 -0.023679
-0.449860 -1.225908 0.167053 128 128 255 -0.267135 0.963422 -0.021377
-0.337702 -1.193813 0.163963 128 128 255 -0.283506 0.958766 -0.019801
-0.239431 -1.163740 0.161321 128 128 255 -0.289024 0.957153 -0.017961
-0.144898 -1.135663 0.159171 128 128 255 -0.257183 0.966217 -0.016796
-0.059103 -1.115836 0.157547 128 128 255 -0.192474 0.981174 -0.015843
0.019942 -1.103385 0.156476 128 128 255 -0.103842 0.994480 -0.015032
0.101111 -1.099141 0.155975 128 128 255 0.000025 0.999891 -0.014795
0.180058 -1.103385 0.156050 128 128 255 0.105321 0.994328 -0.014817
0.259103 -1.115836 0.156701 128 128 255 0.192487 0.981182 -0.015167
0.344898 -1.135663 0.157913 128 128 255 0.257159 0.966238 -0.015923
0.439431 -1.163740 0.159664 128 128 255 0.288969 0.957186 -0.017112
0.537702 -1.193813 0.161925 128 128 255 0.283424 0.958815 -0.018550
0.649860 -1.225908 0.164655 128 128 255 0.267028 0.963474 -0.020352
0.767800 -1.257529 0.167805 128 128 255 0.224576 0.974202 -0.022253
0.900669 -1.283763 0.171450 128 128 255 0.176957 0.983915 -0.024451
1.039275 -1.306277 0.175816 128 128 255 0.123922 0.991943 -0.026320
1.191645 -1.320100 0.180414 128 128 255 0.053049 0.998178 -0.028747
1.347473 -1.322626 0.185166 128 128 255 -0.026768 0.999160 -0.031025
1.511498 -1.311498 0.189994 128 128 255 -0.112652 0.993071 -0.033458
1.681333 -1.284706 0.194819 128 128 255 -0.199215 0.979262 -0.036876
1.847540 -1.242898 0.199559 128 128 255 -0.299194 0.953323 -0.040720
2.013718 -1.180559 0.204137 128 128 255 -0.404386 0.913664 -0.041105
2.176606 -1.097176 0.208475 128 128 255 -0.500597 0.864576 -0.043729
2.326193 -0.999496 0.212503 128 128 255 -0.597896 0.800260 -0.045878
2.468055 -0.879309 0.216152 128 128 255 -0.690548 0.721661 -0.048460
2.590141 -0.746777 0.219363 128 128 255 -0.775938 0.628801 -0.050290
2.698442 -0.594842 0.222082 128 128 255 -0.851147 0.522301 -0.052444
2.781539 -0.434723 0.224263 128 128 255 -0.914551 0.400873 -0.053822
2.844028 -0.262516 0.225868 128 128 255 -0.958690 0.279097 -0.054948
2.884373 -0.081314 0.226860 128 128 255 -0.987868 0.144889 -0.055896
2.897187 0.100000 0.227195 128 128 255 -0.998423 -0.000084 -0.056140
2.884373 0.281314 0.226836 128 128 255 -0.987847 -0.145049 -0.055853
2.844028 0.462516 0.225820 128 128 255 -0.958625 -0.279240 -0.055351
2.781539 0.634723 0.224192 128 128 255 -0.914460 -0.401006 -0.054382
2.698442 0.794842 0.221989 128 128 255 -0.851047 -0.522437 -0.052723
2.590141 0.946777 0.219248 128 128 255 -0.775800 -0.628895 -0.051235
2.468055 1.079309 0.216016 128 128 255 -0.690416 -0.721754 -0.048958
2.326193 1.199496 0.212348 128 128 255 -0.597733 -0.800314 -0.047035
2.176606 1.297176 0.208302 128 128 255 -0.500449 -0.864627 -0.044407
2.013718 1.380559 0.203947 128 128 255 -0.404927 -0.913308 -0.043608
1.847540 1.442898 0.199354 128 128 255 -0.297817 -0.953705 -0.041857
1.681333 1.484706 0.194600 128 128 255 -0.199517 -0.979200 -0.036886
1.511498 1.511498 0.189764 128 128 255 -0.112508 -0.993044 -0.034720
1.347473 1.522626 0.184926 128 128 255 -0.026632 -0.999122 -0.032333
1.191645 1.520100 0.180166 128 128 255 0.053171 -0.998139 -0.029855
1.039275 1.506277 0.175564 128 128 255 0.124010 -0.991893 -0.027734
0.900669 1.483763 0.171452 128 128 255 0.177021 -0.983876 -0.025528
0.767800 1.457529 0.167932 128 128 255 0.224635 -0.974155 -0.023694
0.649860 1.425908 0.164776 128 128 255 0.267076 -0.963438 -0.021392
0.537702 1.393813 0.162040 128 128 255 0.283443 -0.958784 -0.019818
0.439431 1.363739 0.159771 128 128 255 0.288960 -0.957172 -0.017978
0.344898 1.335663 0.158010 128 128 255 0.257118 -0.966234 -0.016814
0.259103 1.315836 0.156787 128 128 255 0.192403 -0.981188 -0.015862
0.180058 1.303385 0.156125 128 128 255 0.105206 -0.994336 -0.015086
0.101111 1.299141 0.156036 128 128 255 -0.000100 -0.999891 -0.014745
0.019942 1.303385 0.156523 128 128 255 -0.103956 -0.994471 -0.014875
-0.059103 1.315836 0.157579 128 128 255 -0.192560 -0.981168 -0.015190
-0.144898 1.335663 0.159187 128 128 255 -0.257225 -0.966220 -0.015947
-0.239431 1.363739 0.161321 128 128 255 -0.289031 -0.957166 -0.017137
-0.337702 1.393813 0.163947 128 128 255 -0.283481 -0.958798 -0.018577
-0.449860 1.425908 0.167019 128 128 255 -0.267083 -0.963458 -0.020383
-0.567800 1.457529 0.170487 128 128 255 -0.224616 -0.974193 -0.022284
-0.700669 1.483763 0.174292 128 128 255 -0.176950 -0.983915 -0.024484
-0.839275 1.506277 0.178369 128 128 255 -0.123864 -0.991949 -0.026354
-0.991645 1.520100 0.182649 128 128 255 -0.052984 -0.998181 -0.028778
-1.147473 1.522626 0.187058 128 128 255 0.026839 -0.999157 -0.031054
-1.311498 1.511498 0.191520 128 128 255 0.112729 -0.993061 -0.033483
-1.481333 1.484706 0.195958 128 128 255 0.199299 -0.979244 -0.036900
-1.647540 1.442898 0.200296 128 128 255 0.299287 -0.953293 -0.040742
-1.813718 1.380559 0.204457 128 128 255 0.404475 -0.913624 -0.041122
-1.976606 1.297176 0.208369 128 128 255 0.500686 -0.864523 -0.043740
-2.126193 1.199496 0.211963 128 128 255 0.597983 -0.800194 -0.045884
-2.268054 1.079309 0.215176 128 128 255 0.690631 -0.721582 -0.048461
-2.390141 0.946777 0.217951 128 128 255 0.776012 -0.628711 -0.050283
-2.498442 0.794842 0.220239 128 128 255 0.851210 -0.522200 -0.052429
-2.581539 0.634723 0.221999 128 128 255 0.914601 -0.400763 -0.053798
-2.644028 0.462516 0.223197 128 128 255 0.958724 -0.278988 -0.054909
-2.684373 0.281314 0.223812 128 128 255 0.987803 -0.145338 -0.055867
-2.697187 0.101294 0.224217 128 128 255 0.995340 -0.071016 -0.065234
-2.700613 0.098889 0.101925 128 128 255 0.997435 0.070972 0.009316
-2.687779 -0.081537 0.102207 128 128 255 0.989363 0.145466 0.000049
-2.647373 -0.262956 0.102483 128 128 255 0.960202 0.279306 -0.000200
-2.584785 -0.435369 0.102749 128 128 255 0.916013 0.401148 -0.000277
-2.501554 -0.595675 0.103004 128 128 255 0.852544 0.522656 -0.000137
-2.393086 -0.747777 0.103246 128 128 255 0.777241 0.629203 -0.000468
-2.270807 -0.880449 0.103471 128 128 255 0.691765 0.722122 -0.000244
-2.128730 -1.000747 0.103678 128 128 255 0.598997 0.800751 -0.000574
-1.978913 -1.098508 0.103866 128 128 255 0.501595 0.865103 -0.000334
-1.815784 -1.181939 0.104033 128 128 255 0.406751 0.913539 0.000694
-1.651584 -1.244296 0.104178 128 128 255 0.299400 0.954128 -0.000614
-1.482913 -1.286092 0.104300 128 128 255 0.199436 0.979910 -0.001441
-1.312844 -1.312844 0.104397 128 128 255 0.113160 0.993577 -0.000623
-1.148597 -1.323908 0.104470 128 128 255 0.027163 0.999631 -0.000646
-0.992564 -1.321298 0.104516 128 128 255 -0.052771 0.998607 -0.000546
-0.840010 -1.307375 0.104538 128 128 255 -0.123754 0.992313 -0.000697
-0.701240 -1.284753 0.104533 128 128 255 -0.176935 0.984222 -0.000528
-0.568233 -1.258406 0.104501 128 128 255 -0.224695 0.974429 -0.000710
-0.450177 -1.226673 0.104444 128 128 255 -0.267232 0.963632 -0.000509
-0.337926 -1.194473 0.104360 128 128 255 -0.283694 0.958915 -0.000623
-0.239583 -1.164306 0.104251 128 128 255 -0.289277 0.957245 -0.000424
-0.144996 -1.136151 0.104116 128 128 255 -0.257469 0.966287 -0.000436
-0.059160 -1.116266 0.103957 128 128 255 -0.192752 0.981247 -0.000337
0.019916 -1.103780 0.103775 128 128 255 -0.104021 0.994575 -0.000090
0.101111 -1.099524 0.103571 128 128 255 0.000006 1.000000 -0.000035
0.180084 -1.103780 0.103348 128 128 255 0.105473 0.994422 0.000125
0.259160 -1.116266 0.103108 128 128 255 0.192760 0.981246 0.000337
0.344996 -1.136151 0.102853 128 128 255 0.257475 0.966285 0.000436
0.439583 -1.164306 0.102588 128 128 255 0.289278 0.957245 0.000424
0.537926 -1.194473 0.102315 128 128 255 0.283693 0.958915 0.000624
0.650177 -1.226673 0.102038 128 128 255 0.267232 0.963632 0.000509
0.768233 -1.258406 0.101760 128 128 255 0.224689 0.974430 0.000710
0.901240 -1.284753 0.101614 128 128 255 0.176927 0.984224 0.000528
1.040009 -1.307375 0.101893 128 128 255 0.123749 0.992313 0.000697
1.192564 -1.321298 0.102175 128 128 255 0.052765 0.998607 0.000546
1.348597 -1.323908 0.102458 128 128 255 -0.027169 0.999631 0.000646
1.512843 -1.312844 0.102739 128 128 255 -0.113166 0.993576 0.000623
1.682913 -1.286092 0.103017 128 128 255 -0.199443 0.979908 0.001441
1.851584 -1.244296 0.103288 128 128 255 -0.299407 0.954125 0.000614
2.015784 -1.181939 0.103551 128 128 255 -0.406757 0.913536 -0.000694
2.178913 -1.098508 0.103804 128 128 255 -0.501601 0.865099 0.000334
2.328730 -1.000747 0.104044 128 128 255 -0.599004 0.800746 0.000574
2.470807 -0.880449 0.104270 128 128 255 -0.691771 0.722117 0.000244
2.593086 -0.747777 0.104480 128 128 255 -0.777246 0.629196 0.000469
2.701554 -0.595675 0.104673 128 128 255 -0.852549 0.522647 0.000137
2.784785 -0.435369 0.104847 128 128 255 -0.916017 0.401138 0.000277
2.847373 -0.262956 0.105003 128 128 255 -0.960206 0.279294 0.000201
2.887779 -0.081537 0.105138 128 128 255 -0.989431 0.145006 -0.000020
2.900613 0.100000 0.105254 128 128 255 -1.000000 -0.000016 0.000000
2.887779 0.281537 0.105119 128 128 255 -0.989424 -0.145050 0.000020
2.847373 0.462956 0.104965 128 128 255 -0.960199 -0.279317 -0.000201
2.784785 0.635369 0.104791 128 128 255 -0.916010 -0.401155 -0.000277
2.701554 0.795675 0.104598 128 128 255 -0.852541 -0.522661 -0.000137
2.593086 0.947777 0.104388 128 128 255 -0.777238 -0.629206 -0.000469
2.470807 1.080449 0.104162 128 128 255 -0.691763 -0.722124 -0.000244
2.328730 1.200747 0.103921 128 128 255 -0.598995 -0.800752 -0.000574
2.178913 1.298508 0.103666 128 128 255 -0.501594 -0.865103 -0.000334
2.015784 1.381940 0.103401 128 128 255 -0.406754 -0.913538 0.000694
1.851584 1.444296 0.103126 128 128 255 -0.299401 -0.954127 -0.000614
1.682913 1.486092 0.102845 128 128 255 -0.199435 -0.979910 -0.001442
1.512843 1.512843 0.102559 128 128 255 -0.113162 -0.993576 -0.000624
1.348597 1.523908 0.102272 128 128 255 -0.027165 -0.999631 -0.000646
1.192564 1.521298 0.101984 128 128 255 0.052768 -0.998607 -0.000547
1.040009 1.507375 0.101700 128 128 255 0.123755 -0.992313 -0.000698
0.901240 1.484753 0.101679 128 128 255 0.176938 -0.984222 -0.000529
0.768233 1.458406 0.101952 128 128 255 0.224691 -0.974430 -0.000711
0.650177 1.426673 0.102227 128 128 255 0.267231 -0.963632 -0.000511
0.537926 1.394473 0.102500 128 128 255 0.283693 -0.958915 -0.000625
0.439583 1.364306 0.102766 128 128 255 0.289276 -0.957246 -0.000424
0.344996 1.336151 0.103023 128 128 255 0.257469 -0.966287 -0.000436
0.259160 1.316266 0.103267 128 128 255 0.192752 -0.981247 -0.000338
0.180084 1.303780 0.103496 128 128 255 0.105461 -0.994423 -0.000125
0.101111 1.299524 0.103706 128 128 255 -0.000007 -1.000000 0.000035
0.019916 1.303780 0.103895 128 128 255 -0.104034 -0.994574 0.000090
-0.059160 1.316266 0.104062 128 128 255 -0.192762 -0.981246 0.000338
-0.144996 1.336151 0.104204 128 128 255 -0.257477 -0.966284 0.000436
-0.239583 1.364306 0.104321 128 128 255 -0.289277 -0.957245 0.000424
-0.337926 1.394473 0.104413 128 128 255 -0.283692 -0.958915 0.000624
-0.450177 1.426673 0.104478 128 128 255 -0.267231 -0.963632 0.000511
-0.568233 1.458406 0.104516 128 128 255 -0.224686 -0.974431 0.000711
-0.701240 1.484753 0.104528 128 128 255 -0.176932 -0.984223 0.000529
-0.840010 1.507375 0.104514 128 128 255 -0.123746 -0.992314 0.000698
-0.992564 1.521298 0.104474 128 128 255 -0.052763 -0.998607 0.000546
-1.148597 1.523908 0.104409 128 128 255 0.027171 -0.999631 0.000646
-1.312844 1.512843 0.104318 128 128 255 0.113167 -0.993576 0.000624
-1.482913 1.486092 0.104204 128 128 255 0.199441 -0.979909 0.001442
-1.651584 1.444296 0.104066 128 128 255 0.299407 -0.954125 0.000615
-1.815784 1.381940 0.103906 128 128 255 0.406759 -0.913535 -0.000694
-1.978913 1.298508 0.103725 128 128 255 0.501600 -0.865100 0.000334
-2.128730 1.200747 0.103525 128 128 255 0.599001 -0.800748 0.000574
-2.270807 1.080449 0.103307 128 128 255 0.691769 -0.722119 0.000244
-2.393086 0.947777 0.103072 128 128 255 0.777243 -0.629200 0.000468
-2.501554 0.795675 0.102823 128 128 255 0.852546 -0.522653 0.000137
-2.584785 0.635369 0.102562 128 128 255 0.916014 -0.401146 0.000277
-2.647373 0.462956 0.102292 128 128 255 0.960203 -0.279305 0.000200
-2.687779 0.281537 0.102014 128 128 255 0.989354 -0.145526 -0.000053
-2.700613 0.101294 0.102118 128 128 255 0.997430 -0.071035 -0.009316
-2.697187 0.098889 -0.020178 128 128 255 0.995341 0.071004 0.065227
-2.684373 -0.081314 -0.019603 128 128 255 0.987797 0.145386 0.055854
-2.644028 -0.262516 -0.018444 128 128 255 0.958679 0.279145 0.054893
-2.581539 -0.434723 -0.016717 128 128 255 0.914539 0.400908 0.053775
-2.498442 -0.594842 -0.014451 128 128 255 0.851135 0.522326 0.052400
-2.390141 -0.746777 -0.011682 128 128 255 0.775929 0.628815 0.050249
-2.268054 -0.879309 -0.008455 128 128 255 0.690545 0.721667 0.048421
-2.126193 -0.999496 -0.004824 128 128 255 0.597898 0.800260 0.045841
-1.976606 -1.097176 -0.000849 128 128 255 0.500607 0.864572 0.043693
-1.813718 -1.180559 0.003403 128 128 255 0.404402 0.913659 0.041071
-1.647540 -1.242898 0.007862 128 128 255 0.299218 0.953317 0.040685
-1.481333 -1.284706 0.012453 128 128 255 0.199245 0.979257 0.036844
-1.311498 -1.311498 0.017097 128 128 255 0.112685 0.993068 0.033428
-1.147473 -1.322626 0.021717 128 128 255 0.026806 0.999160 0.030997
-0.991645 -1.320100 0.026235 128 128 255 -0.053007 0.998181 0.028720
-0.839275 -1.306277 0.030572 128 128 255 -0.123877 0.991949 0.026296
-0.700669 -1.283763 0.034656 128 128 255 -0.176949 0.983917 0.024427
-0.567800 -1.257529 0.038415 128 128 255 -0.224611 0.974195 0.022229
-0.449860 -1.225908 0.041786 128 128 255 -0.267063 0.963465 0.020328
-0.337702 -1.193813 0.044709 128 128 255 -0.283453 0.958807 0.018527
-0.239431 -1.163740 0.047134 128 128 255 -0.288991 0.957179 0.017090
-0.144898 -1.135663 0.049017 128 128 255 -0.257170 0.966235 0.015902
-0.059103 -1.115836 0.050325 128 128 255 -0.192492 0.981182 0.015146
0.019942 -1.103385 0.051034 128 128 255 -0.103876 0.994480 0.014832
0.101111 -1.099141 0.051131 128 128 255 -0.000014 0.999892 0.014705
0.180058 -1.103385 0.050613 128 128 255 0.105299 0.994327 0.015046
0.259103 -1.115836 0.049486 128 128 255 0.192494 0.981170 0.015823
0.344898 -1.135663 0.047769 128 128 255 0.257207 0.966211 0.016776
0.439431 -1.163740 0.045491 128 128 255 0.289049 0.957146 0.017942
0.537702 -1.193813 0.042688 128 128 255 0.283534 0.958758 0.019782
0.649860 -1.225908 0.039408 128 128 255 0.267169 0.963413 0.021359
0.767800 -1.257529 0.035706 128 128 255 0.224717 0.974137 0.023662
0.900669 -1.283763 0.031771 128 128 255 0.177018 0.983877 0.025498
1.039275 -1.306277 0.027958 128 128 255 0.123923 0.991905 0.027704
1.191645 -1.320100 0.023919 128 128 255 0.053059 0.998146 0.029823
1.347473 -1.322626 0.019726 128 128 255 -0.026750 0.999120 0.032297
1.511498 -1.311498 0.015455 128 128 255 -0.112627 0.993032 0.034680
1.681333 -1.284706 0.011180 128 128 255 -0.199639 0.979177 0.036844
1.847540 -1.242898 0.006977 128 128 255 -0.297949 0.953666 0.041808
2.013718 -1.180559 0.002920 128 128 255 -0.405053 0.913255 0.043555
2.176606 -1.097176 -0.000919 128 128 255 -0.500564 0.864562 0.044352
2.326193 -0.999496 -0.004473 128 128 255 -0.597842 0.800236 0.046974
2.468055 -0.879309 -0.007678 128 128 255 -0.690513 0.721666 0.048892
2.590141 -0.746777 -0.010477 128 128 255 -0.775884 0.628798 0.051161
2.698442 -0.594842 -0.012822 128 128 255 -0.851116 0.522332 0.052641
2.781539 -0.434723 -0.014671 128 128 255 -0.914511 0.400902 0.054288
2.844028 -0.262516 -0.015993 128 128 255 -0.958659 0.279145 0.055240
2.884373 -0.081314 -0.016776 128 128 255 -0.987865 0.144975 0.055720
2.897187 0.100000 -0.017033 128 128 255 -0.998432 0.000063 0.055978
2.884373 0.281314 -0.016790 128 128 255 -0.987883 -0.144837 0.055759
2.844028 0.462516 -0.016022 128 128 255 -0.958715 -0.279030 0.054848
2.781539 0.634723 -0.014712 128 128 255 -0.914590 -0.400796 0.053745
2.698442 0.794842 -0.012877 128 128 255 -0.851199 -0.522223 0.052381
2.590141 0.946777 -0.010544 128 128 255 -0.776005 -0.628723 0.050241
2.468055 1.079309 -0.007757 128 128 255 -0.690628 -0.721587 0.048421
2.326193 1.199496 -0.004563 128 128 255 -0.597986 -0.800194 0.045847
2.176606 1.297176 -0.001019 128 128 255 -0.500696 -0.864519 0.043706
2.013718 1.380559 0.002812 128 128 255 -0.404490 -0.913619 0.041090
1.847540 1.442898 0.006861 128 128 255 -0.299310 -0.953287 0.040712
1.681333 1.484706 0.011059 128 128 255 -0.199327 -0.979239 0.036874
1.511498 1.511498 0.015329 128 128 255 -0.112760 -0.993059 0.033460
1.347473 1.522626 0.019598 128 128 255 -0.026875 -0.999157 0.031034
1.191645 1.520100 0.023789 128 128 255 0.052945 -0.998183 0.028761
1.039275 1.506277 0.027828 128 128 255 0.123849 -0.991952 0.026338
0.900669 1.483763 0.031898 128 128 255 0.176977 -0.983911 0.024468
0.767800 1.457529 0.035961 128 128 255 0.224663 -0.974182 0.022266
0.649860 1.425908 0.039662 128 128 255 0.267119 -0.963448 0.020364
0.537702 1.393813 0.042939 128 128 255 0.283513 -0.958789 0.018558
0.439431 1.363739 0.045736 128 128 255 0.289054 -0.957160 0.017117
0.344898 1.335663 0.048008 128 128 255 0.257236 -0.966217 0.015927
0.259103 1.315836 0.049715 128 128 255 0.192564 -0.981167 0.015169
0.180058 1.303385 0.050831 128 128 255 0.105390 -0.994321 0.014818
0.101111 1.299141 0.051337 128 128 255 0.000086 -0.999891 0.014794
0.019942 1.303385 0.051226 128 128 255 -0.103789 -0.994486 0.015029
-0.059103 1.315836 0.050500 128 128 255 -0.192426 -0.981184 0.015839
-0.144898 1.335663 0.049175 128 128 255 -0.257145 -0.966227 0.016790
-0.239431 1.363739 0.047273 128 128 255 -0.288988 -0.957164 0.017953
-0.337702 1.393813 0.044829 128 128 255 -0.283474 -0.958776 0.019792
-0.449860 1.425908 0.041886 128 128 255 -0.267113 -0.963428 0.021366
-0.567800 1.457529 0.038495 128 128 255 -0.224674 -0.974146 0.023668
-0.700669 1.483763 0.034714 128 128 255 -0.177036 -0.983874 0.025502
-0.839275 1.506277 0.030609 128 128 255 -0.123977 -0.991898 0.027708
-0.991645 1.520100 0.026250 128 128 255 -0.053121 -0.998142 0.029828
-1.147473 1.522626 0.021712 128 128 255 0.026679 -0.999122 0.032305
-1.311498 1.511498 0.017071 128 128 255 0.112551 -0.993040 0.034690
-1.481333 1.484706 0.012406 128 128 255 0.199556 -0.979193 0.036855
-1.647540 1.442898 0.007796 128 128 255 0.297854 -0.953695 0.041823
-1.813718 1.380559 0.003318 128 128 255 0.404957 -0.913297 0.043574
-1.976606 1.297176 -0.000952 128 128 255 0.500470 -0.864616 0.044373
-2.126193 1.199496 -0.004943 128 128 255 0.597749 -0.800305 0.046999
-2.268054 1.079309 -0.008589 128 128 255 0.690424 -0.721749 0.048920
-2.390141 0.946777 -0.011830 128 128 255 0.775803 -0.628895 0.051195
-2.498442 0.794842 -0.014611 128 128 255 0.851045 -0.522443 0.052681
-2.581539 0.634723 -0.016888 128 128 255 0.914455 -0.401024 0.054336
-2.644028 0.462516 -0.018623 128 128 255 0.958620 -0.279268 0.055299
-2.684373 0.281314 -0.019789 128 128 255 0.987781 -0.145535 0.055754
-2.697187 0.101294 -0.019987 128 128 255 0.996388 -0.070967 0.046626
-2.686924 0.098889 -0.141851 128 128 255 0.990124 0.070943 0.120920
-2.674171 -0.080645 -0.140991 128 128 255 0.983115 0.145120 0.111470
-2.634007 -0.261196 -0.138960 128 128 255 0.954104 0.278623 0.109796
-2.571815 -0.432789 -0.135789 128 128 255 0.910102 0.400160 0.107637
-2.489120 -0.592344 -0.131531 128 128 255 0.846901 0.521331 0.104750
-2.381317 -0.743782 -0.126258 128 128 255 0.771959 0.627632 0.100785
-2.259809 -0.875893 -0.120056 128 128 255 0.686854 0.720305 0.096911
-2.118590 -0.995747 -0.113032 128 128 255 0.594541 0.798774 0.092088
-1.969694 -1.093186 -0.105302 128 128 255 0.497586 0.862983 0.087563
-1.807526 -1.176422 -0.096998 128 128 255 0.401762 0.912013 0.082583
-1.642080 -1.238708 -0.088261 128 128 255 0.298571 0.951539 0.073675
-1.476597 -1.280553 -0.079238 128 128 255 0.196341 0.978433 0.064184
-1.307464 -1.307464 -0.070082 128 128 255 0.111164 0.991515 0.067383
-1.144103 -1.318783 -0.060951 128 128 255 0.025634 0.997712 0.062562
-0.988888 -1.316508 -0.051999 128 128 255 -0.053816 0.996869 0.057931
-0.837073 -1.302980 -0.043378 128 128 255 -0.124345 0.990809 0.053257
-0.698953 -1.280792 -0.035237 128 128 255 -0.177084 0.982956 0.049374
-0.566502 -1.254896 -0.027716 128 128 255 -0.224443 0.973439 0.045186
-0.448908 -1.223609 -0.020942 128 128 255 -0.266628 0.962918 0.041214
-0.337028 -1.191828 -0.015034 128 128 255 -0.282787 0.958439 0.037751
-0.238975 -1.162035 -0.010093 128 128 255 -0.288173 0.956949 0.034708
-0.144606 -1.134190 -0.006205 128 128 255 -0.256293 0.966057 0.032374
-0.058932 -1.114537 -0.003439 128 128 255 -0.191700 0.980970 0.030791
0.020020 -1.102194 -0.001842 128 128 255 -0.103414 0.994188 0.029935
0.101111 -1.097987 -0.001443 128 128 255 -0.000035 0.999561 0.029631
0.179980 -1.102194 -0.002252 128 128 255 0.104799 0.994036 0.030149
0.258932 -1.114537 -0.004255 128 128 255 0.191694 0.980950 0.031474
0.344606 -1.134190 -0.007419 128 128 255 0.256357 0.966010 0.033257
0.438975 -1.162035 -0.011691 128 128 255 0.288285 0.956884 0.035572
0.537028 -1.191828 -0.017000 128 128 255 0.282946 0.958341 0.039026
0.648908 -1.223609 -0.023255 128 128 255 0.266838 0.962814 0.042266
0.766502 -1.254896 -0.030351 128 128 255 0.224661 0.973320 0.046650
0.898953 -1.280792 -0.038044 128 128 255 0.177233 0.982873 0.050481
1.037073 -1.302980 -0.045925 128 128 255 0.124448 0.990717 0.054698
1.188888 -1.316508 -0.054257 128 128 255 0.053931 0.996796 0.059061
1.344103 -1.318783 -0.062896 128 128 255 -0.025509 0.997631 0.063884
1.507464 -1.307464 -0.071691 128 128 255 -0.109116 0.991952 0.064232
1.676597 -1.280553 -0.080489 128 128 255 -0.200336 0.977540 0.065433
1.842080 -1.238708 -0.089139 128 128 255 -0.296243 0.951890 0.078393
2.007527 -1.176422 -0.097489 128 128 255 -0.401632 0.911966 0.083731
2.169694 -1.093186 -0.105394 128 128 255 -0.497492 0.862973 0.088199
2.318590 -0.995747 -0.112718 128 128 255 -0.594418 0.798739 0.093186
2.459809 -0.875893 -0.119334 128 128 255 -0.686782 0.720317 0.097333
2.581316 -0.743782 -0.125128 128 128 255 -0.771861 0.627615 0.101634
2.689120 -0.592344 -0.129999 128 128 255 -0.846858 0.521369 0.104912
2.771815 -0.432789 -0.133866 128 128 255 -0.910045 0.400177 0.108055
2.834007 -0.261196 -0.136666 128 128 255 -0.954066 0.278660 0.110032
2.874171 -0.080645 -0.138358 128 128 255 -0.983195 0.144771 0.111212
2.886924 0.100000 -0.138927 128 128 255 -0.993739 0.000138 0.111727
2.874171 0.280645 -0.138367 128 128 255 -0.983232 -0.144488 0.111257
2.834007 0.461196 -0.136683 128 128 255 -0.954182 -0.278415 0.109645
2.771815 0.632789 -0.133892 128 128 255 -0.910208 -0.399949 0.107524
2.689120 0.792344 -0.130033 128 128 255 -0.847031 -0.521137 0.104670
2.581316 0.943782 -0.125169 128 128 255 -0.772108 -0.627457 0.100736
2.459809 1.075893 -0.119383 128 128 255 -0.687017 -0.720153 0.096889
2.318590 1.195747 -0.112773 128 128 255 -0.594711 -0.798648 0.092089
2.169694 1.293186 -0.105453 128 128 255 -0.497758 -0.862882 0.087586
2.007527 1.376422 -0.097552 128 128 255 -0.401929 -0.911935 0.082624
1.842080 1.438708 -0.089205 128 128 255 -0.298726 -0.951486 0.073730
1.676597 1.480553 -0.080558 128 128 255 -0.196476 -0.978401 0.064249
1.507464 1.507464 -0.071760 128 128 255 -0.111302 -0.991494 0.067469
1.344103 1.518783 -0.062964 128 128 255 -0.025761 -0.997702 0.062660
1.188888 1.516508 -0.054324 128 128 255 0.053704 -0.996869 0.058039
1.037073 1.502980 -0.045988 128 128 255 0.124295 -0.990809 0.053369
0.898953 1.480791 -0.037856 128 128 255 0.177140 -0.982941 0.049483
0.766502 1.454896 -0.030037 128 128 255 0.224552 -0.973409 0.045284
0.648908 1.423609 -0.022940 128 128 255 0.266743 -0.962882 0.041303
0.537028 1.391828 -0.016686 128 128 255 0.282907 -0.958401 0.037831
0.438975 1.362035 -0.011381 128 128 255 0.288299 -0.956909 0.034777
0.344606 1.334190 -0.007114 128 128 255 0.256423 -0.966020 0.032434
0.258932 1.314537 -0.003958 128 128 255 0.191842 -0.980941 0.030842
0.179980 1.302194 -0.001966 128 128 255 0.104994 -0.994022 0.029942
0.101111 1.297987 -0.001169 128 128 255 0.000177 -0.999558 0.029739
0.020020 1.302194 -0.001582 128 128 255 -0.103227 -0.994201 0.030144
-0.058932 1.314537 -0.003195 128 128 255 -0.191559 -0.980976 0.031497
-0.144606 1.334190 -0.005979 128 128 255 -0.256235 -0.966042 0.033274
-0.238975 1.362035 -0.009885 128 128 255 -0.288166 -0.956919 0.035580
-0.337028 1.391828 -0.014847 128 128 255 -0.282831 -0.958375 0.039027
-0.448908 1.423609 -0.020776 128 128 255 -0.266731 -0.962844 0.042258
-0.566502 1.454896 -0.027571 128 128 255 -0.224580 -0.973339 0.046632
-0.698953 1.480791 -0.035116 128 128 255 -0.177262 -0.982869 0.050455
-0.837073 1.502980 -0.043280 128 128 255 -0.124555 -0.990705 0.054675
-0.988888 1.516508 -0.051924 128 128 255 -0.054054 -0.996791 0.059045
-1.144103 1.518783 -0.060900 128 128 255 0.025371 -0.997635 0.063876
-1.307464 1.507464 -0.070055 128 128 255 0.108976 -0.991967 0.064233
-1.476597 1.480553 -0.079234 128 128 255 0.200189 -0.977569 0.065443
-1.642080 1.438708 -0.088279 128 128 255 0.296067 -0.951943 0.078415
-1.807526 1.376422 -0.097039 128 128 255 0.401450 -0.912042 0.083766
-1.969694 1.293186 -0.105364 128 128 255 0.497306 -0.863075 0.088248
-2.118590 1.195747 -0.113114 128 128 255 0.594234 -0.798868 0.093251
-2.259809 1.075893 -0.120158 128 128 255 0.686607 -0.720473 0.097414
-2.381317 0.943782 -0.126377 128 128 255 0.771700 -0.627797 0.101735
-2.489120 0.792344 -0.131667 128 128 255 0.846717 -0.521572 0.105035
-2.571815 0.632789 -0.135940 128 128 255 0.909932 -0.400395 0.108203
-2.634007 0.461196 -0.139124 128 128 255 0.953983 -0.278875 0.110207
-2.674171 0.280645 -0.141167 128 128 255 0.983090 -0.145364 0.111375
-2.686924 0.101293 -0.141666 128 128 255 0.992218 -0.070815 0.102412
-2.669870 0.098889 -0.262667 128 128 255 0.979636 0.070714 0.187915
-2.657218 -0.079534 -0.261531 128 128 255 0.974616 0.142632 0.172568
-2.617355 -0.259004 -0.258645 128 128 255 0.946496 0.277742 0.164330
-2.555654 -0.429575 -0.254056 128 128 255 0.902725 0.398904 0.161133
-2.473628 -0.588193 -0.247842 128 128 255 0.839862 0.519677 0.156743
-2.366650 -0.738803 -0.240107 128 128 255 0.765348 0.625658 0.150979
-2.246102 -0.870216 -0.230980 128 128 255 0.680712 0.718042 0.145075
-2.105951 -0.989514 -0.220617 128 128 255 0.588942 0.796301 0.138031
-1.958202 -1.086551 -0.209194 128 128 255 0.492551 0.860345 0.131153
-1.797230 -1.169542 -0.196904 128 128 255 0.397348 0.909273 0.123840
-1.632997 -1.231739 -0.183956 128 128 255 0.298236 0.947384 0.116272
-1.468717 -1.275865 -0.170570 128 128 255 0.193403 0.975983 0.100265
-1.300749 -1.300749 -0.156975 128 128 255 0.104527 0.989823 0.096566
-1.138490 -1.312383 -0.143403 128 128 255 0.023650 0.995290 0.094008
-0.984295 -1.310522 -0.130084 128 128 255 -0.055197 0.994672 0.087063
-0.833400 -1.297483 -0.117247 128 128 255 -0.122309 0.989600 0.075715
-0.696090 -1.275833 -0.105111 128 128 255 -0.179067 0.981760 0.063896
-0.564332 -1.250496 -0.093884 128 128 255 -0.224198 0.972154 0.068207
-0.447315 -1.219763 -0.083760 128 128 255 -0.265937 0.961980 0.062220
-0.335900 -1.188503 -0.074911 128 128 255 -0.281707 0.957797 0.057154
-0.238208 -1.159173 -0.067490 128 128 255 -0.286838 0.956536 0.052562
-0.144113 -1.131713 -0.061627 128 128 255 -0.254855 0.965730 0.049137
-0.058644 -1.112348 -0.057421 128 128 255 -0.190394 0.980593 0.046777
0.020152 -1.100183 -0.054947 128 128 255 -0.102644 0.993681 0.045417
0.101111 -1.096036 -0.054249 128 128 255 -0.000058 0.998989 0.044947
0.179848 -1.100183 -0.055340 128 128 255 0.103986 0.993532 0.045629
0.258644 -1.112348 -0.058202 128 128 255 0.190375 0.980563 0.047470
0.344113 -1.131713 -0.062787 128 128 255 0.254942 0.965661 0.050034
0.438208 -1.159173 -0.069019 128 128 255 0.287000 0.956439 0.053443
0.535900 -1.188503 -0.076791 128 128 255 0.281942 0.957649 0.058458
0.647314 -1.219763 -0.085972 128 128 255 0.266249 0.961823 0.063306
0.764332 -1.250496 -0.096406 128 128 255 0.226877 0.971829 0.063831
0.896090 -1.275833 -0.107798 128 128 255 0.174082 0.982557 0.065407
1.033400 -1.297483 -0.119688 128 128 255 0.125327 0.988748 0.081675
1.184295 -1.310522 -0.132253 128 128 255 0.055386 0.994559 0.088235
1.338490 -1.312383 -0.145276 128 128 255 -0.023447 0.995167 0.095361
1.500749 -1.300749 -0.158531 128 128 255 -0.101761 0.989580 0.101860
1.668717 -1.275865 -0.171789 128 128 255 -0.197316 0.975057 0.101638
1.832996 -1.231739 -0.184822 128 128 255 -0.296487 0.948247 0.113681
1.997230 -1.169542 -0.197405 128 128 255 -0.397137 0.909211 0.124969
2.158202 -1.086551 -0.209320 128 128 255 -0.492395 0.860342 0.131753
2.305951 -0.989514 -0.220362 128 128 255 -0.588746 0.796264 0.139077
2.446102 -0.870216 -0.230342 128 128 255 -0.680595 0.718081 0.145428
2.566650 -0.738803 -0.239088 128 128 255 -0.765197 0.625659 0.151739
2.673628 -0.588193 -0.246451 128 128 255 -0.839798 0.519763 0.156800
2.755654 -0.429575 -0.252306 128 128 255 -0.902645 0.398964 0.161429
2.817355 -0.259004 -0.256556 128 128 255 -0.946499 0.275892 0.167404
2.857219 -0.079534 -0.259133 128 128 255 -0.973936 0.144243 0.175050
2.869870 0.100000 -0.259997 128 128 255 -0.984410 0.000188 0.175889
2.857219 0.279534 -0.259136 128 128 255 -0.974782 -0.141927 0.172211
2.817355 0.459004 -0.256562 128 128 255 -0.946625 -0.277466 0.164055
2.755654 0.629575 -0.252315 128 128 255 -0.902888 -0.398621 0.160916
2.673628 0.788193 -0.246463 128 128 255 -0.840056 -0.519412 0.156581
2.566650 0.938803 -0.239102 128 128 255 -0.765565 -0.625419 0.150871
2.446102 1.070216 -0.230357 128 128 255 -0.680945 -0.717833 0.145018
2.305951 1.189514 -0.220379 128 128 255 -0.589183 -0.796125 0.138019
2.158202 1.286551 -0.209336 128 128 255 -0.492790 -0.860203 0.131182
1.997230 1.369542 -0.197421 128 128 255 -0.397580 -0.909163 0.123907
1.832996 1.431739 -0.184837 128 128 255 -0.298459 -0.947301 0.116372
1.668717 1.475865 -0.171802 128 128 255 -0.193595 -0.975932 0.100386
1.500749 1.500749 -0.158541 128 128 255 -0.104706 -0.989789 0.096716
1.338490 1.512383 -0.145282 128 128 255 -0.023820 -0.995269 0.094188
1.184295 1.510522 -0.132254 128 128 255 0.055049 -0.994663 0.087264
1.033400 1.497483 -0.119683 128 128 255 0.122246 -0.989592 0.075913
0.896090 1.475833 -0.107550 128 128 255 0.179144 -0.981735 0.064069
0.764332 1.450496 -0.096036 128 128 255 0.224365 -0.972103 0.068388
0.647314 1.419763 -0.085599 128 128 255 0.266110 -0.961922 0.062380
0.535900 1.388503 -0.076417 128 128 255 0.281886 -0.957736 0.057294
0.438208 1.359173 -0.068647 128 128 255 0.287023 -0.956474 0.052683
0.344113 1.331713 -0.062420 128 128 255 0.255046 -0.965674 0.049240
0.258644 1.312348 -0.057841 128 128 255 0.190600 -0.980549 0.046863
0.179848 1.300183 -0.054988 128 128 255 0.104284 -0.993509 0.045447
0.101111 1.296036 -0.053909 128 128 255 0.000264 -0.998984 0.045074
0.020152 1.300183 -0.054621 128 128 255 -0.102358 -0.993700 0.045633
-0.058644 1.312348 -0.057110 128 128 255 -0.190178 -0.980600 0.047493
-0.144113 1.331713 -0.061333 128 128 255 -0.254764 -0.965708 0.050042
-0.238208 1.359173 -0.067216 128 128 255 -0.286827 -0.956491 0.053434
-0.335900 1.388503 -0.074657 128 128 255 -0.281775 -0.957700 0.058430
-0.447315 1.419763 -0.083528 128 128 255 -0.266093 -0.961869 0.063261
-0.564332 1.450496 -0.093676 128 128 255 -0.226765 -0.971859 0.063771
-0.696090 1.475833 -0.104927 128 128 255 -0.174113 -0.982556 0.065336
-0.833400 1.497483 -0.117087 128 128 255 -0.125478 -0.988735 0.081598
-0.984295 1.510522 -0.129950 128 128 255 -0.055559 -0.994555 0.088173
-1.138490 1.512383 -0.143294 128 128 255 0.023250 -0.995175 0.095318
-1.300749 1.500749 -0.156893 128 128 255 0.101548 -0.989605 0.101836
-1.468717 1.475865 -0.170514 128 128 255 0.197098 -0.975101 0.101636
-1.632997 1.431739 -0.183925 128 128 255 0.296242 -0.948321 0.113703
-1.797230 1.369542 -0.196898 128 128 255 0.396876 -0.909318 0.125020
-1.958202 1.286551 -0.209213 128 128 255 0.492125 -0.860484 0.131834
-2.105951 1.189514 -0.220661 128 128 255 0.588477 -0.796443 0.139191
-2.246102 1.070216 -0.231046 128 128 255 0.680336 -0.718297 0.145577
-2.366650 0.938803 -0.240195 128 128 255 0.764956 -0.625908 0.151928
-2.473628 0.788193 -0.247951 128 128 255 0.839583 -0.520040 0.157029
-2.555654 0.629575 -0.254184 128 128 255 0.902465 -0.399261 0.161702
-2.617355 0.459004 -0.258790 128 128 255 0.946355 -0.276190 0.167725
-2.657218 0.279534 -0.261692 128 128 255 0.973786 -0.144869 0.175365
-2.669870 0.101292 -0.262491 128 128 255 0.983976 -0.070539 0.163752
-2.643878 0.098889 -0.382200 128 128 255 0.969026 0.070471 0.236691
-2.631367 -0.077985 -0.380799 128 128 255 0.963345 0.137943 0.230084
-2.594144 -0.255948 -0.377083 128 128 255 0.937439 0.270910 0.218670
-2.533127 -0.425094 -0.371114 128 128 255 0.892869 0.399075 0.208623
-2.452030 -0.582406 -0.362993 128 128 255 0.830048 0.517365 0.208216
-2.346200 -0.731861 -0.352857 128 128 255 0.756125 0.622900 0.200673
-2.226988 -0.862299 -0.340877 128 128 255 0.672144 0.714887 0.192767
-2.088323 -0.980821 -0.327257 128 128 255 0.581126 0.792849 0.183533
-1.942170 -1.077295 -0.312228 128 128 255 0.484622 0.856886 0.175748
-1.782861 -1.159941 -0.296047 128 128 255 0.391525 0.904586 0.168617
-1.620317 -1.222009 -0.278989 128 128 255 0.292873 0.943553 0.154707
-1.457712 -1.266214 -0.261344 128 128 255 0.190332 0.971094 0.144051
-1.291366 -1.291366 -0.243414 128 128 255 0.098364 0.986082 0.134043
-1.130642 -1.303434 -0.225504 128 128 255 0.020860 0.991901 0.125292
-0.977867 -1.302145 -0.207921 128 128 255 -0.057149 0.991593 0.116096
-0.828255 -1.289783 -0.190965 128 128 255 -0.118971 0.987034 0.107749
-0.692074 -1.271099 -0.174927 128 128 255 -0.179229 0.979778 0.088947
-0.561284 -1.244316 -0.160081 128 128 255 -0.229019 0.969683 0.085235
-0.445072 -1.214349 -0.146682 128 128 255 -0.265007 0.960632 0.083417
-0.334307 -1.183811 -0.134959 128 128 255 -0.283747 0.955381 0.082062
-0.237123 -1.155123 -0.125115 128 128 255 -0.282486 0.955672 0.083025
-0.143413 -1.128196 -0.117319 128 128 255 -0.252885 0.965219 0.066340
-0.058233 -1.109231 -0.111706 128 128 255 -0.188601 0.980013 0.063276
0.020340 -1.097313 -0.108373 128 128 255 -0.101585 0.992926 0.061462
0.101111 -1.093250 -0.107379 128 128 255 -0.000084 0.998147 0.060843
0.179660 -1.097313 -0.108742 128 128 255 0.102875 0.992781 0.061673
0.258233 -1.109231 -0.112439 128 128 255 0.188564 0.979975 0.063981
0.343413 -1.128196 -0.118409 128 128 255 0.249669 0.965496 0.074045
0.437123 -1.155123 -0.126551 128 128 255 0.289555 0.953505 0.083586
0.534307 -1.183811 -0.136726 128 128 255 0.280540 0.956654 0.078172
0.645072 -1.214349 -0.148761 128 128 255 0.265417 0.960420 0.084548
0.761284 -1.244316 -0.162451 128 128 255 0.232684 0.968172 0.092200
0.892074 -1.271099 -0.177453 128 128 255 0.174322 0.980509 0.090636
1.028255 -1.289783 -0.193266 128 128 255 0.121236 0.987115 0.104427
1.177867 -1.302145 -0.209972 128 128 255 0.057425 0.991433 0.117320
1.330642 -1.303434 -0.227282 128 128 255 -0.020563 0.991730 0.126685
1.491366 -1.291366 -0.244899 128 128 255 -0.098076 0.985942 0.135278
1.657712 -1.266214 -0.262518 128 128 255 -0.190001 0.970995 0.145152
1.820317 -1.222009 -0.279838 128 128 255 -0.293542 0.942743 0.158329
1.982861 -1.159941 -0.296560 128 128 255 -0.389293 0.905407 0.169377
2.142170 -1.077295 -0.312396 128 128 255 -0.485292 0.856682 0.174893
2.288323 -0.980821 -0.327075 128 128 255 -0.580847 0.792825 0.184515
2.426988 -0.862299 -0.340344 128 128 255 -0.671978 0.714971 0.193036
2.546201 -0.731861 -0.351977 128 128 255 -0.755920 0.622938 0.201331
2.652030 -0.582406 -0.361774 128 128 255 -0.829617 0.519166 0.205430
2.733127 -0.425094 -0.369570 128 128 255 -0.894240 0.395832 0.208932
2.794144 -0.255948 -0.375233 128 128 255 -0.937424 0.271113 0.218480
2.831367 -0.077985 -0.378667 128 128 255 -0.963897 0.139780 0.226639
2.843878 0.100000 -0.379818 128 128 255 -0.973065 0.000289 0.230532
2.831367 0.277985 -0.378665 128 128 255 -0.963572 -0.137196 0.229579
2.794144 0.455948 -0.375227 128 128 255 -0.937628 -0.270585 0.218260
2.733127 0.625094 -0.369562 128 128 255 -0.893089 -0.398755 0.208297
2.652030 0.782406 -0.361763 128 128 255 -0.830304 -0.517056 0.207963
2.546201 0.931861 -0.351962 128 128 255 -0.756403 -0.622620 0.200498
2.426988 1.062299 -0.340325 128 128 255 -0.672435 -0.714640 0.192668
2.288323 1.180821 -0.327051 128 128 255 -0.581421 -0.792638 0.183503
2.142170 1.277295 -0.312368 128 128 255 -0.484916 -0.856713 0.175783
1.982861 1.359941 -0.296527 128 128 255 -0.391808 -0.904446 0.168712
1.820317 1.422009 -0.279799 128 128 255 -0.293137 -0.943446 0.154857
1.657712 1.466214 -0.262473 128 128 255 -0.190574 -0.971017 0.144251
1.491366 1.491366 -0.244846 128 128 255 -0.098578 -0.986027 0.134286
1.330642 1.503435 -0.227222 128 128 255 -0.021054 -0.991861 0.125574
1.177867 1.502145 -0.209903 128 128 255 0.056983 -0.991565 0.116412
1.028255 1.489783 -0.193189 128 128 255 0.118910 -0.987005 0.108083
0.892074 1.471099 -0.177148 128 128 255 0.179342 -0.979732 0.089232
0.761284 1.444316 -0.162028 128 128 255 0.229228 -0.969610 0.085499
0.645072 1.414349 -0.148333 128 128 255 0.265236 -0.960547 0.083665
0.534307 1.383811 -0.136296 128 128 255 0.283999 -0.955287 0.082292
0.437123 1.355123 -0.126121 128 128 255 0.282768 -0.955570 0.083238
0.343413 1.328196 -0.117982 128 128 255 0.253132 -0.965144 0.066492
0.258233 1.309231 -0.112017 128 128 255 0.188867 -0.979954 0.063400
0.179660 1.297313 -0.108328 128 128 255 0.103274 -0.992749 0.061518
0.101111 1.293250 -0.106976 128 128 255 0.000347 -0.998138 0.060990
0.020340 1.297313 -0.107983 128 128 255 -0.101203 -0.992952 0.061682
-0.058233 1.309231 -0.111330 128 128 255 -0.188313 -0.980022 0.063998
-0.143413 1.328196 -0.116961 128 128 255 -0.249418 -0.965562 0.074032
-0.237123 1.355123 -0.124776 128 128 255 -0.289301 -0.953586 0.083541
-0.334307 1.383811 -0.134641 128 128 255 -0.280326 -0.956722 0.078101
-0.445072 1.414349 -0.146386 128 128 255 -0.265215 -0.960484 0.084446
-0.561284 1.444316 -0.159809 128 128 255 -0.232532 -0.968222 0.092066
-0.692074 1.471099 -0.174680 128 128 255 -0.174352 -0.980517 0.090488
-0.828255 1.489783 -0.190745 128 128 255 -0.121410 -0.987110 0.104278
-0.977867 1.502145 -0.207728 128 128 255 -0.057635 -0.991436 0.117191
-1.130642 1.503435 -0.225338 128 128 255 0.020323 -0.991747 0.126587
-1.291366 1.491366 -0.243276 128 128 255 0.097814 -0.985976 0.135215
-1.457712 1.466214 -0.261234 128 128 255 0.189709 -0.971055 0.145127
