ply
format ascii 1.0
element vertex 696
property float x
property float y
property float z
property uchar red
property uchar green
property uchar blue
property float nx
property float ny
property float nz
end_header
0.162491 0.516502 -0.319809 128 128 255 0.010870 0.059170 0.998189
0.159195 0.497508 -0.319147 128 128 255 0.002553 0.024004 0.999709
0.155730 0.460871 -0.318605 128 128 255 -0.000943 0.017781 0.999841
0.152066 0.439757 -0.318146 128 128 255 -0.002157 0.020658 0.999784
0.148165 0.417276 -0.317735 128 128 255 -0.004388 0.018288 0.999823
0.143974 0.393123 -0.317342 128 128 255 -0.006686 0.019648 0.999785
0.139417 0.366859 -0.316939 128 128 255 -0.009098 0.021332 0.999731
0.134376 0.354473 -0.316501 128 128 255 -0.010209 0.024268 0.999653
0.128654 0.321497 -0.316011 128 128 255 -0.016035 0.017487 0.999718
0.121867 0.282382 -0.315454 128 128 255 -0.022794 0.014877 0.999629
0.113021 0.214737 -0.314825 128 128 255 -0.042493 0.014727 0.998988
0.100000 0.100000 -0.314170 128 128 255 -0.006529 -0.020855 -0.999761
0.113021 0.214737 -0.313242 128 128 255 0.041193 0.006597 -0.999129
0.121867 0.282382 -0.312312 128 128 255 0.025339 0.014693 -0.999571
0.128654 0.321498 -0.311359 128 128 255 0.018232 0.021498 -0.999603
0.134376 0.354474 -0.310408 128 128 255 0.014759 0.033769 -0.999321
0.139417 0.366859 -0.309496 128 128 255 0.012151 0.048721 -0.998739
0.143974 0.393124 -0.308660 128 128 255 0.009171 0.028757 -0.999544
0.148165 0.417276 -0.307939 128 128 255 0.006456 0.025776 -0.999647
0.152066 0.439757 -0.307376 128 128 255 -0.007189 -0.028596 -0.999565
0.155730 0.460871 -0.309155 128 128 255 -0.020601 -0.098771 -0.994897
0.159195 0.497508 -0.312682 128 128 255 -0.027384 -0.126249 -0.991621
0.162491 0.516503 -0.316349 128 128 255 -0.040093 -0.188474 -0.981259
0.165640 0.534652 -0.320109 128 128 255 -0.032104 -0.173911 -0.984238
0.168660 0.552059 -0.323916 128 128 255 -0.031844 -0.212824 -0.976571
0.171567 0.568808 -0.327729 128 128 255 -0.032404 -0.219853 -0.974995
0.174371 0.584970 -0.331510 128 128 255 -0.035346 -0.237299 -0.970793
0.177083 0.600601 -0.335226 128 128 255 -0.049964 -0.340206 -0.939023
0.179712 0.599084 -0.338849 128 128 255 -0.055066 -0.456103 -0.888222
0.182264 0.613795 -0.342358 128 128 255 -0.024080 -0.228384 -0.973273
0.184747 0.628102 -0.345738 128 128 255 -0.024194 -0.225662 -0.973905
0.187165 0.642038 -0.348980 128 128 255 -0.024312 -0.221975 -0.974749
0.189524 0.655630 -0.352083 128 128 255 -0.035587 -0.269313 -0.962395
0.191826 0.668902 -0.355052 128 128 255 -0.033298 -0.211065 -0.976905
0.194078 0.681876 -0.357897 128 128 255 -0.033405 -0.207324 -0.977702
0.196280 0.694571 -0.360634 128 128 255 -0.033766 -0.204485 -0.978287
0.198438 0.707004 -0.363286 128 128 255 -0.025080 -0.142145 -0.989528
0.200552 0.735858 -0.365879 128 128 255 -0.025899 -0.141557 -0.989591
0.202627 0.747813 -0.368443 128 128 255 -0.033055 -0.165820 -0.985602
0.204663 0.759549 -0.371009 128 128 255 -0.058664 -0.258173 -0.964316
0.206664 0.771077 -0.374978 128 128 255 -0.088417 -0.393210 -0.915187
0.208630 0.782409 -0.381323 128 128 255 -0.096974 -0.474572 -0.874858
0.210564 0.793553 -0.387652 128 128 255 -0.096700 -0.478343 -0.872833
0.212466 0.804520 -0.393912 128 128 255 -0.062431 -0.490079 -0.869440
0.454926 0.697729 -0.402055 128 128 255 0.150122 0.227158 0.962217
0.449204 0.688182 -0.399001 128 128 255 0.136338 0.227961 0.964078
0.443389 0.678480 -0.395912 128 128 255 0.135522 0.228230 0.964129
0.437477 0.668616 -0.392759 128 128 255 0.135673 0.230135 0.963655
0.431461 0.658579 -0.389518 128 128 255 0.136654 0.233408 0.962729
0.425337 0.648363 -0.386165 128 128 255 0.138301 0.237732 0.961435
0.419099 0.637955 -0.382680 128 128 255 0.158761 0.277119 0.947628
0.412740 0.627345 -0.379049 128 128 255 0.110575 0.212555 0.970873
0.406253 0.616522 -0.375260 128 128 255 0.114970 0.222282 0.968180
0.399629 0.605470 -0.371309 128 128 255 0.142449 0.259957 0.955055
0.392859 0.594176 -0.367196 128 128 255 0.219072 0.383862 0.897027
0.385934 0.599288 -0.362928 128 128 255 0.218429 0.383696 0.897255
0.378842 0.587456 -0.358516 128 128 255 0.144953 0.266579 0.952851
0.371570 0.575324 -0.353980 128 128 255 0.144637 0.266417 0.952944
0.364105 0.562869 -0.349344 128 128 255 0.143402 0.264360 0.953703
0.356429 0.550063 -0.344635 128 128 255 0.141157 0.260231 0.955173
0.348524 0.536874 -0.339889 128 128 255 0.215299 0.362637 0.906720
0.357035 0.523266 -0.335143 128 128 255 0.155470 0.250909 0.955444
0.348602 0.509197 -0.330440 128 128 255 0.142565 0.225200 0.963826
0.339862 0.494616 -0.325821 128 128 255 0.106029 0.171613 0.979442
0.330779 0.462795 -0.321335 128 128 255 0.070189 0.120810 0.990191
0.321309 0.446996 -0.319612 128 128 255 0.040357 0.066786 0.996951
0.311399 0.430461 -0.318742 128 128 255 0.018639 0.036257 0.999169
0.300978 0.413076 -0.318000 128 128 255 0.010224 0.027090 0.999581
0.289961 0.394695 -0.317354 128 128 255 0.007436 0.027400 0.999597
0.278231 0.375124 -0.316776 128 128 255 0.003960 0.025522 0.999666
0.265629 0.354098 -0.316236 128 128 255 0.004081 0.029034 0.999570
0.251924 0.347900 -0.315711 128 128 255 0.000840 0.027721 0.999615
0.236765 0.322609 -0.315179 128 128 255 -0.002742 0.025195 0.999679
0.202892 0.293902 -0.314626 128 128 255 -0.006319 0.021473 0.999749
0.182482 0.259850 -0.314037 128 128 255 -0.011162 0.020495 0.999728
0.155883 0.198805 -0.313411 128 128 255 -0.028557 0.025121 0.999276
0.100000 0.100000 -0.312796 128 128 255 -0.456765 -0.637097 0.620865
0.155883 0.198805 -0.311941 128 128 255 0.034274 -0.006143 -0.999394
0.182482 0.259850 -0.311119 128 128 255 0.023283 0.005787 -0.999712
0.202893 0.293902 -0.310302 128 128 255 0.020165 0.009930 -0.999747
0.236765 0.322609 -0.309512 128 128 255 0.018148 0.013376 -0.999746
0.251924 0.347901 -0.308781 128 128 255 0.019143 0.026510 -0.999465
0.265629 0.354099 -0.308142 128 128 255 0.015903 0.025712 -0.999543
0.278232 0.375125 -0.307630 128 128 255 0.010250 0.015551 -0.999827
0.289962 0.394695 -0.307281 128 128 255 -0.015134 -0.023739 -0.999604
0.300979 0.413076 -0.309031 128 128 255 -0.056361 -0.104003 -0.992979
0.311399 0.430461 -0.312353 128 128 255 -0.081224 -0.139090 -0.986943
0.321310 0.446997 -0.315822 128 128 255 -0.099003 -0.155027 -0.982937
0.330780 0.462796 -0.319397 128 128 255 -0.084483 -0.131691 -0.987684
0.339862 0.494616 -0.323036 128 128 255 -0.087299 -0.137955 -0.986584
0.348602 0.509198 -0.326701 128 128 255 -0.098509 -0.163518 -0.981610
0.357035 0.523267 -0.330359 128 128 255 -0.131556 -0.227268 -0.964905
0.348524 0.536874 -0.333979 128 128 255 -0.134553 -0.232754 -0.963183
0.356429 0.550063 -0.337537 128 128 255 -0.129777 -0.234382 -0.963443
0.364105 0.562869 -0.341013 128 128 255 -0.106305 -0.199573 -0.974100
0.371571 0.575325 -0.344392 128 128 255 -0.106409 -0.198924 -0.974221
0.378842 0.587457 -0.347665 128 128 255 -0.106217 -0.197458 -0.974540
0.385934 0.599289 -0.350832 128 128 255 -0.159569 -0.296131 -0.941724
0.392859 0.594176 -0.353894 128 128 255 -0.160913 -0.296493 -0.941382
0.399629 0.605470 -0.356860 128 128 255 -0.088432 -0.166476 -0.982072
0.406253 0.616522 -0.359744 128 128 255 -0.100700 -0.196128 -0.975394
0.412740 0.627346 -0.362564 128 128 255 -0.117876 -0.222768 -0.967719
0.419099 0.637955 -0.365342 128 128 255 -0.091391 -0.159221 -0.983004
0.425337 0.648363 -0.368104 128 128 255 -0.115774 -0.193997 -0.974147
0.431461 0.658579 -0.370877 128 128 255 -0.143892 -0.235651 -0.961126
0.437476 0.668615 -0.374899 128 128 255 -0.208391 -0.341386 -0.916531
0.443389 0.678480 -0.381033 128 128 255 -0.243637 -0.408956 -0.879429
0.449204 0.688182 -0.387158 128 128 255 -0.245066 -0.412848 -0.877211
0.454926 0.697728 -0.393225 128 128 255 -0.229657 -0.427891 -0.874167
0.648704 0.543050 -0.402049 128 128 255 0.231783 0.175423 0.956819
0.639930 0.536202 -0.398772 128 128 255 0.214187 0.183860 0.959333
0.631013 0.529243 -0.395465 128 128 255 0.212672 0.183999 0.959643
0.621946 0.522167 -0.392106 128 128 255 0.212259 0.185128 0.959517
0.612722 0.514969 -0.388673 128 128 255 0.178664 0.154961 0.971631
0.603331 0.507640 -0.385149 128 128 255 0.218079 0.182599 0.958697
0.593765 0.500175 -0.381517 128 128 255 0.322879 0.263247 0.909093
0.600681 0.492565 -0.377766 128 128 255 0.322733 0.264408 0.908808
0.590732 0.484801 -0.373889 128 128 255 0.174200 0.152886 0.972769
0.580575 0.460208 -0.369882 128 128 255 0.176263 0.155599 0.971967
0.570194 0.452106 -0.365747 128 128 255 0.226583 0.194918 0.954289
0.559575 0.443819 -0.361491 128 128 255 0.275507 0.228009 0.933867
0.548700 0.435332 -0.357126 128 128 255 0.232473 0.190414 0.953781
0.537549 0.426630 -0.352670 128 128 255 0.230950 0.189227 0.954387
0.526101 0.417696 -0.348144 128 128 255 0.262252 0.218368 0.939968
0.514331 0.408510 -0.343575 128 128 255 0.218552 0.191251 0.956900
0.502209 0.399050 -0.338993 128 128 255 0.212531 0.185876 0.959313
0.489702 0.389290 -0.334432 128 128 255 0.184838 0.157885 0.970004
0.460104 0.379198 -0.329930 128 128 255 0.161367 0.134113 0.977739
0.446702 0.368739 -0.325525 128 128 255 0.192966 0.153882 0.969064
0.432774 0.357870 -0.321258 128 128 255 0.111883 0.092671 0.989391
0.418253 0.346537 -0.319406 128 128 255 0.075459 0.060434 0.995316
0.403055 0.351343 -0.318318 128 128 255 0.042426 0.034779 0.998494
0.387077 0.338873 -0.317367 128 128 255 0.032524 0.028301 0.999070
0.370183 0.325689 -0.316527 128 128 255 0.025762 0.025747 0.999336
0.352195 0.311652 -0.315772 128 128 255 0.025075 0.026454 0.999335
0.349537 0.296570 -0.315079 128 128 255 0.018684 0.024726 0.999520
0.328522 0.280170 -0.314426 128 128 255 0.015165 0.025263 0.999566
0.305276 0.262029 -0.313798 128 128 255 0.007525 0.022516 0.999718
0.278891 0.241438 -0.313178 128 128 255 0.000211 0.021914 0.999760
0.247594 0.200347 -0.312559 128 128 255 -0.003789 0.023925 0.999707
0.190139 0.168515 -0.311937 128 128 255 -0.014404 0.034947 0.999285
0.100000 0.100000 -0.311363 128 128 255 -0.797416 -0.509300 -0.323637
0.190139 0.168515 -0.310585 128 128 255 0.028504 -0.023325 -0.999322
0.247594 0.200347 -0.309874 128 128 255 0.021492 -0.005241 -0.999755
0.278892 0.241438 -0.309197 128 128 255 0.021138 0.001456 -0.999776
0.305277 0.262029 -0.308575 128 128 255 0.021314 0.003310 -0.999767
0.328522 0.280170 -0.308033 128 128 255 0.018547 0.003819 -0.999821
0.349537 0.296571 -0.307600 128 128 255 0.017526 0.007565 -0.999818
0.352196 0.311652 -0.307305 128 128 255 0.009348 0.005083 -0.999943
0.370183 0.325690 -0.307180 128 128 255 -0.031932 -0.019560 -0.999299
0.387077 0.338874 -0.308900 128 128 255 -0.082374 -0.059558 -0.994820
0.403056 0.351344 -0.312007 128 128 255 -0.149951 -0.122783 -0.981040
0.418254 0.346538 -0.315270 128 128 255 -0.147409 -0.125453 -0.981087
0.432775 0.357870 -0.318650 128 128 255 -0.142076 -0.125003 -0.981931
0.446703 0.368740 -0.322112 128 128 255 -0.138355 -0.117219 -0.983421
0.460105 0.379199 -0.325623 128 128 255 -0.129253 -0.106001 -0.985930
0.489703 0.389290 -0.329152 128 128 255 -0.132673 -0.109347 -0.985110
0.502209 0.399051 -0.332673 128 128 255 -0.190220 -0.164610 -0.967843
0.514331 0.408511 -0.336163 128 128 255 -0.196315 -0.169526 -0.965775
0.526102 0.417696 -0.339603 128 128 255 -0.173506 -0.144239 -0.974213
0.537550 0.426630 -0.342981 128 128 255 -0.174890 -0.144935 -0.973862
0.548700 0.435332 -0.346288 128 128 255 -0.175764 -0.145025 -0.973691
0.559575 0.443819 -0.349520 128 128 255 -0.176376 -0.144721 -0.973626
0.570194 0.452107 -0.352680 128 128 255 -0.210574 -0.176360 -0.961538
0.580575 0.460208 -0.355773 128 128 255 -0.137784 -0.116549 -0.983581
0.590733 0.484801 -0.358811 128 128 255 -0.138663 -0.115947 -0.983529
0.600681 0.492565 -0.361807 128 128 255 -0.258310 -0.217205 -0.941328
0.593765 0.500175 -0.364779 128 128 255 -0.265347 -0.221300 -0.938412
0.603331 0.507640 -0.367749 128 128 255 -0.153759 -0.128326 -0.979740
0.612721 0.514968 -0.370738 128 128 255 -0.218686 -0.184743 -0.958148
0.621946 0.522167 -0.374817 128 128 255 -0.301093 -0.254206 -0.919088
0.631012 0.529243 -0.380729 128 128 255 -0.348120 -0.301692 -0.887578
0.639929 0.536202 -0.386640 128 128 255 -0.351305 -0.305029 -0.885179
0.648704 0.543049 -0.392506 128 128 255 -0.335394 -0.329556 -0.882556
0.784498 0.313446 -0.402042 128 128 255 0.100534 0.801546 0.589420
0.773847 0.310215 -0.398533 128 128 255 0.088871 0.724258 0.683778
0.763022 0.306931 -0.395001 128 128 255 0.084645 0.729640 0.678573
0.752017 0.303593 -0.391427 128 128 255 0.081115 0.735228 0.672948
0.740820 0.300196 -0.387795 128 128 255 0.054203 0.742351 0.667815
0.712755 0.296738 -0.384093 128 128 255 0.052662 0.748363 0.661196
0.701143 0.293216 -0.380309 128 128 255 0.054738 0.801949 0.594879
0.689306 0.289625 -0.376435 128 128 255 0.078223 0.826954 0.556802
0.677231 0.285962 -0.372465 128 128 255 0.069510 0.768778 0.635727
0.664901 0.282222 -0.368400 128 128 255 0.058785 0.756810 0.650986
0.652300 0.278400 -0.364242 128 128 255 0.055450 0.793236 0.606385
0.639410 0.274489 -0.359999 128 128 255 0.050670 0.800044 0.597798
0.626209 0.270485 -0.355683 128 128 255 0.044960 0.806960 0.588893
0.612674 0.266379 -0.351309 128 128 255 0.038209 0.813986 0.579627
0.598777 0.262164 -0.346899 128 128 255 0.047927 0.818559 0.572420
0.601156 0.257830 -0.342474 128 128 255 0.061071 0.683209 0.727665
0.586442 0.253366 -0.338062 128 128 255 0.011025 0.833219 0.552833
0.571261 0.248761 -0.333694 128 128 255 -0.000106 0.840580 0.541688
0.555564 0.243999 -0.329401 128 128 255 -0.011657 0.812447 0.582918
0.539296 0.239064 -0.325217 128 128 255 -0.024964 0.852705 0.521796
0.522390 0.233936 -0.321178 128 128 255 -0.301112 0.799868 0.519175
0.504763 0.211922 -0.319193 128 128 255 -0.333508 0.797542 0.502691
0.486315 0.206326 -0.317878 128 128 255 -0.078305 0.899917 0.428973
0.450252 0.200442 -0.316710 128 128 255 -0.098698 0.875343 0.473321
0.429745 0.194222 -0.315668 128 128 255 -0.131573 0.883159 0.450243
0.407911 0.187598 -0.314730 128 128 255 -0.137333 0.894369 0.425727
0.384453 0.180482 -0.313878 128 128 255 -0.145516 0.925111 0.350706
0.358944 0.172744 -0.313094 128 128 255 -0.234591 0.880700 0.411502
0.347394 0.164185 -0.312364 128 128 255 -0.182390 0.928203 0.324305
0.315367 0.154470 -0.311678 128 128 255 -0.153429 0.945801 0.286218
0.277376 0.142945 -0.311026 128 128 255 -0.126488 0.971098 0.202409
0.211198 0.127926 -0.310410 128 128 255 -0.140515 0.983065 0.117641
0.100000 0.100000 -0.309878 128 128 255 -0.008483 -0.999507 0.030244
0.211198 0.127926 -0.309181 128 128 255 0.157679 -0.978639 -0.131920
0.277376 0.142945 -0.308584 128 128 255 0.160693 -0.959691 -0.230590
0.315367 0.154470 -0.308053 128 128 255 0.174987 -0.936300 -0.304502
0.347394 0.164185 -0.307604 128 128 255 0.259930 -0.882228 -0.392568
0.358944 0.172744 -0.307257 128 128 255 0.208688 -0.902145 -0.377604
0.384454 0.180483 -0.307037 128 128 255 0.163054 -0.902058 -0.399630
0.407912 0.187599 -0.306967 128 128 255 0.160719 -0.906995 -0.389268
0.429746 0.194222 -0.307075 128 128 255 0.137539 -0.877137 -0.460123
0.450253 0.200443 -0.308763 128 128 255 0.067602 -0.895482 -0.439934
0.486315 0.206326 -0.311647 128 128 255 0.060119 -0.867169 -0.494372
0.504763 0.211922 -0.314694 128 128 255 0.303646 -0.813619 -0.495806
0.522390 0.233936 -0.317873 128 128 255 0.296312 -0.790755 -0.535637
0.539297 0.239065 -0.321152 128 128 255 0.048900 -0.847020 -0.529307
0.555565 0.243999 -0.324502 128 128 255 0.039192 -0.839311 -0.542236
0.571261 0.248761 -0.327898 128 128 255 0.029153 -0.797993 -0.601962
0.586443 0.253366 -0.331315 128 128 255 0.031915 -0.762707 -0.645956
0.601157 0.257830 -0.334734 128 128 255 0.023495 -0.816145 -0.577369
0.598778 0.262164 -0.338138 128 128 255 0.013129 -0.808924 -0.587767
0.612674 0.266379 -0.341515 128 128 255 0.002142 -0.808522 -0.588462
0.626209 0.270485 -0.344856 128 128 255 -0.003545 -0.801397 -0.598122
0.639410 0.274489 -0.348157 128 128 255 -0.008895 -0.794409 -0.607318
0.652300 0.278400 -0.351418 128 128 255 -0.014084 -0.787564 -0.616072
0.664901 0.282222 -0.354644 128 128 255 -0.019299 -0.780874 -0.624390
0.677231 0.285962 -0.357840 128 128 255 -0.026924 -0.739739 -0.672355
0.689306 0.289625 -0.361019 128 128 255 -0.026806 -0.803768 -0.594339
0.701143 0.293216 -0.364194 128 128 255 -0.045829 -0.817812 -0.573658
0.712754 0.296738 -0.367379 128 128 255 -0.033983 -0.743745 -0.667599
0.740820 0.300196 -0.370593 128 128 255 -0.054742 -0.739510 -0.670916
0.752016 0.303592 -0.374730 128 128 255 -0.148176 -0.736519 -0.659988
0.763022 0.306931 -0.380413 128 128 255 -0.195273 -0.734717 -0.649661
0.773846 0.310214 -0.386101 128 128 255 -0.202298 -0.730048 -0.652767
0.784497 0.313445 -0.391758 128 128 255 -0.215219 -0.619088 -0.755256
0.813008 0.056353 0.097966 128 128 255 0.315900 0.494166 0.809943
0.801910 0.057172 0.101713 128 128 255 0.180185 0.597700 0.781209
0.790632 0.058004 0.105478 128 128 255 0.199199 0.676888 0.708620
0.779164 0.058850 0.109274 128 128 255 0.195254 0.683960 0.702904
0.767497 0.059710 0.113110 128 128 255 0.191668 0.691093 0.696888
0.755620 0.060587 0.116995 128 128 255 0.138388 0.766952 0.626605
0.743521 0.061479 0.120937 128 128 255 0.126945 0.723400 0.678659
0.714520 0.062389 0.124939 128 128 255 0.125272 0.730392 0.671442
0.701937 0.063317 0.129003 128 128 255 0.177293 0.727051 0.663298
0.689089 0.064265 0.133128 128 128 255 0.173087 0.734881 0.655737
0.675958 0.065233 0.137310 128 128 255 0.172838 0.755507 0.631931
0.662526 0.066224 0.141539 128 128 255 0.167809 0.738315 0.653246
0.648770 0.067239 0.145805 128 128 255 0.175162 0.812169 0.556506
0.634666 0.068279 0.150093 128 128 255 0.153700 0.761365 0.629841
0.620185 0.069347 0.154385 128 128 255 0.145382 0.770370 0.620802
0.605296 0.070446 0.158661 128 128 255 0.376786 0.515030 0.769920
0.606629 0.071577 0.162897 128 128 255 0.196687 0.769389 0.607746
0.590809 0.072744 0.167067 128 128 255 0.114588 0.794168 0.596797
0.574451 0.073950 0.171144 128 128 255 0.102334 0.804548 0.585004
0.557498 0.075201 0.175099 128 128 255 0.089340 0.815210 0.572234
0.539880 0.076501 0.178904 128 128 255 0.051917 0.786240 0.615737
0.521511 0.077856 0.181027 128 128 255 -0.236423 0.817610 0.524994
0.502285 0.079274 0.182575 128 128 255 -0.001960 0.864543 0.502555
0.465406 0.080765 0.183966 128 128 255 -0.006293 0.895470 0.445077
0.444035 0.082341 0.185217 128 128 255 -0.015527 0.886777 0.461937
0.421280 0.084020 0.186343 128 128 255 -0.020636 0.898756 0.437964
0.396833 0.085823 0.187359 128 128 255 -0.024772 0.910855 0.411982
0.370248 0.087784 0.188278 128 128 255 -0.037941 0.946828 0.319494
0.357508 0.089953 0.189111 128 128 255 -0.049940 0.931190 0.361098
0.324128 0.092415 0.189867 128 128 255 -0.033485 0.960549 0.276087
0.284533 0.095336 0.190551 128 128 255 -0.028473 0.972455 0.231347
0.216262 0.099143 0.191161 128 128 255 -0.039295 0.990530 0.131552
0.100000 0.100000 0.191648 128 128 255 -0.244558 0.969122 -0.031534
0.216262 0.099143 0.192264 128 128 255 0.078114 -0.989847 -0.118749
0.284533 0.095336 0.192743 128 128 255 0.047741 -0.980473 -0.190771
0.324128 0.092415 0.193125 128 128 255 0.055025 -0.963838 -0.260747
0.357507 0.089953 0.193396 128 128 255 0.064312 -0.961142 -0.268458
0.370248 0.087784 0.193542 128 128 255 0.078594 -0.901494 -0.425596
0.396833 0.085823 0.193544 128 128 255 0.045688 -0.914890 -0.401109
0.421280 0.084020 0.193381 128 128 255 0.041327 -0.902292 -0.429140
0.444034 0.082341 0.193033 128 128 255 0.024987 -0.890203 -0.454879
0.465405 0.080765 0.191379 128 128 255 -0.003423 -0.877369 -0.479803
0.502285 0.079274 0.188725 128 128 255 -0.016318 -0.887966 -0.459620
0.521510 0.077856 0.185900 128 128 255 -0.034465 -0.815605 -0.577582
0.539880 0.076501 0.182929 128 128 255 0.206583 -0.815366 -0.540834
0.557498 0.075201 0.179839 128 128 255 -0.061540 -0.821442 -0.566962
0.574451 0.073950 0.176654 128 128 255 -0.071533 -0.811139 -0.580463
0.590808 0.072744 0.173396 128 128 255 -0.080896 -0.801127 -0.593002
0.606629 0.071577 0.170086 128 128 255 -0.139539 -0.786900 -0.601097
0.605296 0.070446 0.166740 128 128 255 -0.154579 -0.775954 -0.611556
0.620185 0.069348 0.163374 128 128 255 -0.149042 -0.678815 -0.719025
0.634665 0.068279 0.159998 128 128 255 -0.121098 -0.829117 -0.545802
0.648770 0.067239 0.156622 128 128 255 -0.118498 -0.755030 -0.644893
0.662526 0.066224 0.153250 128 128 255 -0.125066 -0.767248 -0.629038
0.675958 0.065233 0.149884 128 128 255 -0.126350 -0.750669 -0.648484
0.689089 0.064265 0.146522 128 128 255 -0.132372 -0.742373 -0.656780
0.701937 0.063317 0.143161 128 128 255 -0.138543 -0.734191 -0.664658
0.714520 0.062389 0.139794 128 128 255 -0.100381 -0.731847 -0.674035
0.743521 0.061479 0.136411 128 128 255 -0.104589 -0.724417 -0.681382
0.755620 0.060587 0.133003 128 128 255 -0.158854 -0.707048 -0.689093
0.767497 0.059710 0.129557 128 128 255 -0.137105 -0.762031 -0.632860
0.779164 0.058850 0.125359 128 128 255 -0.249375 -0.672454 -0.696863
0.790632 0.058004 0.119914 128 128 255 -0.262658 -0.588514 -0.764632
0.801910 0.057172 0.114454 128 128 255 -0.301289 -0.657694 -0.690409
0.813008 0.056353 0.109013 128 128 255 -0.212096 -0.771242 -0.600167
0.747083 -0.193773 0.097974 128 128 255 0.301500 -0.166545 0.938808
0.737023 -0.189015 0.101965 128 128 255 0.238464 -0.108080 0.965118
0.710133 -0.184180 0.105969 128 128 255 0.217456 -0.094929 0.971443
0.699738 -0.179263 0.109991 128 128 255 0.302427 -0.135189 0.943537
0.689163 -0.174261 0.114037 128 128 255 0.299830 -0.132897 0.944691
0.678397 -0.169169 0.118110 128 128 255 0.297269 -0.130662 0.945811
0.667430 -0.163982 0.122213 128 128 255 0.294612 -0.128449 0.946945
0.656249 -0.158694 0.126345 128 128 255 0.245655 -0.098895 0.964299
0.644843 -0.153300 0.130507 128 128 255 0.291847 -0.113857 0.949664
0.633197 -0.147792 0.134693 128 128 255 0.288055 -0.111340 0.951119
0.621295 -0.142162 0.138899 128 128 255 0.327164 -0.128510 0.936188
0.609120 -0.153070 0.143114 128 128 255 0.319853 -0.124720 0.939222
0.596650 -0.147173 0.147329 128 128 255 0.399514 -0.160729 0.902527
0.600532 -0.141126 0.151529 128 128 255 0.317872 -0.130199 0.939152
0.587406 -0.134918 0.155700 128 128 255 0.222555 -0.093869 0.970391
0.573910 -0.128535 0.159823 128 128 255 0.235667 -0.103027 0.966357
0.560011 -0.121961 0.163878 128 128 255 0.270247 -0.128819 0.954134
0.545671 -0.115179 0.167845 128 128 255 0.209707 -0.103457 0.972276
0.530844 -0.108166 0.171701 128 128 255 0.196551 -0.097975 0.975586
0.515477 -0.100898 0.175423 128 128 255 0.182266 -0.092103 0.978926
0.499507 -0.093345 0.178987 128 128 255 0.116589 -0.055748 0.991614
0.466189 -0.085469 0.181251 128 128 255 0.076731 -0.037247 0.996356
0.448763 -0.077227 0.183038 128 128 255 0.076860 -0.038020 0.996317
0.430441 -0.068561 0.184658 128 128 255 0.064717 -0.025798 0.997570
0.411069 -0.059399 0.186123 128 128 255 0.064158 -0.017563 0.997785
0.390443 -0.049644 0.187442 128 128 255 0.053711 -0.010324 0.998503
0.368283 -0.039163 0.188625 128 128 255 0.045661 -0.004510 0.998947
0.344185 -0.011099 0.189682 128 128 255 0.047352 -0.003706 0.998871
0.334196 0.001508 0.190621 128 128 255 0.043731 -0.001581 0.999042
0.303940 0.015818 0.191446 128 128 255 0.025421 0.008549 0.999640
0.268049 0.032794 0.192162 128 128 255 0.021549 0.014725 0.999659
0.204605 0.054917 0.192766 128 128 255 0.023156 0.035289 0.999109
0.100000 0.100000 0.193208 128 128 255 -0.703146 0.439767 0.558740
0.204605 0.054917 0.193740 128 128 255 -0.008621 -0.035879 -0.999319
0.268049 0.032794 0.194100 128 128 255 -0.001806 -0.020033 -0.999798
0.303940 0.015818 0.194329 128 128 255 -0.002139 -0.014161 -0.999897
0.334196 0.001508 0.194419 128 128 255 -0.005147 -0.009197 -0.999944
0.344185 -0.011099 0.194360 128 128 255 -0.012321 -0.003156 -0.999919
0.368283 -0.039163 0.194138 128 128 255 -0.013758 -0.000015 -0.999905
0.390443 -0.049644 0.193738 128 128 255 -0.021103 0.005691 -0.999761
0.411069 -0.059399 0.193145 128 128 255 -0.047101 0.021495 -0.998659
0.430440 -0.068561 0.191525 128 128 255 -0.084981 0.040216 -0.995571
0.448762 -0.077227 0.189107 128 128 255 -0.098648 0.048105 -0.993959
0.466189 -0.085469 0.186509 128 128 255 -0.099576 0.050711 -0.993737
0.499506 -0.093344 0.183752 128 128 255 -0.109050 0.054316 -0.992551
0.515477 -0.100898 0.180855 128 128 255 -0.150199 0.072656 -0.985982
0.530843 -0.108166 0.177840 128 128 255 -0.161600 0.077635 -0.983798
0.545670 -0.115178 0.174723 128 128 255 -0.172127 0.082397 -0.981623
0.560011 -0.121961 0.171522 128 128 255 -0.181789 0.086948 -0.979486
0.573910 -0.128535 0.168251 128 128 255 -0.207660 0.091968 -0.973868
0.587406 -0.134918 0.164923 128 128 255 -0.179394 0.070137 -0.981274
0.600532 -0.141126 0.161549 128 128 255 -0.328197 0.121885 -0.936713
0.596650 -0.147173 0.158137 128 128 255 -0.342183 0.128704 -0.930777
0.609119 -0.153070 0.154692 128 128 255 -0.268382 0.102462 -0.957848
0.621295 -0.142162 0.151218 128 128 255 -0.277051 0.107209 -0.954856
0.633197 -0.147792 0.147717 128 128 255 -0.244878 0.096399 -0.964750
0.644843 -0.153300 0.144187 128 128 255 -0.251091 0.100283 -0.962755
0.656249 -0.158694 0.140627 128 128 255 -0.257433 0.104280 -0.960653
0.667429 -0.163982 0.137031 128 128 255 -0.218153 0.094535 -0.971325
0.678397 -0.169169 0.133395 128 128 255 -0.267966 0.121375 -0.955752
0.689163 -0.174261 0.129712 128 128 255 -0.290666 0.133309 -0.947492
0.699738 -0.179263 0.125452 128 128 255 -0.343166 0.157389 -0.925994
0.710133 -0.184180 0.120248 128 128 255 -0.300623 0.140604 -0.943322
0.737023 -0.189015 0.115024 128 128 255 -0.277436 0.131800 -0.951661
0.747083 -0.193773 0.109803 128 128 255 -0.400613 0.156694 -0.902749
0.595555 -0.403412 0.097982 128 128 255 0.235121 -0.277349 0.931556
0.587882 -0.395353 0.102222 128 128 255 0.347233 -0.370591 0.861447
0.580084 -0.403829 0.106469 128 128 255 0.225849 -0.236132 0.945110
0.572155 -0.395501 0.110722 128 128 255 0.236023 -0.245869 0.940129
0.564089 -0.387028 0.114981 128 128 255 0.261439 -0.267199 0.927499
0.555876 -0.378403 0.119245 128 128 255 0.237041 -0.231470 0.943522
0.547511 -0.369616 0.123511 128 128 255 0.233954 -0.226740 0.945439
0.538983 -0.360659 0.127777 128 128 255 0.230532 -0.221769 0.947456
0.530283 -0.351521 0.132037 128 128 255 0.226696 -0.216513 0.949595
0.521399 -0.342190 0.136286 128 128 255 0.222364 -0.210926 0.951874
0.512321 -0.332655 0.140516 128 128 255 0.217461 -0.204965 0.954306
0.503034 -0.322900 0.144717 128 128 255 0.229730 -0.225527 0.946764
0.493522 -0.312910 0.148879 128 128 255 0.199951 -0.198072 0.959576
0.483770 -0.302667 0.152991 128 128 255 0.204216 -0.202131 0.957830
0.457092 -0.292151 0.157037 128 128 255 0.128892 -0.119296 0.984457
0.446797 -0.264672 0.161005 128 128 255 0.146981 -0.141285 0.978997
0.436195 -0.253536 0.164877 128 128 255 0.170451 -0.170158 0.970563
0.425257 -0.242047 0.168638 128 128 255 0.160061 -0.160625 0.973951
0.413947 -0.230168 0.172269 128 128 255 0.148900 -0.150560 0.977323
0.402226 -0.217857 0.175752 128 128 255 0.137026 -0.140011 0.980623
0.390044 -0.205062 0.179071 128 128 255 0.113971 -0.117256 0.986540
0.377343 -0.191722 0.181479 128 128 255 0.069953 -0.068810 0.995174
0.364051 -0.177761 0.183509 128 128 255 0.070501 -0.069116 0.995114
0.350075 -0.163081 0.185362 128 128 255 0.074971 -0.073475 0.994475
0.351965 -0.147561 0.187044 128 128 255 0.079118 -0.078003 0.993809
0.336233 -0.147703 0.188559 128 128 255 0.050223 -0.041577 0.997872
0.319330 -0.129950 0.189912 128 128 255 0.040118 -0.029177 0.998769
0.300948 -0.110643 0.191110 128 128 255 0.038600 -0.019881 0.999057
0.280616 -0.089287 0.192155 128 128 255 0.035303 -0.013573 0.999285
0.257537 -0.065047 0.193051 128 128 255 0.026376 -0.000537 0.999652
0.213494 -0.036292 0.193800 128 128 255 0.025799 0.006266 0.999647
0.177813 0.017851 0.194397 128 128 255 0.035188 0.020505 0.999170
0.100000 0.100000 0.194792 128 128 255 -0.595384 0.802148 -0.045582
0.177813 0.017851 0.195239 128 128 255 -0.026092 -0.029126 -0.999235
0.213493 -0.036292 0.195478 128 128 255 -0.011070 -0.015487 -0.999819
0.257537 -0.065047 0.195552 128 128 255 -0.008433 -0.009584 -0.999919
0.280616 -0.089287 0.195459 128 128 255 -0.010531 -0.002271 -0.999942
0.300948 -0.110643 0.195192 128 128 255 -0.014399 0.006321 -0.999876
0.319329 -0.129949 0.194742 128 128 255 -0.016220 0.011246 -0.999805
0.336232 -0.147703 0.194100 128 128 255 -0.027236 0.025477 -0.999304
0.351965 -0.147561 0.193258 128 128 255 -0.057391 0.058396 -0.996642
0.350075 -0.163081 0.191673 128 128 255 -0.077007 0.077943 -0.993979
0.364050 -0.177760 0.189496 128 128 255 -0.074868 0.072579 -0.994549
0.377343 -0.191722 0.187129 128 128 255 -0.097088 0.088463 -0.991337
0.390044 -0.205062 0.184589 128 128 255 -0.095436 0.090549 -0.991309
0.402225 -0.217857 0.181890 128 128 255 -0.115276 0.112400 -0.986954
0.413947 -0.230168 0.179047 128 128 255 -0.125360 0.121898 -0.984594
0.425257 -0.242047 0.176074 128 128 255 -0.134890 0.131134 -0.982145
0.436195 -0.253536 0.172984 128 128 255 -0.143852 0.140089 -0.979633
0.446797 -0.264672 0.169790 128 128 255 -0.121369 0.118702 -0.985484
0.457091 -0.292151 0.166501 128 128 255 -0.114088 0.115774 -0.986702
0.483770 -0.302667 0.163128 128 128 255 -0.127240 0.133946 -0.982786
0.493522 -0.312910 0.159679 128 128 255 -0.200674 0.205830 -0.957791
0.503033 -0.322900 0.156160 128 128 255 -0.176780 0.177572 -0.968100
0.512321 -0.332655 0.152577 128 128 255 -0.205787 0.202128 -0.957495
0.521399 -0.342190 0.148934 128 128 255 -0.193495 0.187042 -0.963107
0.530283 -0.351521 0.145233 128 128 255 -0.199185 0.194438 -0.960479
0.538983 -0.360659 0.141476 128 128 255 -0.204769 0.201786 -0.957785
0.547511 -0.369616 0.137663 128 128 255 -0.210312 0.209112 -0.955008
0.555876 -0.378402 0.133795 128 128 255 -0.238143 0.243333 -0.940254
0.564088 -0.387028 0.129869 128 128 255 -0.222025 0.236510 -0.945922
0.572155 -0.395501 0.125546 128 128 255 -0.212354 0.220849 -0.951910
0.580084 -0.403829 0.120590 128 128 255 -0.393082 0.384071 -0.835450
0.587882 -0.395353 0.115604 128 128 255 -0.325512 0.327061 -0.887171
0.595555 -0.403412 0.110608 128 128 255 -0.305953 0.280409 -0.909815
0.362067 -0.561137 0.097992 128 128 255 0.127545 -0.356570 0.925522
0.357808 -0.550856 0.102483 128 128 255 0.147512 -0.339556 0.928947
0.353481 -0.540408 0.106975 128 128 255 0.119767 -0.280106 0.952469
0.349080 -0.513118 0.111461 128 128 255 0.100501 -0.238798 0.965855
0.344603 -0.502309 0.115936 128 128 255 0.156501 -0.389567 0.907604
0.356712 -0.491306 0.120392 128 128 255 0.153846 -0.381063 0.911659
0.352070 -0.480098 0.124825 128 128 255 0.105158 -0.260785 0.959653
0.347337 -0.468672 0.129225 128 128 255 0.116701 -0.309833 0.943602
0.342508 -0.457015 0.133585 128 128 255 0.113989 -0.301382 0.946665
0.337578 -0.445112 0.137897 128 128 255 0.110957 -0.292352 0.949852
0.332540 -0.432949 0.142151 128 128 255 0.107584 -0.282727 0.953148
0.327385 -0.420505 0.146338 128 128 255 0.103852 -0.272494 0.956536
0.322107 -0.407761 0.150447 128 128 255 0.099747 -0.261646 0.959996
0.316695 -0.394695 0.154468 128 128 255 0.134414 -0.376421 0.916646
0.311138 -0.397947 0.158390 128 128 255 0.114746 -0.310621 0.943582
0.305425 -0.384154 0.162200 128 128 255 0.102918 -0.228875 0.968000
0.299541 -0.369949 0.165887 128 128 255 0.100043 -0.200873 0.974496
0.293470 -0.355293 0.169439 128 128 255 0.093411 -0.187516 0.977810
0.287194 -0.340140 0.172842 128 128 255 0.086386 -0.173758 0.980992
0.280688 -0.324435 0.176085 128 128 255 0.079005 -0.159676 0.984003
0.273928 -0.308114 0.179156 128 128 255 0.068988 -0.139461 0.987821
0.266879 -0.291096 0.181709 128 128 255 0.046211 -0.089983 0.994871
0.259502 -0.256620 0.183985 128 128 255 0.036004 -0.069470 0.996934
0.251746 -0.237895 0.186074 128 128 255 0.039931 -0.085401 0.995546
0.243545 -0.218097 0.187975 128 128 255 0.037479 -0.078811 0.996185
0.234814 -0.197017 0.189687 128 128 255 0.029342 -0.061363 0.997684
0.208766 -0.174370 0.191213 128 128 255 0.024290 -0.044622 0.998709
0.198565 -0.149741 0.192552 128 128 255 0.028010 -0.053319 0.998185
0.187281 -0.139166 0.193705 128 128 255 0.025665 -0.032323 0.999148
0.174472 -0.108244 0.194672 128 128 255 0.023205 -0.016313 0.999598
0.159279 -0.071563 0.195453 128 128 255 0.024472 -0.003743 0.999694
0.139477 -0.007090 0.196043 128 128 255 0.036632 0.005279 0.999315
0.100000 0.100000 0.196391 128 128 255 0.192709 0.796595 -0.572975
0.139477 -0.007090 0.196753 128 128 255 -0.030054 -0.015465 -0.999429
0.159278 -0.071563 0.196869 128 128 255 -0.017810 -0.006914 -0.999817
0.174472 -0.108244 0.196787 128 128 255 -0.012467 -0.001627 -0.999921
0.187281 -0.139166 0.196509 128 128 255 -0.013317 0.010063 -0.999861
0.198565 -0.149741 0.196032 128 128 255 -0.012973 0.020800 -0.999699
0.208766 -0.174369 0.195352 128 128 255 -0.011714 0.025403 -0.999609
0.234814 -0.197017 0.194467 128 128 255 -0.013179 0.036353 -0.999252
0.243545 -0.218096 0.193373 128 128 255 -0.022055 0.060812 -0.997906
0.251746 -0.237894 0.191824 128 128 255 -0.030751 0.070300 -0.997052
0.259502 -0.256620 0.189889 128 128 255 -0.036107 0.073757 -0.996622
0.266879 -0.291096 0.187757 128 128 255 -0.041689 0.083560 -0.995630
0.273928 -0.308113 0.185436 128 128 255 -0.060325 0.117607 -0.991226
0.280688 -0.324435 0.182937 128 128 255 -0.067148 0.130962 -0.989111
0.287193 -0.340140 0.180269 128 128 255 -0.073710 0.144275 -0.986789
0.293470 -0.355293 0.177441 128 128 255 -0.079983 0.157471 -0.984279
0.299541 -0.369949 0.174464 128 128 255 -0.100870 0.209630 -0.972564
0.305425 -0.384154 0.171346 128 128 255 -0.083529 0.185482 -0.979091
0.311138 -0.397947 0.168097 128 128 255 -0.106178 0.249379 -0.962568
0.316694 -0.394695 0.164725 128 128 255 -0.111546 0.285118 -0.951980
0.322107 -0.407761 0.161239 128 128 255 -0.087245 0.230808 -0.969080
0.327385 -0.420505 0.157645 128 128 255 -0.091198 0.242668 -0.965813
0.332540 -0.432948 0.153952 128 128 255 -0.094923 0.254180 -0.962488
0.337578 -0.445112 0.150165 128 128 255 -0.098441 0.265345 -0.959115
0.342508 -0.457015 0.146290 128 128 255 -0.101773 0.276164 -0.955707
0.347337 -0.468672 0.142335 128 128 255 -0.089634 0.235229 -0.967798
0.352069 -0.480098 0.138303 128 128 255 -0.118262 0.293898 -0.948492
0.356712 -0.491306 0.134199 128 128 255 -0.145031 0.359016 -0.921994
0.344603 -0.502309 0.130030 128 128 255 -0.150555 0.374682 -0.914848
0.349080 -0.513118 0.125643 128 128 255 -0.094020 0.242956 -0.965470
0.353480 -0.540408 0.120936 128 128 255 -0.100977 0.256855 -0.961160
0.357808 -0.550856 0.116191 128 128 255 -0.188160 0.439049 -0.878540
0.362067 -0.561137 0.111422 128 128 255 -0.184704 0.354299 -0.916710
0.109007 -0.614710 0.098001 128 128 255 -0.013428 -0.381048 0.924458
0.108734 -0.603585 0.102666 128 128 255 0.009511 -0.378735 0.925456
0.108457 -0.592280 0.107327 128 128 255 0.009245 -0.372943 0.927808
0.108174 -0.580784 0.111974 128 128 255 0.009044 -0.256646 0.966463
0.107887 -0.569089 0.116598 128 128 255 0.008681 -0.356669 0.934191
0.107595 -0.557183 0.121188 128 128 255 0.008675 -0.370176 0.928921
0.107297 -0.545055 0.125734 128 128 255 0.008110 -0.243036 0.969983
0.106994 -0.516024 0.130227 128 128 255 0.007896 -0.237400 0.971380
0.106684 -0.503411 0.134657 128 128 255 0.007225 -0.323977 0.946037
0.106368 -0.490532 0.139012 128 128 255 0.006945 -0.313331 0.949619
0.106045 -0.477369 0.143283 128 128 255 0.006675 -0.302001 0.953284
0.105714 -0.463905 0.147461 128 128 255 0.006416 -0.290000 0.957005
0.105376 -0.450115 0.151534 128 128 255 0.006171 -0.277346 0.960750
0.105029 -0.435977 0.155494 128 128 255 0.013004 -0.318999 0.947666
0.104672 -0.421461 0.159329 128 128 255 0.010305 -0.309353 0.950892
0.104306 -0.406536 0.163032 128 128 255 0.003527 -0.360649 0.932695
0.103929 -0.407833 0.166591 128 128 255 0.003294 -0.334394 0.942427
0.103539 -0.391974 0.169999 128 128 255 0.005185 -0.205540 0.978635
0.103137 -0.375577 0.173246 128 128 255 0.005037 -0.189861 0.981798
0.102720 -0.358583 0.176324 128 128 255 0.004905 -0.173926 0.984747
0.102286 -0.340922 0.179224 128 128 255 0.004998 -0.152853 0.988236
0.101834 -0.322508 0.181877 128 128 255 0.001024 -0.115481 0.993309
0.101361 -0.303237 0.184323 128 128 255 0.001940 -0.080157 0.996780
0.100864 -0.266308 0.186574 128 128 255 0.003007 -0.076321 0.997079
0.100338 -0.244885 0.188626 128 128 255 0.001444 -0.085053 0.996375
0.099778 -0.222076 0.190475 128 128 255 0.000747 -0.071081 0.997470
0.099176 -0.197570 0.192119 128 128 255 0.000051 -0.055434 0.998462
0.098522 -0.170921 0.193556 128 128 255 0.001743 -0.062237 0.998060
0.097798 -0.158109 0.194783 128 128 255 -0.003092 -0.046734 0.998903
0.096977 -0.124650 0.195799 128 128 255 -0.002550 -0.022646 0.999740
0.096003 -0.084958 0.196602 128 128 255 -0.005527 -0.010991 0.999924
0.094733 -0.016563 0.197187 128 128 255 -0.008980 -0.001533 0.999959
0.100000 0.100000 0.197502 128 128 255 0.153376 -0.016390 0.988032
0.094733 -0.016563 0.197804 128 128 255 0.002312 -0.005943 -0.999980
0.096003 -0.084958 0.197835 128 128 255 0.000916 -0.001194 -0.999999
0.096977 -0.124649 0.197646 128 128 255 0.001270 0.005245 -0.999985
0.097798 -0.158109 0.197239 128 128 255 -0.000663 0.018348 -0.999831
0.098522 -0.170920 0.196616 128 128 255 0.000906 0.032568 -0.999469
0.099176 -0.197570 0.195777 128 128 255 -0.000489 0.033809 -0.999428
0.099778 -0.222076 0.194723 128 128 255 -0.000982 0.044426 -0.999012
0.100338 -0.244885 0.193455 128 128 255 -0.000716 0.060497 -0.998168
0.100864 -0.266308 0.191929 128 128 255 0.001075 0.063568 -0.997977
0.101361 -0.303236 0.190161 128 128 255 -0.000044 0.068674 -0.997639
0.101834 -0.322508 0.188189 128 128 255 -0.002737 0.097358 -0.995246
0.102286 -0.340922 0.186019 128 128 255 -0.001128 0.127451 -0.991844
0.102720 -0.358583 0.183656 128 128 255 -0.001388 0.142753 -0.989757
0.103137 -0.375576 0.181107 128 128 255 -0.001694 0.158092 -0.987423
0.103539 -0.391973 0.178379 128 128 255 -0.002040 0.173378 -0.984853
0.103929 -0.407832 0.175479 128 128 255 -0.008843 0.287682 -0.957685
0.104306 -0.406536 0.172414 128 128 255 -0.009781 0.314053 -0.949355
0.104672 -0.421461 0.169192 128 128 255 -0.002163 0.266699 -0.963777
0.105029 -0.435977 0.165822 128 128 255 0.000476 0.286812 -0.957987
0.105376 -0.450115 0.162310 128 128 255 -0.004219 0.246556 -0.969119
0.105714 -0.463904 0.158665 128 128 255 -0.004707 0.260174 -0.965550
0.106045 -0.477369 0.154896 128 128 255 -0.005201 0.273366 -0.961896
0.106368 -0.490531 0.151010 128 128 255 -0.005694 0.286106 -0.958181
0.106684 -0.503411 0.147017 128 128 255 -0.006182 0.298372 -0.954430
0.106994 -0.516024 0.142925 128 128 255 -0.001995 0.219653 -0.975576
0.107297 -0.545055 0.138743 128 128 255 -0.002327 0.226782 -0.973943
0.107595 -0.557183 0.134478 128 128 255 -0.007523 0.329714 -0.944051
0.107887 -0.569089 0.130141 128 128 255 -0.009802 0.298431 -0.954381
0.108174 -0.580784 0.125711 128 128 255 -0.019593 0.361175 -0.932292
0.108457 -0.592280 0.121176 128 128 255 -0.010327 0.310116 -0.950643
0.108734 -0.603585 0.116597 128 128 255 -0.008263 0.383374 -0.923556
0.109007 -0.614710 0.111986 128 128 255 -0.033908 0.385499 -0.922085
-0.146376 -0.573619 0.098012 128 128 255 -0.155134 -0.327351 0.932081
-0.142627 -0.563141 0.102428 128 128 255 -0.132824 -0.340441 0.930837
-0.138817 -0.552493 0.106847 128 128 255 -0.132017 -0.335311 0.932812
-0.134944 -0.541666 0.111263 128 128 255 -0.092538 -0.237406 0.966993
-0.131002 -0.513985 0.115674 128 128 255 -0.102836 -0.270828 0.957119
-0.126990 -0.502771 0.120074 128 128 255 -0.119793 -0.324691 0.938203
-0.122903 -0.491349 0.124457 128 128 255 -0.118237 -0.317853 0.940739
-0.118736 -0.479704 0.128818 128 128 255 -0.091318 -0.259121 0.961518
-0.114486 -0.467824 0.133149 128 128 255 -0.102840 -0.305290 0.946690
-0.110146 -0.455694 0.137444 128 128 255 -0.100461 -0.296803 0.949640
-0.105710 -0.443298 0.141693 128 128 255 -0.091280 -0.263538 0.960321
-0.101173 -0.430616 0.145887 128 128 255 -0.098214 -0.276011 0.956123
-0.096526 -0.417629 0.150015 128 128 255 -0.094662 -0.265589 0.959428
-0.091761 -0.404313 0.154066 128 128 255 -0.136520 -0.377915 0.915719
-0.086870 -0.407309 0.158029 128 128 255 -0.129079 -0.357228 0.925055
-0.081840 -0.393252 0.161891 128 128 255 -0.080794 -0.227944 0.970316
-0.076660 -0.378776 0.165637 128 128 255 -0.088973 -0.221027 0.971201
-0.071316 -0.363839 0.169256 128 128 255 -0.088660 -0.194743 0.976839
-0.065790 -0.348396 0.172733 128 128 255 -0.081935 -0.180850 0.980092
-0.060064 -0.332391 0.176053 128 128 255 -0.074782 -0.166535 0.983196
-0.054112 -0.315757 0.179204 128 128 255 -0.059637 -0.138523 0.988562
-0.047907 -0.298415 0.181712 128 128 255 -0.037839 -0.089795 0.995241
-0.041412 -0.263598 0.183913 128 128 255 -0.036460 -0.083183 0.995867
-0.034584 -0.244514 0.185929 128 128 255 -0.029613 -0.069088 0.997171
-0.010698 -0.224338 0.187763 128 128 255 -0.028782 -0.065522 0.997436
-0.003012 -0.202855 0.189416 128 128 255 -0.031117 -0.068244 0.997183
0.005247 -0.179775 0.190891 128 128 255 -0.024800 -0.049278 0.998477
0.014227 -0.154676 0.192188 128 128 255 -0.026965 -0.045787 0.998587
0.024161 -0.143579 0.193310 128 128 255 -0.028690 -0.034398 0.998996
0.035437 -0.112066 0.194257 128 128 255 -0.025829 -0.013414 0.999576
0.048812 -0.074684 0.195029 128 128 255 -0.031888 -0.003791 0.999484
0.066244 -0.009297 0.195620 128 128 255 -0.049123 0.010590 0.998737
0.100000 0.100000 0.195980 128 128 255 -0.041315 -0.071143 -0.996610
0.066244 -0.009297 0.196363 128 128 255 0.041214 -0.014169 -0.999050
0.048812 -0.074684 0.196511 128 128 255 0.021869 -0.008291 -0.999726
0.035437 -0.112066 0.196469 128 128 255 0.015457 -0.001458 -0.999879
0.024161 -0.143579 0.196239 128 128 255 0.014321 0.007521 -0.999869
0.014227 -0.154676 0.195818 128 128 255 0.013623 0.021160 -0.999683
0.005247 -0.179775 0.195200 128 128 255 0.014489 0.028718 -0.999483
-0.003012 -0.202855 0.194382 128 128 255 0.015712 0.035796 -0.999236
-0.010698 -0.224338 0.193359 128 128 255 0.020958 0.052098 -0.998422
-0.034584 -0.244514 0.191790 128 128 255 0.032609 0.079442 -0.996306
-0.041412 -0.263597 0.189771 128 128 255 0.034832 0.068212 -0.997063
-0.047907 -0.298415 0.187558 128 128 255 0.045645 0.085395 -0.995301
-0.054112 -0.315757 0.185163 128 128 255 0.061137 0.121219 -0.990741
-0.060063 -0.332391 0.182596 128 128 255 0.067488 0.134466 -0.988617
-0.065790 -0.348396 0.179869 128 128 255 0.073473 0.147591 -0.986316
-0.071316 -0.363839 0.176993 128 128 255 0.068644 0.142279 -0.987444
-0.076660 -0.378775 0.173978 128 128 255 0.076589 0.176895 -0.981245
-0.081840 -0.393252 0.170835 128 128 255 0.090148 0.233311 -0.968214
-0.086869 -0.407308 0.167574 128 128 255 0.106174 0.310899 -0.944494
-0.091761 -0.404313 0.164202 128 128 255 0.112658 0.332338 -0.936408
-0.096526 -0.417629 0.160729 128 128 255 0.083979 0.229599 -0.969656
-0.101173 -0.430616 0.157161 128 128 255 0.079201 0.221110 -0.972027
-0.105710 -0.443298 0.153504 128 128 255 0.086825 0.253861 -0.963336
-0.110146 -0.455694 0.149765 128 128 255 0.089500 0.264677 -0.960175
-0.114486 -0.467824 0.145949 128 128 255 0.092011 0.275222 -0.956967
-0.118736 -0.479704 0.142059 128 128 255 0.094390 0.285511 -0.953716
-0.122903 -0.491349 0.138100 128 128 255 0.086509 0.243214 -0.966107
-0.126990 -0.502771 0.134075 128 128 255 0.137613 0.368060 -0.919562
-0.131002 -0.513985 0.129987 128 128 255 0.092893 0.225566 -0.969789
-0.134944 -0.541666 0.125624 128 128 255 0.102155 0.246327 -0.963788
-0.138817 -0.552493 0.120841 128 128 255 0.144666 0.358973 -0.922068
-0.142627 -0.563141 0.116024 128 128 255 0.147798 0.365525 -0.918992
-0.146376 -0.573618 0.111188 128 128 255 0.120880 0.374834 -0.919178
-0.369858 -0.426702 0.098023 128 128 255 -0.251739 -0.235666 0.938663
-0.362590 -0.418276 0.102192 128 128 255 -0.239985 -0.254128 0.936924
-0.355203 -0.409713 0.106370 128 128 255 -0.237969 -0.250207 0.938492
-0.347692 -0.401006 0.110558 128 128 255 -0.235949 -0.246250 0.940048
-0.340051 -0.392148 0.114757 128 128 255 -0.259866 -0.275216 0.925595
-0.332272 -0.399796 0.118968 128 128 255 -0.316635 -0.340574 0.885298
-0.324348 -0.390610 0.123189 128 128 255 -0.220056 -0.237237 0.946200
-0.316270 -0.381245 0.127419 128 128 255 -0.217335 -0.232705 0.947953
-0.308028 -0.371691 0.131653 128 128 255 -0.214219 -0.227886 0.949830
-0.299614 -0.361936 0.135888 128 128 255 -0.210618 -0.222717 0.951860
-0.291014 -0.351966 0.140114 128 128 255 -0.163654 -0.172958 0.971238
-0.265550 -0.341768 0.144324 128 128 255 -0.183395 -0.198018 0.962889
-0.256540 -0.331323 0.148507 128 128 255 -0.191738 -0.211970 0.958282
-0.247302 -0.320614 0.152649 128 128 255 -0.208991 -0.237542 0.948629
-0.237818 -0.309619 0.156738 128 128 255 -0.204664 -0.233165 0.950656
-0.228067 -0.298315 0.160758 128 128 255 -0.171413 -0.190093 0.966686
-0.218024 -0.286673 0.164690 128 128 255 -0.129033 -0.145519 0.980905
-0.207663 -0.257994 0.168519 128 128 255 -0.121644 -0.138396 0.982878
-0.196949 -0.245574 0.172223 128 128 255 -0.143183 -0.162049 0.976339
-0.185846 -0.232702 0.175785 128 128 255 -0.131813 -0.150909 0.979720
-0.174307 -0.219325 0.179183 128 128 255 -0.094072 -0.107125 0.989785
-0.162276 -0.205378 0.181549 128 128 255 -0.078830 -0.084034 0.993340
-0.149685 -0.190781 0.183506 128 128 255 -0.070209 -0.074962 0.994712
-0.153113 -0.175434 0.185289 128 128 255 -0.069259 -0.073262 0.994905
-0.139116 -0.159208 0.186906 128 128 255 -0.044929 -0.046861 0.997890
-0.124213 -0.141931 0.188365 128 128 255 -0.048972 -0.049755 0.997560
-0.108201 -0.140036 0.189671 128 128 255 -0.045972 -0.044113 0.997968
-0.090789 -0.119851 0.190830 128 128 255 -0.030639 -0.022501 0.999277
-0.071529 -0.097523 0.191847 128 128 255 -0.030679 -0.015487 0.999409
-0.049668 -0.072179 0.192725 128 128 255 -0.023880 -0.003716 0.999708
-0.007068 -0.042116 0.193465 128 128 255 -0.022850 0.004998 0.999726
0.026730 0.013732 0.194063 128 128 255 -0.034445 0.020279 0.999201
0.100000 0.100000 0.194467 128 128 255 -0.718928 -0.690159 0.082600
0.026730 0.013733 0.194931 128 128 255 0.024763 -0.023567 -0.999416
-0.007068 -0.042116 0.195194 128 128 255 0.011683 -0.013563 -0.999840
-0.049668 -0.072179 0.195300 128 128 255 0.008436 -0.009848 -0.999916
-0.071529 -0.097523 0.195246 128 128 255 0.010164 -0.002586 -0.999945
-0.090789 -0.119850 0.195025 128 128 255 0.013497 0.005851 -0.999892
-0.108201 -0.140036 0.194627 128 128 255 0.016808 0.014857 -0.999748
-0.124213 -0.141931 0.194043 128 128 255 0.022504 0.026422 -0.999398
-0.139116 -0.159207 0.193263 128 128 255 0.035908 0.042281 -0.998460
-0.153113 -0.175434 0.191651 128 128 255 0.067772 0.079362 -0.994539
-0.149684 -0.190781 0.189384 128 128 255 0.095840 0.109027 -0.989408
-0.162276 -0.205378 0.186932 128 128 255 0.076768 0.079759 -0.993854
-0.174307 -0.219325 0.184313 128 128 255 0.102636 0.109981 -0.988620
-0.185846 -0.232702 0.181544 128 128 255 0.112469 0.119832 -0.986403
-0.196949 -0.245574 0.178640 128 128 255 0.121710 0.129358 -0.984100
-0.207662 -0.257993 0.175617 128 128 255 0.107204 0.109007 -0.988243
-0.218024 -0.286672 0.172489 128 128 255 0.113117 0.115325 -0.986866
-0.228067 -0.298314 0.169268 128 128 255 0.144861 0.154598 -0.977300
-0.237818 -0.309619 0.165967 128 128 255 0.174460 0.185075 -0.967115
-0.247302 -0.320614 0.162595 128 128 255 0.183425 0.195920 -0.963312
-0.256540 -0.331323 0.159159 128 128 255 0.196659 0.211700 -0.957344
-0.265549 -0.341767 0.155667 128 128 255 0.137973 0.138071 -0.980765
-0.291014 -0.351966 0.152123 128 128 255 0.141553 0.143483 -0.979477
-0.299613 -0.361936 0.148530 128 128 255 0.181720 0.192625 -0.964299
-0.308028 -0.371691 0.144889 128 128 255 0.186615 0.199858 -0.961890
-0.316270 -0.381245 0.141200 128 128 255 0.191488 0.207117 -0.959393
-0.324348 -0.390610 0.137463 128 128 255 0.196410 0.214440 -0.956786
-0.332272 -0.399796 0.133675 128 128 255 0.286837 0.322656 -0.902007
-0.340051 -0.392147 0.129833 128 128 255 0.312269 0.348741 -0.883667
-0.347692 -0.401006 0.125538 128 128 255 0.219417 0.230227 -0.948078
-0.355203 -0.409713 0.120510 128 128 255 0.280657 0.291347 -0.914521
-0.362590 -0.418276 0.115455 128 128 255 0.285507 0.295883 -0.911558
-0.369858 -0.426702 0.110396 128 128 255 0.266848 0.312969 -0.911505
-0.514823 -0.224751 0.098034 128 128 255 -0.296249 -0.143206 0.944314
-0.505009 -0.219505 0.101961 128 128 255 -0.293441 -0.157208 0.942962
