ply
format ascii 1.0
element vertex 693
property float x
property float y
property float z
property uchar red
property uchar green
property uchar blue
property float nx
property float ny
property float nz
end_header
-0.617020 2.216656 0.493805 128 128 255 -0.272836 0.819039 -0.504713
-0.770571 2.200173 0.556723 128 128 255 -0.321593 0.799282 -0.507668
-0.920699 2.168630 0.611858 128 128 255 -0.382905 0.766010 -0.516345
-1.065525 2.121783 0.658391 128 128 255 -0.433167 0.735782 -0.520568
-1.209802 2.057483 0.695812 128 128 255 -0.480895 0.706439 -0.519311
-1.342748 1.980563 0.723067 128 128 255 -0.518130 0.685448 -0.511569
-1.471436 1.891724 0.739690 128 128 255 -0.567456 0.641676 -0.515991
-1.585297 1.785297 0.745399 128 128 255 -0.605272 0.606360 -0.515725
-1.691724 1.671436 0.740097 128 128 255 -0.643987 0.563523 -0.517418
-1.780563 1.542748 0.723877 128 128 255 -0.680289 0.521976 -0.514537
-1.857483 1.409802 0.697016 128 128 255 -0.710447 0.478260 -0.516268
-1.921784 1.265525 0.659975 128 128 255 -0.738049 0.432446 -0.517951
-1.968630 1.120698 0.613390 128 128 255 -0.767257 0.381524 -0.515516
-2.000173 0.970571 0.558057 128 128 255 -0.797991 0.326569 -0.506520
-2.016656 0.817020 0.494924 128 128 255 -0.817874 0.273848 -0.506053
-2.018618 0.668495 0.425072 128 128 255 -0.835372 0.219434 -0.503987
-2.006870 0.517750 0.349697 128 128 255 -0.846715 0.166765 -0.505236
-1.982458 0.375126 0.270087 128 128 255 -0.849302 0.118213 -0.514502
-1.946621 0.232959 0.187604 128 128 255 -0.854976 0.062241 -0.514920
-1.898523 0.101111 0.103661 128 128 255 -0.770575 0.366421 -0.521488
-1.844083 -0.026384 0.019692 128 128 255 0.863169 0.075411 0.499252
-1.782595 -0.146883 -0.062866 128 128 255 0.856768 0.120117 0.501518
-1.717774 -0.262468 -0.142602 128 128 255 0.840445 0.169860 0.514588
-1.644378 -0.366591 -0.218153 128 128 255 0.824801 0.220585 0.520620
-1.570375 -0.468504 -0.288226 128 128 255 0.813128 0.267805 0.516821
-1.496902 -0.559887 -0.351626 128 128 255 0.793339 0.329893 0.511649
-1.420447 -0.648142 -0.407268 128 128 255 0.769952 0.372683 0.517959
-1.341714 -0.734127 -0.454203 128 128 255 0.742948 0.423077 0.518686
-1.267825 -0.812098 -0.491628 128 128 255 0.711464 0.479001 0.514176
-1.192315 -0.889664 -0.518907 128 128 255 0.683545 0.514403 0.517837
-1.115133 -0.967728 -0.535574 128 128 255 0.644334 0.564665 0.515740
-1.040437 -1.040437 -0.541345 128 128 255 0.605147 0.610809 0.510596
-0.967728 -1.115133 -0.536125 128 128 255 0.570618 0.636863 0.518460
-0.889664 -1.192315 -0.520005 128 128 255 0.522974 0.674740 0.520792
-0.812098 -1.267825 -0.493262 128 128 255 0.473960 0.716255 0.512192
-0.734127 -1.341714 -0.456101 128 128 255 0.429245 0.739855 0.518039
-0.648142 -1.420447 -0.409126 128 128 255 0.377646 0.764748 0.522058
-0.559887 -1.496902 -0.353426 128 128 255 0.324128 0.796424 0.510539
-0.468504 -1.570375 -0.289952 128 128 255 0.274050 0.814390 0.511533
-0.366591 -1.644378 -0.219788 128 128 255 0.226410 0.823110 0.520796
-0.262468 -1.717774 -0.144133 128 128 255 0.171735 0.840554 0.513786
-0.146883 -1.782595 -0.064279 128 128 255 0.116093 0.856931 0.502186
-0.026384 -1.844083 0.018409 128 128 255 0.063767 0.854708 0.515178
0.098889 -1.898523 0.102518 128 128 255 0.313595 0.813825 0.489231
0.232959 -1.946621 0.186610 128 128 255 0.060677 -0.855632 -0.514015
0.375126 -1.982458 0.269249 128 128 255 0.114624 -0.854205 -0.507144
0.517750 -2.006870 0.349021 128 128 255 0.161381 -0.850883 -0.499954
0.668495 -2.018618 0.424563 128 128 255 0.218892 -0.835686 -0.503702
0.817020 -2.016656 0.494583 128 128 255 0.274094 -0.818645 -0.504671
0.970571 -2.000173 0.557884 128 128 255 0.322757 -0.798824 -0.507650
1.120698 -1.968630 0.613384 128 128 255 0.383801 -0.765563 -0.516342
1.265525 -1.921784 0.660134 128 128 255 0.433163 -0.735789 -0.520562
1.409802 -1.857483 0.697334 128 128 255 0.480255 -0.706883 -0.519298
1.542748 -1.780563 0.724347 128 128 255 0.517478 -0.685970 -0.511528
1.671436 -1.691724 0.740712 128 128 255 0.566817 -0.642281 -0.515940
1.785297 -1.585297 0.746149 128 128 255 0.604652 -0.607039 -0.515654
1.891724 -1.471436 0.740564 128 128 255 0.643408 -0.564271 -0.517325
1.980563 -1.342748 0.724053 128 128 255 0.679764 -0.522769 -0.514425
2.057483 -1.209802 0.696897 128 128 255 0.709987 -0.479093 -0.516129
2.121783 -1.065525 0.659561 128 128 255 0.737667 -0.433303 -0.517780
2.168630 -0.920699 0.612681 128 128 255 0.766964 -0.382383 -0.515315
2.200173 -0.770571 0.557061 128 128 255 0.797811 -0.327388 -0.506275
2.216656 -0.617020 0.493650 128 128 255 0.817806 -0.274614 -0.505747
2.218618 -0.468495 0.423532 128 128 255 0.835438 -0.220099 -0.503586
2.206870 -0.317750 0.347905 128 128 255 0.846947 -0.167262 -0.504682
2.182458 -0.175126 0.268063 128 128 255 0.849802 -0.118391 -0.513633
2.146621 -0.032959 0.185370 128 128 255 0.856084 -0.061090 -0.513214
2.098573 0.098758 0.101707 128 128 255 0.859240 -0.011547 -0.511443
2.098523 0.100000 0.101466 128 128 255 -0.855999 -0.026673 0.516289
2.034465 0.225753 0.001790 128 128 255 -0.855755 -0.055093 0.514440
1.965866 0.344389 -0.096179 128 128 255 -0.857956 -0.128242 0.497459
1.890051 0.456953 -0.190762 128 128 255 -0.841724 -0.181884 0.508350
1.808701 0.557032 -0.280339 128 128 255 -0.828073 -0.233048 0.509886
1.727785 0.654047 -0.363374 128 128 255 -0.815818 -0.279517 0.506272
1.648629 0.739892 -0.438445 128 128 255 -0.790741 -0.335700 0.511893
1.565641 0.822211 -0.504265 128 128 255 -0.769044 -0.376557 0.516505
1.486282 0.902123 -0.559706 128 128 255 -0.745272 -0.428342 0.510972
1.411045 0.974159 -0.603817 128 128 255 -0.709936 -0.483890 0.511704
1.333446 1.046198 -0.635843 128 128 255 -0.680484 -0.519071 0.517211
1.260030 1.119405 -0.655234 128 128 255 -0.651603 -0.556651 0.515318
1.190387 1.190387 -0.661656 128 128 255 -0.606445 -0.611649 0.508045
1.119405 1.260030 -0.654999 128 128 255 -0.561368 -0.651230 0.510653
1.046198 1.333446 -0.635376 128 128 255 -0.526303 -0.675719 0.516148
0.974159 1.411045 -0.603122 128 128 255 -0.483105 -0.710625 0.511489
0.902123 1.486282 -0.558789 128 128 255 -0.425472 -0.747714 0.509800
0.822211 1.565641 -0.503133 128 128 255 -0.384803 -0.764336 0.517414
0.739892 1.648629 -0.437109 128 128 255 -0.336130 -0.790860 0.511427
0.654047 1.727785 -0.361845 128 128 255 -0.276192 -0.816413 0.507137
0.557032 1.808701 -0.278630 128 128 255 -0.232076 -0.826177 0.513394
0.456953 1.890051 -0.188887 128 128 255 -0.181260 -0.838794 0.513390
0.344389 1.965866 -0.094155 128 128 255 -0.125161 -0.858782 0.496818
0.225753 2.034465 0.003946 128 128 255 -0.078236 -0.864496 0.496514
0.101111 2.098523 0.103736 128 128 255 -0.250697 -0.857579 0.449120
-0.033589 2.156239 0.203505 128 128 255 -0.060585 0.854662 -0.515637
-0.177620 2.201408 0.301546 128 128 255 -0.123791 0.848320 -0.514811
-0.323265 2.232371 0.396177 128 128 255 -0.165300 0.848060 -0.503458
-0.478056 2.252077 0.485778 128 128 255 -0.215691 0.837528 -0.502021
-0.631480 2.257033 0.568815 128 128 255 -0.273196 0.819019 -0.504551
-0.788351 2.246241 0.643862 128 128 255 -0.316786 0.805422 -0.500941
-0.946643 2.221240 0.709635 128 128 255 -0.373057 0.777531 -0.506235
-1.097549 2.177252 0.765130 128 128 255 -0.429784 0.742852 -0.513280
-1.247771 2.116530 0.809675 128 128 255 -0.480333 0.708280 -0.517320
-1.386253 2.037259 0.842105 128 128 255 -0.524029 0.677562 -0.516046
-1.519806 1.946879 0.861867 128 128 255 -0.561942 0.649666 -0.512011
-1.637620 1.837620 0.868624 128 128 255 -0.608915 0.600904 -0.517820
-1.746879 1.719806 0.862262 128 128 255 -0.643721 0.570199 -0.510388
-1.837259 1.586253 0.842890 128 128 255 -0.680716 0.519796 -0.516177
-1.916530 1.447771 0.810841 128 128 255 -0.708779 0.480832 -0.516171
-1.977252 1.297549 0.766665 128 128 255 -0.741842 0.429644 -0.514856
-2.021240 1.146643 0.711118 128 128 255 -0.773228 0.376737 -0.510085
-2.046241 0.988351 0.645151 128 128 255 -0.799403 0.322372 -0.506983
-2.057033 0.831480 0.569893 128 128 255 -0.819173 0.274503 -0.503590
-2.052077 0.678056 0.486633 128 128 255 -0.836405 0.218784 -0.502553
-2.032371 0.523265 0.396796 128 128 255 -0.850886 0.166075 -0.498409
-2.001408 0.377620 0.301918 128 128 255 -0.853681 0.118166 -0.507213
-1.956239 0.233589 0.203623 128 128 255 -0.854078 0.063980 -0.516196
-1.898523 0.101111 0.103593 128 128 255 -0.762916 0.318729 -0.562468
-1.834465 -0.025753 0.003538 128 128 255 0.857433 0.056539 0.511481
-1.765866 -0.144389 -0.094831 128 128 255 0.858722 0.128013 0.496195
-1.690051 -0.256953 -0.189830 128 128 255 0.842359 0.180946 0.507631
-1.608701 -0.357032 -0.279836 128 128 255 0.828717 0.231717 0.509447
-1.527785 -0.454047 -0.363310 128 128 255 0.816526 0.277935 0.506002
-1.448629 -0.539892 -0.438825 128 128 255 0.791584 0.333914 0.511758
-1.365641 -0.622211 -0.505091 128 128 255 0.769986 0.374715 0.516439
-1.286282 -0.702123 -0.560975 128 128 255 0.746333 0.426482 0.510980
-1.211045 -0.774158 -0.605524 128 128 255 0.711131 0.482038 0.511793
-1.133446 -0.846198 -0.637977 128 128 255 0.681726 0.517316 0.517334
-1.060030 -0.919405 -0.657780 128 128 255 0.652868 0.555020 0.515476
-0.990387 -0.990387 -0.664598 128 128 255 0.607726 0.610173 0.508290
-0.919405 -1.060030 -0.658315 128 128 255 0.562590 0.649932 0.510961
-0.846198 -1.133446 -0.639041 128 128 255 0.527398 0.674607 0.516485
-0.774158 -1.211045 -0.607108 128 128 255 0.483585 0.710006 0.511896
-0.702123 -1.286282 -0.562815 128 128 255 0.424653 0.747875 0.510248
-0.622211 -1.365641 -0.506889 128 128 255 0.383149 0.764846 0.517888
-0.539892 -1.448629 -0.440565 128 128 255 0.334288 0.791323 0.511918
-0.454047 -1.527785 -0.364976 128 128 255 0.274224 0.816772 0.507626
-0.357032 -1.608701 -0.281413 128 128 255 0.229955 0.826431 0.513939
-0.256953 -1.690051 -0.191304 128 128 255 0.178996 0.838900 0.514011
-0.144389 -1.765866 -0.096188 128 128 255 0.122822 0.858689 0.497562
-0.025753 -1.834465 0.002308 128 128 255 0.075427 0.864066 0.497695
0.098889 -1.898523 0.102500 128 128 255 0.235221 0.847852 0.475203
0.233589 -1.956239 0.202677 128 128 255 0.061485 -0.854978 -0.515006
0.377620 -2.001408 0.301126 128 128 255 0.125137 -0.848223 -0.514644
0.523265 -2.032371 0.396163 128 128 255 0.166685 -0.847786 -0.503464
0.678056 -2.052077 0.486163 128 128 255 0.217045 -0.837126 -0.502107
0.831480 -2.057033 0.569588 128 128 255 0.274486 -0.818506 -0.504684
0.988351 -2.046241 0.645011 128 128 255 0.317950 -0.804861 -0.501106
1.146643 -2.021240 0.711141 128 128 255 0.373941 -0.776988 -0.506416
1.297549 -1.977252 0.766849 128 128 255 0.429813 -0.742720 -0.513447
1.447771 -1.916530 0.811181 128 128 255 0.479728 -0.708592 -0.517454
1.586253 -1.837259 0.843379 128 128 255 0.523396 -0.677989 -0.516128
1.719806 -1.746879 0.862892 128 128 255 0.561315 -0.650179 -0.512048
1.837620 -1.637620 0.869387 128 128 255 0.608309 -0.601518 -0.517819
1.946879 -1.519806 0.862751 128 128 255 0.643160 -0.570874 -0.510341
2.037259 -1.386253 0.843098 128 128 255 0.680217 -0.520537 -0.516086
2.116530 -1.247771 0.810763 128 128 255 0.708361 -0.481612 -0.516019
2.177252 -1.097549 0.766300 128 128 255 0.741522 -0.430437 -0.514655
2.221240 -0.946643 0.710469 128 128 255 0.773028 -0.377511 -0.509818
2.246241 -0.788351 0.644223 128 128 255 0.799344 -0.323083 -0.506624
2.257033 -0.631480 0.568695 128 128 255 0.819263 -0.275107 -0.503115
2.252077 -0.478056 0.485177 128 128 255 0.836686 -0.219202 -0.501903
2.232371 -0.323265 0.395096 128 128 255 0.851409 -0.166175 -0.497482
2.201408 -0.177620 0.299992 128 128 255 0.854642 -0.117631 -0.505717
2.156239 -0.033589 0.201492 128 128 255 0.856097 -0.061252 -0.513172
2.098583 0.098758 0.101752 128 128 255 0.859293 -0.011139 -0.511362
2.098523 0.100000 0.101499 128 128 255 -0.855656 -0.025497 0.516917
2.026663 0.225242 -0.011240 128 128 255 -0.855780 -0.054613 0.514449
1.950493 0.342365 -0.122049 128 128 255 -0.846063 -0.096811 0.524218
1.867563 0.452480 -0.229029 128 128 255 -0.834739 -0.156841 0.527837
1.779757 0.549276 -0.330347 128 128 255 -0.828491 -0.222967 0.513701
1.695456 0.642318 -0.424268 128 128 255 -0.814858 -0.276532 0.509447
1.609466 0.725892 -0.509183 128 128 255 -0.789538 -0.334859 0.514295
1.522979 0.801172 -0.583636 128 128 255 -0.770044 -0.380383 0.512192
1.443531 0.876157 -0.646353 128 128 255 -0.747156 -0.424842 0.511143
1.364977 0.945599 -0.696258 128 128 255 -0.708222 -0.485079 0.512952
1.287487 1.010932 -0.732495 128 128 255 -0.678560 -0.526660 0.512040
1.217546 1.077976 -0.754445 128 128 255 -0.654455 -0.555155 0.513314
1.147977 1.147977 -0.761729 128 128 255 -0.607883 -0.605306 0.513890
1.077976 1.217546 -0.754223 128 128 255 -0.556390 -0.653481 0.513218
1.010932 1.287487 -0.732054 128 128 255 -0.524764 -0.677448 0.515448
0.945599 1.364977 -0.695600 128 128 255 -0.488797 -0.703997 0.515234
0.876157 1.443531 -0.645485 128 128 255 -0.426025 -0.749525 0.506671
0.801172 1.522979 -0.582565 128 128 255 -0.380629 -0.769076 0.513462
0.725892 1.609466 -0.507918 128 128 255 -0.339068 -0.785696 0.517411
0.642318 1.695456 -0.422820 128 128 255 -0.279917 -0.817507 0.503317
0.549276 1.779757 -0.328729 128 128 255 -0.224663 -0.828436 0.513051
0.452480 1.867563 -0.227254 128 128 255 -0.166680 -0.833859 0.526210
0.342365 1.950493 -0.120132 128 128 255 -0.112969 -0.851475 0.512082
0.225242 2.026663 -0.009198 128 128 255 -0.060791 -0.857840 0.510309
0.101111 2.098523 0.103649 128 128 255 -0.206130 -0.873181 0.441662
-0.034100 2.164041 0.216477 128 128 255 -0.040825 0.868500 -0.494004
-0.179644 2.216781 0.327353 128 128 255 -0.100150 0.863905 -0.493598
-0.327738 2.254861 0.434379 128 128 255 -0.175149 0.839226 -0.514803
-0.485813 2.281025 0.535721 128 128 255 -0.223265 0.826752 -0.516366
-0.643213 2.291597 0.629643 128 128 255 -0.279902 0.808561 -0.517575
-0.804582 2.285425 0.714535 128 128 255 -0.325526 0.793200 -0.514652
-0.967698 2.261712 0.788944 128 128 255 -0.370936 0.779052 -0.505455
-1.123540 2.222269 0.851711 128 128 255 -0.425734 0.749747 -0.506586
-1.276366 2.162651 0.902029 128 128 255 -0.475460 0.713830 -0.514183
-1.423787 2.083278 0.938652 128 128 255 -0.527269 0.671005 -0.521286
-1.556845 1.989426 0.960954 128 128 255 -0.560362 0.653258 -0.509164
-1.682313 1.882313 0.968556 128 128 255 -0.607586 0.601096 -0.519156
-1.789425 1.756845 0.961328 128 128 255 -0.643030 0.568116 -0.513573
-1.883278 1.623787 0.939395 128 128 255 -0.677157 0.521392 -0.519239
-1.962651 1.476366 0.903134 128 128 255 -0.712928 0.479787 -0.511408
-2.022269 1.323540 0.853165 128 128 255 -0.747397 0.427972 -0.508171
-2.061712 1.167698 0.790345 128 128 255 -0.773810 0.376803 -0.509154
-2.085425 1.004582 0.715749 128 128 255 -0.793950 0.326442 -0.512911
-2.091597 0.843213 0.630654 128 128 255 -0.807497 0.282021 -0.518087
-2.081025 0.685813 0.536516 128 128 255 -0.826429 0.226785 -0.515348
-2.054861 0.527738 0.434946 128 128 255 -0.843792 0.170404 -0.508898
-2.016781 0.379644 0.327683 128 128 255 -0.861601 0.109967 -0.495531
-1.964041 0.234100 0.216561 128 128 255 -0.852686 0.066836 -0.518131
-1.898523 0.101111 0.103481 128 128 255 -0.752127 0.288841 -0.592348
-1.826663 -0.025242 -0.009621 128 128 255 0.858529 0.059142 0.509343
-1.750493 -0.142365 -0.120813 128 128 255 0.847282 0.097934 0.522037
-1.667562 -0.252480 -0.228191 128 128 255 0.835550 0.156673 0.526603
-1.579757 -0.349276 -0.329920 128 128 255 0.829180 0.222107 0.512960
-1.495456 -0.442318 -0.424260 128 128 255 0.815573 0.275243 0.509001
-1.409466 -0.525892 -0.509599 128 128 255 0.790373 0.333214 0.514081
-1.322979 -0.601172 -0.584478 128 128 255 0.770973 0.378600 0.512116
-1.243531 -0.676157 -0.647618 128 128 255 0.748186 0.422986 0.511175
-1.164977 -0.745599 -0.697940 128 128 255 0.709396 0.483169 0.513132
-1.087487 -0.810932 -0.734585 128 128 255 0.679780 0.524830 0.512301
-1.017546 -0.877976 -0.756927 128 128 255 0.655654 0.553450 0.513625
-0.947977 -0.947977 -0.764588 128 128 255 0.609051 0.603767 0.514318
-0.877976 -1.017546 -0.757437 128 128 255 0.557467 0.652121 0.513779
-0.810932 -1.087487 -0.735598 128 128 255 0.525642 0.676278 0.516090
-0.745599 -1.164977 -0.699448 128 128 255 0.488955 0.703343 0.515977
-0.676157 -1.243531 -0.649370 128 128 255 0.424846 0.749650 0.507475
-0.601172 -1.322979 -0.586190 128 128 255 0.378546 0.769557 0.514282
-0.525892 -1.409466 -0.511254 128 128 255 0.336724 0.786126 0.518288
-0.442318 -1.495456 -0.425844 128 128 255 0.277484 0.817806 0.504179
-0.349276 -1.579757 -0.331417 128 128 255 0.222017 0.828586 0.513958
-0.252480 -1.667562 -0.229589 128 128 255 0.163779 0.833796 0.527220
-0.142365 -1.750493 -0.122099 128 128 255 0.109962 0.851166 0.513249
-0.025242 -1.826663 -0.010785 128 128 255 0.057145 0.857083 0.511999
0.098889 -1.898523 0.102451 128 128 255 0.187549 0.865944 0.463645
0.234100 -1.964041 0.215671 128 128 255 0.041546 -0.868805 -0.493408
0.379644 -2.016781 0.326941 128 128 255 0.101524 -0.863731 -0.493622
0.527738 -2.054861 0.434357 128 128 255 0.176676 -0.838777 -0.515013
0.685813 -2.081025 0.536083 128 128 255 0.224767 -0.826141 -0.516693
0.843213 -2.091597 0.630380 128 128 255 0.281321 -0.807817 -0.517968
1.004582 -2.085425 0.715634 128 128 255 0.326776 -0.792406 -0.515082
1.167698 -2.061712 0.790387 128 128 255 0.371865 -0.778307 -0.505920
1.323540 -2.022269 0.853361 128 128 255 0.425818 -0.749406 -0.507021
1.476366 -1.962651 0.903480 128 128 255 0.474902 -0.713945 -0.514540
1.623787 -1.883278 0.939884 128 128 255 0.526652 -0.671282 -0.521554
1.756845 -1.789425 0.961952 128 128 255 0.559744 -0.653654 -0.509337
1.882313 -1.682313 0.969307 128 128 255 0.606983 -0.601619 -0.519256
1.989426 -1.556845 0.961821 128 128 255 0.642479 -0.568725 -0.513588
2.083278 -1.423787 0.939623 128 128 255 0.676684 -0.522071 -0.519173
2.162651 -1.276366 0.903091 128 128 255 0.712565 -0.480495 -0.511249
2.222269 -1.123540 0.852852 128 128 255 0.747164 -0.428684 -0.507913
2.261712 -0.967698 0.789763 128 128 255 0.773736 -0.377468 -0.508774
2.285425 -0.804582 0.714902 128 128 255 0.794065 -0.327003 -0.512376
2.291597 -0.643213 0.629551 128 128 255 0.807846 -0.282396 -0.517338
2.281025 -0.485813 0.535169 128 128 255 0.827076 -0.226817 -0.514295
2.254861 -0.327738 0.433368 128 128 255 0.844821 -0.169860 -0.507371
2.216781 -0.179644 0.325891 128 128 255 0.863235 -0.108267 -0.493055
2.164041 -0.034100 0.214574 128 128 255 0.856142 -0.061441 -0.513076
2.098591 0.098758 0.101790 128 128 255 0.859414 -0.010652 -0.511169
2.098523 0.100000 0.101532 128 128 255 -0.854801 -0.023066 0.518443
2.020915 0.224865 -0.020841 128 128 255 -0.855801 -0.053901 0.514490
1.939166 0.340873 -0.141118 128 128 255 -0.850051 -0.115234 0.513941
1.848769 0.449184 -0.257239 128 128 255 -0.832895 -0.145504 0.533961
1.758430 0.543562 -0.367217 128 128 255 -0.827776 -0.207369 0.521330
1.669995 0.633675 -0.469166 128 128 255 -0.813275 -0.273233 0.513739
1.578384 0.713938 -0.561341 128 128 255 -0.789349 -0.327866 0.519068
1.491541 0.785669 -0.642162 128 128 255 -0.770180 -0.381153 0.511415
1.410389 0.857023 -0.710245 128 128 255 -0.746276 -0.417798 0.518187
1.328807 0.922916 -0.764424 128 128 255 -0.708295 -0.479367 0.518194
1.253618 0.984944 -0.803770 128 128 255 -0.679526 -0.525615 0.511833
1.184600 1.049083 -0.827609 128 128 255 -0.650906 -0.553878 0.519173
1.116724 1.116724 -0.835533 128 128 255 -0.606584 -0.597461 0.524497
1.049083 1.184600 -0.827403 128 128 255 -0.559809 -0.652344 0.510942
0.984944 1.253618 -0.803360 128 128 255 -0.524593 -0.682960 0.508300
0.922916 1.328807 -0.763813 128 128 255 -0.483782 -0.702065 0.522551
0.857023 1.410389 -0.709438 128 128 255 -0.426119 -0.742127 0.517369
0.785669 1.491541 -0.641167 128 128 255 -0.382908 -0.774235 0.503927
0.713938 1.578384 -0.560165 128 128 255 -0.334263 -0.784148 0.522858
0.633675 1.669995 -0.467821 128 128 255 -0.270411 -0.811326 0.518294
0.543562 1.758430 -0.365713 128 128 255 -0.219220 -0.830611 0.511887
0.449184 1.848769 -0.255590 128 128 255 -0.159448 -0.832281 0.530928
0.340873 1.939166 -0.139336 128 128 255 -0.103088 -0.845256 0.524324
0.224865 2.020915 -0.018942 128 128 255 -0.065299 -0.859265 0.507345
0.101111 2.098523 0.103531 128 128 255 -0.174762 -0.883567 0.434473
-0.034477 2.169790 0.225986 128 128 255 -0.074370 0.850716 -0.520337
-0.181136 2.225886 0.346326 128 128 255 -0.087640 0.870784 -0.483792
-0.331035 2.271434 0.462491 128 128 255 -0.161870 0.847499 -0.505512
-0.491529 2.302358 0.572490 128 128 255 -0.220736 0.828155 -0.515204
-0.654082 2.317070 0.674440 128 128 255 -0.280318 0.807315 -0.519292
-0.816545 2.314306 0.766594 128 128 255 -0.327409 0.791013 -0.516818
-0.983217 2.293182 0.847373 128 128 255 -0.377512 0.767999 -0.517361
-1.142699 2.253231 0.915503 128 128 255 -0.424590 0.747000 -0.511580
-1.299083 2.196650 0.970067 128 128 255 -0.470285 0.719085 -0.511614
-1.449818 2.119426 1.009772 128 128 255 -0.524217 0.672963 -0.521840
-1.585788 2.022429 1.033939 128 128 255 -0.562873 0.643750 -0.518421
-1.713622 1.913622 1.042157 128 128 255 -0.603740 0.607791 -0.515838
-1.822429 1.785789 1.034285 128 128 255 -0.643835 0.565345 -0.515617
-1.919425 1.649818 1.010459 128 128 255 -0.671903 0.525136 -0.522282
-1.996650 1.499084 0.971088 128 128 255 -0.709513 0.473919 -0.521529
-2.053231 1.342699 0.916847 128 128 255 -0.743590 0.429416 -0.512519
-2.093182 1.183217 0.848664 128 128 255 -0.770807 0.379690 -0.511559
-2.114306 1.016545 0.767705 128 128 255 -0.789924 0.331449 -0.515908
-2.117070 0.854082 0.675358 128 128 255 -0.805275 0.284376 -0.520253
-2.102358 0.691529 0.573203 128 128 255 -0.823781 0.228814 -0.518681
-2.071434 0.531035 0.462987 128 128 255 -0.838040 0.174849 -0.516834
-2.025886 0.381136 0.346597 128 128 255 -0.866995 0.101401 -0.487892
-1.969790 0.234477 0.226023 128 128 255 -0.869602 0.046008 -0.491606
-1.898523 0.101111 0.103329 128 128 255 -0.739929 0.267975 -0.617004
-1.820915 -0.024865 -0.019386 128 128 255 0.860642 0.064688 0.505084
-1.739166 -0.140873 -0.140023 128 128 255 0.851896 0.119056 0.509999
-1.648769 -0.249184 -0.256520 128 128 255 0.834049 0.146952 0.531758
-1.558430 -0.343562 -0.366883 128 128 255 0.828583 0.207448 0.520015
-1.469995 -0.433675 -0.469226 128 128 255 0.814012 0.272492 0.512965
-1.378384 -0.513938 -0.561799 128 128 255 0.790161 0.326535 0.518671
-1.291541 -0.585669 -0.643019 128 128 255 0.771080 0.379502 0.511286
-1.210389 -0.657023 -0.711499 128 128 255 0.747263 0.415929 0.518268
-1.128807 -0.722916 -0.766068 128 128 255 0.709404 0.477359 0.518531
-1.053618 -0.784944 -0.805795 128 128 255 0.680671 0.523628 0.512349
-0.984600 -0.849083 -0.830002 128 128 255 0.651984 0.551998 0.519822
-0.916724 -0.916724 -0.838276 128 128 255 0.607532 0.595766 0.525326
-0.849083 -0.984600 -0.830478 128 128 255 0.560564 0.650906 0.511947
-0.784944 -1.053618 -0.806743 128 128 255 0.525011 0.681751 0.509489
-0.722916 -1.128807 -0.767478 128 128 255 0.483305 0.701348 0.523954
-0.657023 -1.210389 -0.713136 128 128 255 0.424215 0.742180 0.518854
-0.585669 -1.291541 -0.644619 128 128 255 0.380058 0.774668 0.505417
-0.513938 -1.378384 -0.563345 128 128 255 0.330964 0.784501 0.524425
-0.433675 -1.469995 -0.470705 128 128 255 0.266944 0.811473 0.519858
-0.343562 -1.558430 -0.368282 128 128 255 0.215549 0.830578 0.513496
-0.249184 -1.648769 -0.257825 128 128 255 0.155388 0.831926 0.532686
-0.140873 -1.739166 -0.141223 128 128 255 0.098821 0.844536 0.526302
-0.024865 -1.820915 -0.020470 128 128 255 0.060231 0.858038 0.510042
0.098889 -1.898523 0.102370 128 128 255 0.154605 0.877556 0.453865
0.234477 -1.969790 0.225196 128 128 255 0.074934 -0.851058 -0.519697
0.381136 -2.025886 0.345908 128 128 255 0.089216 -0.870436 -0.484130
0.531035 -2.071434 0.462443 128 128 255 0.163677 -0.846775 -0.506144
0.691529 -2.102358 0.572806 128 128 255 0.222511 -0.827197 -0.515979
0.854082 -2.117070 0.675110 128 128 255 0.282000 -0.806153 -0.520187
1.016545 -2.114306 0.767607 128 128 255 0.328858 -0.789787 -0.517772
1.183217 -2.093182 0.848713 128 128 255 0.378573 -0.766807 -0.518353
1.342699 -2.053231 0.917041 128 128 255 0.424795 -0.746233 -0.512528
1.499084 -1.996650 0.971424 128 128 255 0.469784 -0.718862 -0.512387
1.649818 -1.919425 1.010929 128 128 255 0.523601 -0.672971 -0.522447
1.785789 -1.822429 1.034882 128 128 255 0.562221 -0.643962 -0.518865
1.913622 -1.713622 1.042873 128 128 255 0.603111 -0.608171 -0.516125
2.022429 -1.585788 1.034764 128 128 255 0.643272 -0.565862 -0.515753
2.119426 -1.449818 1.010695 128 128 255 0.671447 -0.525746 -0.522255
2.196650 -1.299083 0.971076 128 128 255 0.709215 -0.474571 -0.521342
2.253231 -1.142699 0.916585 128 128 255 0.743486 -0.430038 -0.512147
2.293182 -0.983217 0.848154 128 128 255 0.770958 -0.380200 -0.510952
2.314306 -0.816545 0.766953 128 128 255 0.790375 -0.331752 -0.515022
2.317070 -0.654082 0.674370 128 128 255 0.806120 -0.284304 -0.518982
2.302358 -0.491529 0.571989 128 128 255 0.825120 -0.228105 -0.516861
2.271434 -0.331035 0.461560 128 128 255 0.840049 -0.173052 -0.514171
2.225886 -0.181136 0.344972 128 128 255 0.869875 -0.097488 -0.483542
2.169790 -0.034477 0.224219 128 128 255 0.875006 -0.035782 -0.482789
2.098596 0.098758 0.101821 128 128 255 0.859672 -0.009928 -0.510750
2.098523 0.100000 0.101563 128 128 255 -0.850094 -0.011304 0.526509
2.017394 0.224634 -0.026719 128 128 255 -0.855800 -0.051973 0.514690
1.932229 0.339960 -0.152806 128 128 255 -0.850840 -0.112443 0.513252
1.838620 0.447165 -0.274537 128 128 255 -0.840344 -0.176107 0.512648
1.745368 0.540062 -0.389828 128 128 255 -0.831298 -0.215287 0.512440
1.654401 0.628382 -0.496704 128 128 255 -0.814766 -0.270833 0.512646
1.560708 0.706617 -0.593334 128 128 255 -0.791771 -0.332643 0.512296
1.474508 0.776173 -0.678064 128 128 255 -0.772096 -0.399404 0.494313
1.390090 0.843081 -0.749442 128 128 255 -0.745851 -0.424535 0.513300
1.308014 0.909023 -0.806246 128 128 255 -0.711806 -0.475521 0.516926
1.232875 0.971249 -0.847503 128 128 255 -0.684019 -0.529109 0.502157
1.164422 1.031387 -0.872506 128 128 255 -0.647622 -0.568528 0.507308
1.095360 1.095360 -0.880825 128 128 255 -0.604197 -0.591906 0.533473
1.031387 1.164422 -0.872319 128 128 255 -0.565408 -0.637741 0.523069
0.971249 1.232875 -0.847130 128 128 255 -0.530738 -0.683010 0.501811
0.909023 1.308014 -0.805691 128 128 255 -0.490865 -0.708719 0.506724
0.843081 1.390090 -0.748709 128 128 255 -0.432533 -0.736457 0.520140
0.776173 1.474508 -0.677159 128 128 255 -0.394799 -0.772057 0.498059
0.706617 1.560708 -0.592266 128 128 255 -0.355119 -0.789264 0.500952
0.628382 1.654401 -0.495481 128 128 255 -0.288180 -0.810381 0.510133
0.540062 1.745368 -0.388460 128 128 255 -0.224477 -0.830960 0.509034
0.447165 1.838620 -0.273037 128 128 255 -0.189905 -0.840274 0.507814
0.339960 1.932229 -0.151185 128 128 255 -0.135170 -0.852029 0.505743
0.224634 2.017394 -0.024992 128 128 255 -0.077142 -0.862823 0.499586
0.101111 2.098523 0.103383 128 128 255 -0.149482 -0.891602 0.427435
-0.034708 2.173310 0.231742 128 128 255 -0.085003 0.843225 -0.530798
-0.182049 2.232823 0.357887 128 128 255 -0.125936 0.844428 -0.520656
-0.333054 2.281584 0.479657 128 128 255 -0.169242 0.838578 -0.517827
-0.495030 2.315424 0.594968 128 128 255 -0.219388 0.827676 -0.516547
-0.659378 2.332673 0.701845 128 128 255 -0.275012 0.811344 -0.515838
-0.823873 2.331997 0.798456 128 128 255 -0.325519 0.792739 -0.515366
-0.992724 2.312460 0.883147 128 128 255 -0.373073 0.771621 -0.515187
-1.156658 2.273560 0.954568 128 128 255 -0.426509 0.737086 -0.524208
-1.313001 2.217479 1.011722 128 128 255 -0.468655 0.714222 -0.519854
-1.465766 2.140209 1.053304 128 128 255 -0.520948 0.679996 -0.515963
-1.603520 2.042649 1.078604 128 128 255 -0.563896 0.644774 -0.516031
-1.732803 1.932803 1.087189 128 128 255 -0.600677 0.610185 -0.516586
-1.842649 1.803520 1.078914 128 128 255 -0.642585 0.565942 -0.516521
-1.940209 1.665766 1.053921 128 128 255 -0.672022 0.530199 -0.516986
-2.017479 1.513001 1.012639 128 128 255 -0.711370 0.476054 -0.517035
-2.073560 1.356658 0.955774 128 128 255 -0.732907 0.431409 -0.526054
-2.112460 1.192724 0.884300 128 128 255 -0.760828 0.385310 -0.522185
-2.131997 1.023873 0.799440 128 128 255 -0.787512 0.334232 -0.517797
-2.132673 0.859378 0.702648 128 128 255 -0.805721 0.286550 -0.518365
-2.115424 0.695030 0.595579 128 128 255 -0.822779 0.231353 -0.519144
-2.081583 0.533054 0.480065 128 128 255 -0.834592 0.180482 -0.520463
-2.032823 0.382049 0.358084 128 128 255 -0.841083 0.136763 -0.523331
-1.973310 0.234708 0.231721 128 128 255 -0.841804 0.096273 -0.531128
-1.898523 0.101111 0.103140 128 128 255 -0.726456 0.250486 -0.639936
-1.817394 -0.024634 -0.025460 128 128 255 0.867084 0.082510 0.491282
-1.732229 -0.139960 -0.151880 128 128 255 0.854770 0.124352 0.503889
-1.638620 -0.247165 -0.273958 128 128 255 0.842187 0.182043 0.507525
-1.545368 -0.340062 -0.389604 128 128 255 0.832422 0.218047 0.509440
-1.454401 -0.428382 -0.496843 128 128 255 0.815600 0.271611 0.510905
-1.360708 -0.506617 -0.593840 128 128 255 0.792558 0.332106 0.511427
-1.274508 -0.576173 -0.678936 128 128 255 0.772938 0.398034 0.494101
-1.190090 -0.643081 -0.750679 128 128 255 0.746764 0.422603 0.513566
-1.108014 -0.709023 -0.807841 128 128 255 0.712774 0.473243 0.517682
-1.032875 -0.771249 -0.849446 128 128 255 0.684969 0.526710 0.503382
-0.964422 -0.831387 -0.874785 128 128 255 0.648390 0.566208 0.508919
-0.895360 -0.895360 -0.883425 128 128 255 0.604560 0.589731 0.535467
-0.831387 -0.964422 -0.875220 128 128 255 0.565262 0.635903 0.525458
-0.771249 -1.032875 -0.850313 128 128 255 0.529862 0.681612 0.504630
-0.709023 -1.108014 -0.809130 128 128 255 0.488678 0.707864 0.510022
-0.643081 -1.190090 -0.752176 128 128 255 0.428518 0.736339 0.523620
-0.576173 -1.274508 -0.680400 128 128 255 0.389685 0.772435 0.501487
-0.506617 -1.360708 -0.595255 128 128 255 0.349368 0.789559 0.504518
-0.428382 -1.454401 -0.498198 128 128 255 0.282006 0.810273 0.513741
-0.340062 -1.545368 -0.390886 128 128 255 0.217853 0.830477 0.512687
-0.247165 -1.638620 -0.275154 128 128 255 0.182889 0.839444 0.511747
-0.139960 -1.732229 -0.152981 128 128 255 0.127829 0.850602 0.510035
-0.024634 -1.817394 -0.026455 128 128 255 0.068397 0.860438 0.504945
0.098889 -1.898523 0.102260 128 128 255 0.128423 0.886178 0.445191
0.234708 -1.973310 0.230962 128 128 255 0.085124 -0.843716 -0.529998
0.382049 -2.032823 0.357452 128 128 255 0.128510 -0.843290 -0.521869
0.533054 -2.081583 0.479566 128 128 255 0.172170 -0.836841 -0.519668
0.695030 -2.115424 0.595214 128 128 255 0.222180 -0.825596 -0.518678
0.859378 -2.132673 0.702420 128 128 255 0.277544 -0.809001 -0.518157
1.023873 -2.131997 0.799350 128 128 255 0.327644 -0.790250 -0.517836
1.192724 -2.112460 0.884346 128 128 255 0.374592 -0.769173 -0.517739
1.356658 -2.073560 0.955953 128 128 255 0.427005 -0.735036 -0.526676
1.513001 -2.017479 1.012948 128 128 255 0.468202 -0.713036 -0.521887
1.665766 -1.940209 1.054354 128 128 255 0.520239 -0.679330 -0.517554
1.803520 -1.842649 1.079465 128 128 255 0.563084 -0.644520 -0.517234
1.932803 -1.732803 1.087849 128 128 255 0.599868 -0.610274 -0.517421
2.042649 -1.603520 1.079364 128 128 255 0.641893 -0.566295 -0.516994
2.140209 -1.465766 1.054154 128 128 255 0.671546 -0.530708 -0.517083
2.217479 -1.313001 1.012650 128 128 255 0.711204 -0.476619 -0.516743
2.273560 -1.156658 0.955563 128 128 255 0.733151 -0.431899 -0.525313
2.312460 -0.992724 0.883868 128 128 255 0.761599 -0.385510 -0.520911
2.331997 -0.823873 0.798792 128 128 255 0.788899 -0.333910 -0.515890
2.332673 -0.659378 0.701789 128 128 255 0.807933 -0.285323 -0.515593
2.315424 -0.495030 0.594518 128 128 255 0.826029 -0.228679 -0.515152
2.281584 -0.333054 0.478815 128 128 255 0.839343 -0.175271 -0.514570
2.232823 -0.182049 0.356657 128 128 255 0.848581 -0.126505 -0.513719
2.173310 -0.034708 0.230135 128 128 255 0.855740 -0.072234 -0.512339
2.098600 0.098758 0.101844 128 128 255 0.860313 -0.008422 -0.509697
2.098523 0.100000 0.101594 128 128 255 0.863325 0.044600 -0.502673
2.016208 0.224557 -0.028698 128 128 255 0.855938 0.071263 -0.512145
1.929893 0.339653 -0.156759 128 128 255 0.831040 0.174666 -0.528076
1.835203 0.446485 -0.280397 128 128 255 0.809914 0.202623 -0.550440
1.740969 0.538883 -0.397494 128 128 255 0.799676 0.203937 -0.564738
1.649149 0.626599 -0.506046 128 128 255 0.675366 0.446326 -0.587090
1.554756 0.704151 -0.604192 128 128 255 0.700469 0.273718 -0.659107
1.468024 0.772976 -0.690253 128 128 255 0.577495 0.493191 -0.650586
1.383255 0.839135 -0.762755 128 128 255 0.441225 0.563151 -0.698699
1.301012 0.904344 -0.820456 128 128 255 -0.379798 0.437706 -0.814964
1.225889 0.965889 -0.862368 128 128 255 -0.944355 0.074399 -0.320404
1.157626 1.025428 -0.887772 128 128 255 -0.577371 0.593714 -0.560487
1.088913 1.088913 -0.896234 128 128 255 -0.893288 -0.449484 0.000000
1.025428 1.157626 -0.887607 128 128 255 -0.909143 -0.339494 0.241253
0.965889 1.225889 -0.862038 128 128 255 -0.922081 -0.363484 0.132838
0.904344 1.301012 -0.819965 128 128 255 -0.845418 -0.487705 0.217744
0.839135 1.383255 -0.762107 128 128 255 -0.743865 -0.586156 0.321070
0.772976 1.468024 -0.689453 128 128 255 -0.688166 -0.641856 0.338302
0.704151 1.554756 -0.603246 128 128 255 -0.599729 -0.728058 0.332050
0.626599 1.649149 -0.504962 128 128 255 -0.610405 -0.709957 0.351236
0.538883 1.740969 -0.396283 128 128 255 -0.420178 -0.820809 0.386940
0.446485 1.835203 -0.279067 128 128 255 -0.396692 -0.834178 0.383122
0.339653 1.929893 -0.155322 128 128 255 -0.317459 -0.858987 0.401697
0.224557 2.016208 -0.027166 128 128 255 -0.198489 -0.889191 0.412240
0.101111 2.098523 0.103209 128 128 255 -0.126286 -0.898636 0.420126
-0.034786 2.174496 0.233568 128 128 255 -0.009589 -0.902236 0.431136
-0.182356 2.235159 0.361682 128 128 255 0.074352 -0.896684 0.436382
-0.333734 2.285002 0.485355 128 128 255 0.169852 -0.876947 0.449571
-0.496209 2.319824 0.602471 128 128 255 0.283634 -0.845007 0.453337
-0.661162 2.337927 0.711023 128 128 255 0.396571 -0.793530 0.461564
-0.826341 2.337955 0.809153 128 128 255 0.447292 -0.755607 0.478528
-0.995926 2.318953 0.895179 128 128 255 0.619254 -0.626481 0.473335
-1.160611 2.280406 0.967717 128 128 255 0.708979 -0.528882 0.466511
-1.317688 2.224494 1.025727 128 128 255 0.728371 -0.514250 0.452795
-1.471137 2.147209 1.067925 128 128 255 0.956448 -0.079702 0.280812
-1.609493 2.049459 1.093591 128 128 255 0.845668 -0.449349 0.287977
-1.739264 1.939264 1.102285 128 128 255 0.919904 0.392144 -0.000044
-1.849459 1.809493 1.093859 128 128 255 0.751155 0.365634 -0.549616
-1.947209 1.671137 1.068460 128 128 255 0.590195 0.733840 -0.336376
-2.024494 1.517688 1.026521 128 128 255 -0.116880 0.762623 -0.636195
-2.080406 1.360611 0.968761 128 128 255 -0.024541 0.763685 -0.645123
-2.118953 1.195926 0.896169 128 128 255 -0.214793 0.733049 -0.645371
-2.137955 1.026341 0.809987 128 128 255 -0.464980 0.587046 -0.662700
-2.137927 0.861162 0.711690 128 128 255 -0.447354 0.604457 -0.659171
-2.119824 0.696209 0.602961 128 128 255 -0.531682 0.528092 -0.662143
-2.085002 0.533734 0.485659 128 128 255 -0.623658 0.425049 -0.656037
-2.035159 0.382356 0.361793 128 128 255 -0.639422 0.383203 -0.666555
-1.974496 0.234786 0.233480 128 128 255 -0.684040 0.318984 -0.656002
-1.898523 0.101111 0.102918 128 128 255 -0.711323 0.231952 -0.663490
-1.816208 -0.024557 -0.027662 128 128 255 -0.727533 0.174525 -0.663503
-1.729893 -0.139653 -0.156025 128 128 255 -0.741031 0.034004 -0.670609
-1.635203 -0.246485 -0.279976 128 128 255 -0.725698 0.017726 -0.687785
-1.540969 -0.338883 -0.397395 128 128 255 -0.748527 -0.044076 -0.661638
-1.449149 -0.426599 -0.506273 128 128 255 -0.636357 -0.349647 -0.687602
-1.354756 -0.504151 -0.604749 128 128 255 -0.663735 -0.164868 -0.729571
-1.268024 -0.572976 -0.691140 128 128 255 -0.571615 -0.480663 -0.664996
-1.183255 -0.639135 -0.763968 128 128 255 -0.465963 -0.595030 -0.654842
-1.101012 -0.704344 -0.821989 128 128 255 0.036012 -0.725326 -0.687463
-1.025889 -0.765889 -0.864212 128 128 255 0.612274 -0.693583 -0.379557
-0.957626 -0.825428 -0.889916 128 128 255 0.120206 -0.880907 -0.457770
-0.888913 -0.888913 -0.898662 128 128 255 0.975257 -0.221075 -0.000001
-0.825428 -0.957626 -0.890303 128 128 255 0.924356 0.091511 0.370395
-0.765889 -1.025889 -0.864984 128 128 255 0.947266 -0.129538 0.293101
-0.704344 -1.101012 -0.823137 128 128 255 0.847871 0.241533 0.471991
-0.639135 -1.183255 -0.765302 128 128 255 0.678245 0.527028 0.512079
-0.572976 -1.268024 -0.692446 128 128 255 0.602769 0.622700 0.498913
-0.504151 -1.354756 -0.606014 128 128 255 0.464655 0.736676 0.491329
-0.426599 -1.449149 -0.507485 128 128 255 0.539840 0.702603 0.463597
-0.338883 -1.540969 -0.398543 128 128 255 0.324389 0.819918 0.471705
-0.246485 -1.635203 -0.281049 128 128 255 0.318044 0.831572 0.455341
-0.139653 -1.729893 -0.157014 128 128 255 0.263339 0.852674 0.451221
-0.024557 -1.816208 -0.028557 128 128 255 0.157546 0.881603 0.444921
0.098889 -1.898523 0.102124 128 128 255 0.104618 0.893397 0.436917
0.234786 -1.974496 0.232794 128 128 255 0.006566 0.901786 0.432132
0.382356 -2.035159 0.361220 128 128 255 -0.058757 0.904954 0.421433
0.533734 -2.085002 0.485204 128 128 255 -0.138706 0.897104 0.419481
0.696209 -2.119824 0.602627 128 128 255 -0.233157 0.884449 0.404212
0.861162 -2.137927 0.711478 128 128 255 -0.328759 0.858893 0.392709
1.026341 -2.137955 0.809898 128 128 255 -0.380231 0.837643 0.392146
1.195926 -2.118953 0.896201 128 128 255 -0.519244 0.776702 0.356539
1.360611 -2.080406 0.968913 128 128 255 -0.596752 0.733961 0.324326
1.517688 -2.024494 1.026789 128 128 255 -0.663172 0.669177 0.335269
1.671137 -1.947209 1.068839 128 128 255 -0.903461 0.373769 0.209892
1.809493 -1.849459 1.094344 128 128 255 -0.781506 0.596004 0.184465
1.939264 -1.739264 1.102867 128 128 255 -0.988458 -0.151494 0.000038
2.049459 -1.609493 1.094263 128 128 255 -0.902918 -0.039519 -0.427992
2.147209 -1.471137 1.068678 128 128 255 -0.644149 -0.688779 -0.332648
2.224494 -1.317688 1.026551 128 128 255 0.162108 -0.766164 -0.621863
2.280406 -1.160611 0.968601 128 128 255 0.196021 -0.770006 -0.607179
2.318953 -0.995926 0.895820 128 128 255 0.415336 -0.699272 -0.581820
2.337955 -0.826341 0.809452 128 128 255 0.632373 -0.521084 -0.573216
2.337927 -0.661162 0.710975 128 128 255 0.671025 -0.492445 -0.554277
2.319824 -0.496209 0.602073 128 128 255 0.751048 -0.379826 -0.540054
2.285002 -0.333734 0.484610 128 128 255 0.810372 -0.257614 -0.526243
2.235159 -0.182356 0.360592 128 128 255 0.841804 -0.166753 -0.513381
2.174496 -0.034786 0.232143 128 128 255 0.859649 -0.083559 -0.504006
2.098601 0.098758 0.101859 128 128 255 0.863703 -0.000896 -0.504001
2.098523 0.100000 0.101623 128 128 255 0.859291 0.033684 -0.510377
2.017394 0.224634 -0.026714 128 128 255 0.855903 0.057322 -0.513950
1.932229 0.339960 -0.152855 128 128 255 0.848151 0.121618 -0.515605
1.838620 0.447165 -0.274640 128 128 255 0.837793 0.178363 -0.516032
1.745368 0.540062 -0.389983 128 128 255 0.829178 0.214470 -0.516204
1.654401 0.628382 -0.496908 128 128 255 0.809179 0.279460 -0.516848
1.560708 0.706617 -0.593587 128 128 255 0.788628 0.347420 -0.507311
1.474508 0.776173 -0.678362 128 128 255 0.771479 0.388323 -0.504010
1.390090 0.843081 -0.749782 128 128 255 0.735564 0.426885 -0.526038
1.308014 0.909023 -0.806624 128 128 255 0.707648 0.486259 -0.512627
1.232875 0.971249 -0.847915 128 128 255 0.681491 0.527154 -0.507620
1.164422 1.031387 -0.872947 128 128 255 0.635373 0.562671 -0.528870
1.095360 1.095360 -0.881292 128 128 255 0.588582 0.602225 -0.539348
1.031387 1.164422 -0.872806 128 128 255 0.564361 0.646607 -0.513222
0.971249 1.232875 -0.847633 128 128 255 0.523878 0.683594 -0.508185
0.909023 1.308014 -0.806204 128 128 255 0.469107 0.711585 -0.523054
0.843081 1.390090 -0.749227 128 128 255 0.417044 0.745760 -0.519536
0.776173 1.474508 -0.677677 128 128 255 0.390760 0.772249 -0.500938
0.706617 1.560708 -0.592777 128 128 255 0.322276 0.791403 -0.519441
0.628382 1.654401 -0.495981 128 128 255 0.259086 0.813675 -0.520391
0.540062 1.745368 -0.388945 128 128 255 0.201670 0.829286 -0.521166
0.447165 1.838620 -0.273500 128 128 255 0.159889 0.837119 -0.523133
0.339960 1.932229 -0.151623 128 128 255 0.091367 0.844795 -0.527232
0.224634 2.017394 -0.025399 128 128 255 0.013839 0.841078 -0.540737
0.101111 2.098523 0.103010 128 128 255 -0.102390 -0.905339 0.412163
-0.034708 2.173310 0.231407 128 128 255 0.054479 -0.864803 0.499147
-0.182049 2.232823 0.357594 128 128 255 0.117552 -0.854025 0.506776
-0.333054 2.281584 0.479410 128 128 255 0.169521 -0.843367 0.509898
-0.495030 2.315424 0.594768 128 128 255 0.224675 -0.829294 0.511656
-0.659378 2.332673 0.701695 128 128 255 0.282405 -0.810685 0.512871
-0.823873 2.331997 0.798358 128 128 255 0.331816 -0.791199 0.513714
-0.992724 2.312460 0.883102 128 128 255 0.384087 -0.763566 0.519080
-1.156658 2.273560 0.954552 128 128 255 0.431327 -0.734753 0.523540
-1.313001 2.217479 1.011656 128 128 255 0.476656 -0.712716 0.514621
-1.465766 2.140209 1.053190 128 128 255 0.531177 -0.673145 0.514517
-1.603520 2.042649 1.078442 128 128 255 0.567276 -0.643428 0.514002
-1.732803 1.932803 1.086982 128 128 255 0.611826 -0.601227 0.513998
-1.842649 1.803520 1.078664 128 128 255 0.646743 -0.564078 0.513361
-1.940209 1.665766 1.053631 128 128 255 0.682230 -0.520763 0.513194
-2.017479 1.513001 1.012311 128 128 255 0.716785 -0.467987 0.516922
-2.073560 1.356658 0.955412 128 128 255 0.739722 -0.425851 0.521020
-2.112460 1.192724 0.883908 128 128 255 0.774551 -0.372274 0.511353
-2.131997 1.023873 0.799023 128 128 255 0.796684 -0.323701 0.510405
-2.132673 0.859378 0.702209 128 128 255 0.816652 -0.271409 0.509330
-2.115424 0.695030 0.595123 128 128 255 0.834766 -0.213005 0.507735
-2.081583 0.533054 0.479597 128 128 255 0.848434 -0.157861 0.505212
-2.032823 0.382049 0.357609 128 128 255 0.859503 -0.104426 0.500349
-1.973310 0.234708 0.231244 128 128 255 0.874083 -0.029483 0.484881
-1.898523 0.101111 0.102666 128 128 255 -0.693319 0.208506 -0.689807
-1.817394 -0.024634 -0.025927 128 128 255 -0.844002 -0.025457 -0.535735
-1.732229 -0.139960 -0.152335 128 128 255 -0.844021 -0.106257 -0.525678
-1.638620 -0.247165 -0.274395 128 128 255 -0.836191 -0.168736 -0.521837
-1.545368 -0.340062 -0.390019 128 128 255 -0.828649 -0.208268 -0.519582
-1.454401 -0.428382 -0.497231 128 128 255 -0.809269 -0.275506 -0.518826
-1.360708 -0.506617 -0.594197 128 128 255 -0.789107 -0.344933 -0.508263
-1.274508 -0.576173 -0.679259 128 128 255 -0.772103 -0.386930 -0.504125
-1.190090 -0.643081 -0.750963 128 128 255 -0.736340 -0.426197 -0.525509
-1.108014 -0.709023 -0.808083 128 128 255 -0.708566 -0.486049 -0.511558
-1.032875 -0.771249 -0.849644 128 128 255 -0.682635 -0.527200 -0.506034
-0.964422 -0.831387 -0.874935 128 128 255 -0.636948 -0.562877 -0.526752
-0.895360 -0.895360 -0.883525 128 128 255 -0.590724 -0.602486 -0.536708
-0.831387 -0.964422 -0.875269 128 128 255 -0.567113 -0.646705 -0.510055
-0.771249 -1.032875 -0.850309 128 128 255 -0.527539 -0.683566 -0.504420
-0.709023 -1.108014 -0.809074 128 128 255 -0.473498 -0.711829 -0.518747
-0.643081 -1.190090 -0.752115 128 128 255 -0.421619 -0.746373 -0.514941
-0.576173 -1.274508 -0.680389 128 128 255 -0.395556 -0.772837 -0.496244
-0.506617 -1.360708 -0.595294 128 128 255 -0.327787 -0.792261 -0.514663
-0.428382 -1.454401 -0.498285 128 128 255 -0.265042 -0.814851 -0.515530
-0.340062 -1.545368 -0.391020 128 128 255 -0.208138 -0.830851 -0.516106
-0.247165 -1.638620 -0.275333 128 128 255 -0.167012 -0.839124 -0.517665
-0.139960 -1.732229 -0.153201 128 128 255 -0.099662 -0.847773 -0.520910
-0.024634 -1.817394 -0.026715 128 128 255 -0.026594 -0.846727 -0.531362
0.098889 -1.898523 0.101964 128 128 255 0.080205 0.899980 0.428489
0.234708 -1.973310 0.230635 128 128 255 -0.055482 0.864809 0.499026
0.382049 -2.032823 0.357096 128 128 255 -0.116593 0.855211 0.504995
0.533054 -2.081583 0.479186 128 128 255 -0.168109 0.845117 0.507461
0.695030 -2.115424 0.594816 128 128 255 -0.223266 0.831400 0.508848
0.859378 -2.132673 0.702007 128 128 255 -0.281201 0.813024 0.509822
1.023873 -2.131997 0.798927 128 128 255 -0.330964 0.793649 0.510475
1.192724 -2.112460 0.883918 128 128 255 -0.383533 0.766147 0.515675
1.356658 -2.073560 0.955525 128 128 255 -0.430806 0.737407 0.520228
1.513001 -2.017479 1.012525 128 128 255 -0.476336 0.714909 0.511868
1.665766 -1.940209 1.053941 128 128 255 -0.531206 0.674817 0.512291
1.803520 -1.842649 1.079066 128 128 255 -0.567485 0.644634 0.512258
1.932803 -1.732803 1.087470 128 128 255 -0.612056 0.602090 0.512714
2.042649 -1.603520 1.079008 128 128 255 -0.646898 0.564654 0.512531
2.140209 -1.465766 1.053826 128 128 255 -0.682174 0.521190 0.512834
2.217479 -1.313001 1.012354 128 128 255 -0.716415 0.468388 0.517071
2.273560 -1.156658 0.955302 128 128 255 -0.738893 0.426394 0.521753
2.312460 -0.992724 0.883645 128 128 255 -0.773206 0.373152 0.512747
2.331997 -0.823873 0.798609 128 128 255 -0.794612 0.325244 0.512647
2.332673 -0.659378 0.701650 128 128 255 -0.813642 0.274078 0.512707
2.315424 -0.495030 0.594425 128 128 255 -0.830501 0.217519 0.512790
2.281584 -0.333054 0.478768 128 128 255 -0.842206 0.165820 0.513022
2.232823 -0.182049 0.356658 128 128 255 -0.849581 0.119526 0.513736
2.173310 -0.034708 0.230184 128 128 255 -0.854050 0.067534 0.515788
2.098600 0.098758 0.101867 128 128 255 -0.853029 0.023746 0.521322
2.098523 0.100000 0.101651 128 128 255 0.858456 0.031295 -0.511931
2.020915 0.224865 -0.020829 128 128 255 0.855908 0.056207 -0.514065
1.939166 0.340873 -0.141214 128 128 255 0.843150 0.096829 -0.528888
1.848769 0.449184 -0.257442 128 128 255 0.830828 0.154085 -0.534774
1.758430 0.543562 -0.367523 128 128 255 0.829683 0.214732 -0.515283
1.669995 0.633675 -0.469571 128 128 255 0.810587 0.266453 -0.521489
1.578384 0.713938 -0.561841 128 128 255 0.783591 0.330706 -0.525946
1.491541 0.785669 -0.642751 128 128 255 0.773751 0.380029 -0.506841
1.410389 0.857023 -0.710918 128 128 255 0.741506 0.423694 -0.520243
1.328807 0.922916 -0.765172 128 128 255 0.701284 0.481790 -0.525432
1.253618 0.984944 -0.804586 128 128 255 0.681944 0.523151 -0.511141
1.184600 1.049083 -0.828485 128 128 255 0.650943 0.558837 -0.513784
1.116724 1.116724 -0.836458 128 128 255 0.595573 0.605934 -0.527387
1.049083 1.184600 -0.828369 128 128 255 0.551489 0.650597 -0.522096
0.984944 1.253618 -0.804356 128 128 255 0.522663 0.679528 -0.514845
0.922916 1.328807 -0.764830 128 128 255 0.475777 0.708423 -0.521319
0.857023 1.410389 -0.710465 128 128 255 0.413687 0.746363 -0.521350
0.785669 1.491541 -0.642192 128 128 255 0.376421 0.770279 -0.514760
0.713938 1.578384 -0.561180 128 128 255 0.322307 0.789239 -0.522704
0.633675 1.669995 -0.468814 128 128 255 0.267101 0.812812 -0.517682
0.543562 1.758430 -0.366674 128 128 255 0.200194 0.826728 -0.525779
0.449184 1.848769 -0.256509 128 128 255 0.136851 0.830927 -0.539289
0.340873 1.939166 -0.140204 128 128 255 0.104687 0.847079 -0.521055
0.224865 2.020915 -0.019750 128 128 255 0.036090 0.848979 -0.527193
0.101111 2.098523 0.102791 128 128 255 -0.075616 -0.912081 0.402978
-0.034477 2.169790 0.225322 128 128 255 0.025647 -0.879605 0.475012
-0.181136 2.225886 0.345746 128 128 255 0.092335 -0.872594 0.479639
-0.331035 2.271434 0.462000 128 128 255 0.169583 -0.842268 0.511689
-0.491529 2.302358 0.572094 128 128 255 0.225598 -0.826925 0.515073
-0.654082 2.317070 0.674143 128 128 255 0.282402 -0.807642 0.517653
-0.816545 2.314306 0.766400 128 128 255 0.330320 -0.791609 0.514047
-0.983217 2.293182 0.847283 128 128 255 0.379160 -0.771970 0.510196
-1.142699 2.253231 0.915472 128 128 255 0.429567 -0.744246 0.511439
-1.299083 2.196650 0.969937 128 128 255 0.474531 -0.709901 0.520443
-1.449818 2.119426 1.009545 128 128 255 0.525923 -0.672184 0.521127
-1.585788 2.022429 1.033619 128 128 255 0.566286 -0.643976 0.514408
-1.713622 1.913622 1.041746 128 128 255 0.608886 -0.603727 0.514560
-1.822429 1.785789 1.033789 128 128 255 0.645011 -0.562672 0.517070
-1.919425 1.649818 1.009883 128 128 255 0.674375 -0.523825 0.520409
-1.996650 1.499084 0.970439 128 128 255 0.720610 -0.469631 0.510067
-2.053231 1.342699 0.916131 128 128 255 0.748406 -0.424177 0.509865
-2.093182 1.183217 0.847888 128 128 255 0.769434 -0.377403 0.515303
-2.114306 1.016545 0.766879 128 128 255 0.792915 -0.326914 0.514211
