ply
format ascii 1.0
element vertex 693
property float x
property float y
property float z
property uchar red
property uchar green
property uchar blue
property float nx
property float ny
property float nz
end_header
-0.360419 -0.217659 0.779834 128 128 255 0.265809 0.354431 -0.896506
-0.318850 -0.230428 0.787193 128 128 255 0.273603 0.353354 -0.894585
-0.275544 -0.244367 0.795361 128 128 255 0.291370 0.344094 -0.892582
-0.230854 -0.260898 0.804275 128 128 255 0.316209 0.333663 -0.888077
-0.185097 -0.281064 0.813866 128 128 255 0.345908 0.327658 -0.879197
-0.138555 -0.305451 0.824062 128 128 255 0.379202 0.329397 -0.864698
-0.091474 -0.334122 0.834786 128 128 255 0.415172 0.340549 -0.843599
-0.044064 -0.366608 0.845956 128 128 255 0.452413 0.361894 -0.815080
0.003495 -0.401927 0.857486 128 128 255 0.488221 0.393666 -0.778889
0.051051 -0.438637 0.869289 128 128 255 0.517889 0.435449 -0.736326
0.098476 -0.474933 0.881275 128 128 255 0.534418 0.485800 -0.691661
0.145657 -0.508761 0.893353 128 128 255 0.528951 0.541766 -0.653224
0.192490 -0.537957 0.905432 128 128 255 0.491962 0.598129 -0.632625
0.238876 -0.560389 0.917418 128 128 255 0.415289 0.645934 -0.640550
0.284708 -0.574110 0.929221 128 128 255 0.296615 0.671427 -0.679121
0.329872 -0.577489 0.940751 128 128 255 0.147261 0.660882 -0.735900
0.374233 -0.569329 0.951921 128 128 255 -0.006421 0.613153 -0.789938
0.417636 -0.548955 0.962644 128 128 255 -0.138717 0.543819 -0.827658
0.459897 -0.516272 0.972841 128 128 255 -0.239938 0.471953 -0.848346
0.500805 -0.471779 0.982432 128 128 255 -0.314005 0.408671 -0.856965
0.540113 -0.416551 0.991346 128 128 255 -0.369156 0.357145 -0.858004
0.577545 -0.352180 0.999513 128 128 255 -0.412788 0.316560 -0.854047
0.612794 -0.280683 1.006873 128 128 255 -0.450284 0.284825 -0.846238
0.645525 -0.204381 1.013369 128 128 255 -0.485308 0.259686 -0.834889
0.675381 -0.125762 1.018951 128 128 255 -0.520322 0.238972 -0.819852
0.701986 -0.047333 1.023578 128 128 255 -0.556952 0.220474 -0.800747
0.724957 0.028533 1.027213 128 128 255 -0.596177 0.201612 -0.777127
0.743908 0.099730 1.029830 128 128 255 -0.638307 0.178896 -0.748706
0.758463 0.164547 1.031408 128 128 255 -0.682734 0.147063 -0.715714
0.768263 0.221752 1.031935 128 128 255 -0.705650 0.144746 -0.693619
0.800241 0.228558 0.995948 128 128 255 -0.789577 -0.016636 -0.613426
0.800913 0.280200 0.995454 128 128 255 -0.802583 -0.049650 -0.594471
0.796079 0.322953 0.993975 128 128 255 -0.808010 -0.191004 -0.557349
0.785609 0.357270 0.991522 128 128 255 -0.760528 -0.383920 -0.523644
0.769427 0.384125 0.988114 128 128 255 -0.638307 -0.592528 -0.491401
0.747515 0.404927 0.983777 128 128 255 -0.473135 -0.749438 -0.463127
0.719918 0.421394 0.978544 128 128 255 -0.332869 -0.830329 -0.446936
0.686746 0.435415 0.972455 128 128 255 -0.249722 -0.860423 -0.444198
0.648180 0.448897 0.965557 128 128 255 -0.218069 -0.866139 -0.449722
0.604468 0.463616 0.957900 128 128 255 -0.221580 -0.860509 -0.458723
0.555928 0.481070 0.949545 128 128 255 -0.244865 -0.848293 -0.469511
0.502945 0.502364 0.940554 128 128 255 -0.275480 -0.831083 -0.483128
0.445966 0.528113 0.930996 128 128 255 -0.303852 -0.809727 -0.502013
0.385498 0.558386 0.920944 128 128 255 -0.323053 -0.785067 -0.528494
0.322100 0.592689 0.910474 128 128 255 -0.328532 -0.757932 -0.563566
0.256375 0.629981 0.899666 128 128 255 -0.317787 -0.729041 -0.606227
0.188967 0.668743 0.888602 128 128 255 -0.290074 -0.699091 -0.653551
0.120543 0.707069 0.877366 128 128 255 -0.246077 -0.668949 -0.701394
0.051791 0.742788 0.866044 128 128 255 -0.187420 -0.639734 -0.745395
-0.016594 0.773615 0.854723 128 128 255 -0.115977 -0.612629 -0.781815
-0.083920 0.797301 0.843487 128 128 255 -0.033187 -0.588512 -0.807807
-0.149508 0.811789 0.832423 128 128 255 0.060269 -0.567513 -0.821156
-0.212703 0.815357 0.821615 128 128 255 0.164169 -0.548622 -0.819794
-0.272882 0.806740 0.811145 128 128 255 0.277662 -0.529407 -0.801643
-0.329467 0.785228 0.801093 128 128 255 0.397509 -0.506088 -0.765416
-0.381926 0.750718 0.791535 128 128 255 0.516561 -0.474431 -0.712797
-0.429789 0.703738 0.782544 128 128 255 0.624319 -0.431650 -0.651079
-0.472646 0.645423 0.774189 128 128 255 0.710582 -0.378127 -0.593375
-0.510156 0.577455 0.766532 128 128 255 0.769418 -0.317149 -0.554448
-0.542049 0.501961 0.759633 128 128 255 0.799614 -0.252818 -0.544701
-0.568127 0.421394 0.753544 128 128 255 0.802261 -0.188450 -0.566448
-0.588263 0.338381 0.748312 128 128 255 0.779356 -0.126516 -0.613676
-0.602404 0.255568 0.743975 128 128 255 0.734798 -0.069129 -0.674754
-0.610564 0.175462 0.740567 128 128 255 0.675433 -0.017884 -0.737204
-0.612822 0.100285 0.738114 128 128 255 0.609749 0.026832 -0.792140
-0.609316 0.031846 0.736635 128 128 255 0.545108 0.066129 -0.835754
-0.600241 -0.028558 0.736141 128 128 255 0.486002 0.102226 -0.867959
-0.585836 -0.080200 0.736635 128 128 255 0.434078 0.137798 -0.890274
-0.566383 -0.122953 0.738114 128 128 255 0.389113 0.175346 -0.904348
-0.542197 -0.157270 0.740567 128 128 255 0.350131 0.216465 -0.911346
-0.513618 -0.184125 0.743975 128 128 255 0.316471 0.260711 -0.912072
-0.481004 -0.204927 0.748312 128 128 255 0.288832 0.304358 -0.907713
-0.444726 -0.221394 0.753544 128 128 255 0.269661 0.340684 -0.900676
-0.405158 -0.235415 0.759633 128 128 255 0.261874 0.363491 -0.894034
-0.362675 -0.248897 0.766532 128 128 255 0.266472 0.371675 -0.889297
-0.317644 -0.263616 0.774189 128 128 255 0.281734 0.369933 -0.885311
-0.270423 -0.281070 0.782544 128 128 255 0.304728 0.365268 -0.879614
-0.221357 -0.302364 0.791535 128 128 255 0.332985 0.363543 -0.870033
-0.170774 -0.328113 0.801093 128 128 255 0.364889 0.368409 -0.855062
-0.118987 -0.358386 0.811145 128 128 255 0.399168 0.381790 -0.833607
-0.066290 -0.392689 0.821615 128 128 255 0.434120 0.404562 -0.804904
-0.012963 -0.429981 0.832423 128 128 255 0.466858 0.436895 -0.768874
0.040729 -0.468743 0.843487 128 128 255 0.492728 0.478209 -0.727004
0.094534 -0.507068 0.854723 128 128 255 0.505115 0.526926 -0.683526
0.148209 -0.542788 0.866044 128 128 255 0.495859 0.580122 -0.646206
0.201517 -0.573615 0.877366 128 128 255 0.456266 0.632885 -0.625522
0.254224 -0.597301 0.888602 128 128 255 0.378867 0.676954 -0.631026
0.306096 -0.611789 0.899666 128 128 255 0.261400 0.699654 -0.664947
0.356893 -0.615357 0.910474 128 128 255 0.113807 0.687875 -0.716851
0.406371 -0.606740 0.920944 128 128 255 -0.039816 0.639321 -0.767908
0.454275 -0.585228 0.930996 128 128 255 -0.174427 0.567744 -0.804514
0.500338 -0.550718 0.940554 128 128 255 -0.279124 0.491895 -0.824699
0.544284 -0.503738 0.949545 128 128 255 -0.356607 0.423734 -0.832635
0.585822 -0.445423 0.957900 128 128 255 -0.414647 0.367182 -0.832613
0.624651 -0.377455 0.965557 128 128 255 -0.460623 0.321719 -0.827239
0.660461 -0.301961 0.972455 128 128 255 -0.500012 0.285226 -0.817700
0.692935 -0.221394 0.978544 128 128 255 -0.536550 0.255260 -0.804336
0.721752 -0.138381 0.983777 128 128 255 -0.572693 0.229379 -0.787025
0.746595 -0.055568 0.988114 128 128 255 -0.609977 0.205045 -0.765431
0.767152 0.024538 0.991522 128 128 255 -0.649194 0.179298 -0.739188
0.783126 0.099715 0.993975 128 128 255 -0.690348 0.148219 -0.708132
0.794240 0.168154 0.995454 128 128 255 -0.732347 0.106114 -0.672612
0.800241 0.228558 0.995948 128 128 255 -0.754165 0.097317 -0.649434
0.830886 0.235118 0.956280 128 128 255 -0.820193 -0.076156 -0.566996
0.827472 0.289396 0.955827 128 128 255 -0.829095 -0.115668 -0.547012
0.818436 0.334331 0.954472 128 128 255 -0.820620 -0.264587 -0.506534
0.803762 0.370398 0.952225 128 128 255 -0.758104 -0.453293 -0.468833
0.783484 0.398624 0.949104 128 128 255 -0.630203 -0.643253 -0.434822
0.757685 0.420488 0.945131 128 128 255 -0.472691 -0.780606 -0.408922
0.726501 0.437795 0.940337 128 128 255 -0.342942 -0.851753 -0.396115
0.690119 0.452531 0.934759 128 128 255 -0.266841 -0.879069 -0.395010
0.648780 0.466702 0.928439 128 128 255 -0.239798 -0.884456 -0.400293
0.602775 0.482172 0.921425 128 128 255 -0.247477 -0.878890 -0.407808
0.552447 0.500516 0.913771 128 128 255 -0.275396 -0.866472 -0.416393
0.498188 0.522897 0.905535 128 128 255 -0.311149 -0.848761 -0.427541
0.440432 0.549960 0.896779 128 128 255 -0.344812 -0.826914 -0.444206
0.379655 0.581779 0.887570 128 128 255 -0.369021 -0.802217 -0.469331
0.316370 0.617831 0.877979 128 128 255 -0.378782 -0.775849 -0.504561
0.251119 0.657027 0.868078 128 128 255 -0.371080 -0.748609 -0.549440
0.184470 0.697767 0.857942 128 128 255 -0.344554 -0.720946 -0.601264
0.117008 0.738048 0.847649 128 128 255 -0.299295 -0.693265 -0.655596
0.049331 0.775590 0.837277 128 128 255 -0.236585 -0.666196 -0.707255
-0.017961 0.807990 0.826906 128 128 255 -0.158357 -0.640606 -0.751364
-0.084269 0.832886 0.816613 128 128 255 -0.066492 -0.617265 -0.783940
-0.149004 0.848113 0.806477 128 128 255 0.037638 -0.596332 -0.801855
-0.211597 0.851863 0.796576 128 128 255 0.152942 -0.576823 -0.802424
-0.271499 0.842807 0.786985 128 128 255 0.277449 -0.556278 -0.783311
-0.328194 0.820196 0.777776 128 128 255 0.406482 -0.530938 -0.743558
-0.381200 0.783925 0.769020 128 128 255 0.531433 -0.496911 -0.686045
-0.430077 0.734548 0.760784 128 128 255 0.641211 -0.452224 -0.619953
-0.474432 0.673257 0.753129 128 128 255 0.726529 -0.398189 -0.560000
-0.513919 0.601820 0.746116 128 128 255 0.783303 -0.338481 -0.521409
-0.548244 0.522474 0.739796 128 128 255 0.811820 -0.276833 -0.514114
-0.577170 0.437795 0.734218 128 128 255 0.813685 -0.215751 -0.539785
-0.600513 0.350546 0.729424 128 128 255 0.790603 -0.156864 -0.591896
-0.618144 0.263506 0.725451 128 128 255 0.745901 -0.101706 -0.658246
-0.629990 0.179313 0.722329 128 128 255 0.686089 -0.051686 -0.725680
-0.636033 0.100299 0.720082 128 128 255 0.619716 -0.007321 -0.784792
-0.636304 0.028368 0.718727 128 128 255 0.554402 0.032293 -0.831622
-0.630886 -0.035118 0.718274 128 128 255 0.494815 0.069299 -0.866231
-0.619905 -0.089396 0.718727 128 128 255 0.442593 0.106535 -0.890372
-0.603531 -0.134331 0.720082 128 128 255 0.397312 0.146950 -0.905842
-0.581973 -0.170398 0.722329 128 128 255 0.357625 0.192819 -0.913742
-0.555473 -0.198624 0.725451 128 128 255 0.322426 0.244325 -0.914520
-0.524303 -0.220488 0.729424 128 128 255 0.292127 0.297702 -0.908865
-0.488761 -0.237795 0.734218 128 128 255 0.269419 0.345016 -0.899098
-0.449169 -0.252531 0.739796 128 128 255 0.257983 0.378218 -0.889042
-0.405864 -0.266702 0.746116 128 128 255 0.259562 0.394937 -0.881279
-0.359197 -0.282172 0.753129 128 128 255 0.272696 0.399604 -0.875188
-0.309532 -0.300516 0.760784 128 128 255 0.294298 0.399520 -0.868201
-0.257238 -0.322897 0.769020 128 128 255 0.321556 0.400989 -0.857793
-0.202692 -0.349960 0.777776 128 128 255 0.352488 0.408047 -0.842170
-0.146273 -0.381779 0.786985 128 128 255 0.385488 0.422850 -0.820120
-0.088359 -0.417831 0.796576 128 128 255 0.418586 0.446345 -0.790925
-0.029330 -0.457027 0.806477 128 128 255 0.448754 0.478632 -0.754673
0.030435 -0.497767 0.816613 128 128 255 0.471405 0.519001 -0.713032
0.090559 -0.538048 0.826906 128 128 255 0.480274 0.565803 -0.670227
0.150669 -0.575590 0.837277 128 128 255 0.467809 0.616210 -0.633593
0.210394 -0.607991 0.847649 128 128 255 0.426012 0.665650 -0.612718
0.269364 -0.632886 0.857942 128 128 255 0.347937 0.706498 -0.616280
0.327215 -0.648113 0.868078 128 128 255 0.231235 0.726942 -0.646596
0.383586 -0.651863 0.877979 128 128 255 0.084582 0.714229 -0.694782
0.438116 -0.642807 0.887570 128 128 255 -0.069785 0.664896 -0.743669
0.490454 -0.620196 0.896779 128 128 255 -0.207246 0.590990 -0.779602
0.540250 -0.583925 0.905535 128 128 255 -0.315690 0.510978 -0.799526
0.587161 -0.534548 0.913771 128 128 255 -0.396652 0.437672 -0.806914
0.630854 -0.473257 0.921425 128 128 255 -0.457478 0.375787 -0.805914
0.671003 -0.401820 0.928439 128 128 255 -0.505562 0.325128 -0.799187
0.707295 -0.322474 0.934759 128 128 255 -0.546498 0.283568 -0.787990
0.739431 -0.237795 0.940337 128 128 255 -0.584098 0.248481 -0.772714
0.767130 -0.150546 0.945131 128 128 255 -0.620811 0.217168 -0.753280
0.790132 -0.063506 0.949104 128 128 255 -0.658082 0.186794 -0.729409
0.808201 0.020687 0.952225 128 128 255 -0.696502 0.154066 -0.700820
0.821129 0.099701 0.954472 128 128 255 -0.735762 0.114728 -0.667451
0.828737 0.171632 0.955827 128 128 255 -0.774266 0.062825 -0.629734
0.830886 0.235118 0.956280 128 128 255 -0.794291 0.047708 -0.605662
0.860140 0.241421 0.913173 128 128 255 -0.842406 -0.133699 -0.521993
0.852625 0.298231 0.912769 128 128 255 -0.846726 -0.178504 -0.501189
0.839382 0.345262 0.911561 128 128 255 -0.824664 -0.331312 -0.458434
0.820513 0.383013 0.909559 128 128 255 -0.749444 -0.512814 -0.418755
0.796159 0.412555 0.906776 128 128 255 -0.618464 -0.685041 -0.384995
0.766508 0.435439 0.903235 128 128 255 -0.468665 -0.805874 -0.361830
0.731784 0.453553 0.898963 128 128 255 -0.348573 -0.868785 -0.351723
0.692252 0.468977 0.893991 128 128 255 -0.279266 -0.893501 -0.351661
0.648212 0.483809 0.888358 128 128 255 -0.256934 -0.898313 -0.356397
0.600000 0.500000 0.882107 128 128 255 -0.268898 -0.892449 -0.362255
0.547983 0.519201 0.875285 128 128 255 -0.301498 -0.879396 -0.368457
0.492556 0.542625 0.867944 128 128 255 -0.342399 -0.860677 -0.376828
0.434142 0.570951 0.860140 128 128 255 -0.381396 -0.837781 -0.390717
0.373185 0.604254 0.851932 128 128 255 -0.410802 -0.812519 -0.413588
0.310148 0.641989 0.843383 128 128 255 -0.425319 -0.786555 -0.447700
0.245513 0.683013 0.834559 128 128 255 -0.421543 -0.760934 -0.493235
0.179770 0.725654 0.825525 128 128 255 -0.397521 -0.736011 -0.547964
0.113419 0.767814 0.816351 128 128 255 -0.352589 -0.711769 -0.607508
0.046967 0.807107 0.807107 128 128 255 -0.287340 -0.688250 -0.666144
-0.019082 0.841019 0.797863 128 128 255 -0.203385 -0.665769 -0.717904
-0.084224 0.867075 0.788689 128 128 255 -0.102793 -0.644732 -0.757466
-0.147965 0.883013 0.779655 128 128 255 0.012405 -0.625110 -0.780438
-0.209818 0.886937 0.770830 128 128 255 0.140053 -0.605804 -0.783190
-0.269313 0.877459 0.762281 128 128 255 0.276689 -0.584252 -0.762950
-0.325998 0.853794 0.754074 128 128 255 0.415750 -0.556743 -0.719158
-0.379440 0.815831 0.746270 128 128 255 0.546905 -0.519905 -0.656196
-0.429234 0.764150 0.738929 128 128 255 0.658586 -0.472831 -0.585402
-0.475000 0.700000 0.732107 128 128 255 0.742795 -0.417917 -0.523068
-0.516390 0.625230 0.725855 128 128 255 0.797551 -0.359230 -0.484630
-0.553089 0.542182 0.720223 128 128 255 0.824691 -0.300101 -0.479399
-0.584817 0.453553 0.715251 128 128 255 0.826307 -0.242210 -0.508480
-0.611333 0.362234 0.710978 128 128 255 0.803747 -0.186322 -0.565044
-0.632436 0.271134 0.707437 128 128 255 0.759635 -0.133326 -0.636537
-0.647965 0.183013 0.704655 128 128 255 0.699952 -0.084381 -0.709187
-0.657801 0.100313 0.702652 128 128 255 0.633191 -0.040117 -0.772955
-0.661869 0.025026 0.701444 128 128 255 0.567228 0.000141 -0.823561
-0.660140 -0.041421 0.701041 128 128 255 0.506989 0.038434 -0.861095
-0.652625 -0.098231 0.701444 128 128 255 0.454182 0.077766 -0.887509
-0.639382 -0.145262 0.702652 128 128 255 0.408230 0.121574 -0.904747
-0.620513 -0.183013 0.704655 128 128 255 0.367432 0.172879 -0.913842
-0.596159 -0.212555 0.707437 128 128 255 0.330208 0.232526 -0.914819
-0.566508 -0.235439 0.710978 128 128 255 0.296698 0.296554 -0.907759
-0.531784 -0.253553 0.715251 128 128 255 0.269958 0.355392 -0.894885
-0.492252 -0.268977 0.720223 128 128 255 0.254638 0.398782 -0.880984
-0.448212 -0.283809 0.725855 128 128 255 0.253285 0.423170 -0.869928
-0.400000 -0.300000 0.732107 128 128 255 0.264588 0.433085 -0.861644
-0.347983 -0.319201 0.738929 128 128 255 0.285159 0.436430 -0.853354
-0.292556 -0.342625 0.746270 128 128 255 0.311768 0.440074 -0.842102
-0.234142 -0.370951 0.754074 128 128 255 0.342040 0.448447 -0.825775
-0.173185 -0.404254 0.762281 128 128 255 0.374050 0.463913 -0.803039
-0.110148 -0.441989 0.770830 128 128 255 0.405596 0.487459 -0.773224
-0.045513 -0.483013 0.779655 128 128 255 0.433539 0.519112 -0.736591
0.020230 -0.525654 0.788689 128 128 255 0.453378 0.558070 -0.694986
0.086581 -0.567814 0.797863 128 128 255 0.459185 0.602665 -0.652644
0.153033 -0.607107 0.807107 128 128 255 0.443946 0.650221 -0.616543
0.219082 -0.641019 0.816351 128 128 255 0.400249 0.696521 -0.595532
0.284224 -0.667075 0.825525 128 128 255 0.321541 0.734520 -0.597571
0.347965 -0.683013 0.834559 128 128 255 0.205297 0.753110 -0.625042
0.409818 -0.686938 0.843383 128 128 255 0.059025 0.739724 -0.670317
0.469313 -0.677459 0.851932 128 128 255 -0.096627 0.689729 -0.717591
0.525998 -0.653794 0.860140 128 128 255 -0.237309 0.613525 -0.753174
0.579440 -0.615830 0.867944 128 128 255 -0.349689 0.529275 -0.773037
0.629234 -0.564150 0.875285 128 128 255 -0.434151 0.450654 -0.780015
0.675000 -0.500000 0.882107 128 128 255 -0.497639 0.383215 -0.778140
0.716390 -0.425230 0.888358 128 128 255 -0.547584 0.327133 -0.770153
0.753089 -0.342182 0.893991 128 128 255 -0.589719 0.280294 -0.757408
0.784817 -0.253553 0.898963 128 128 255 -0.627943 0.239909 -0.740359
0.811333 -0.162234 0.903235 128 128 255 -0.664701 0.203043 -0.718989
0.832436 -0.071134 0.906776 128 128 255 -0.701342 0.166589 -0.693085
0.847965 0.016987 0.909559 128 128 255 -0.738265 0.126984 -0.662450
0.857801 0.099687 0.911561 128 128 255 -0.774836 0.079726 -0.627115
0.861869 0.174974 0.912769 128 128 255 -0.808957 0.018767 -0.587568
0.860140 0.241421 0.913173 128 128 255 -0.826594 -0.002288 -0.562795
0.887947 0.247455 0.866904 128 128 255 -0.857481 -0.187992 -0.478942
0.876345 0.306689 0.866557 128 128 255 -0.857017 -0.236886 -0.457609
0.858922 0.355727 0.865517 128 128 255 -0.822357 -0.390608 -0.413708
0.835892 0.395088 0.863793 128 128 255 -0.736946 -0.563264 -0.373690
0.807510 0.425891 0.861398 128 128 255 -0.604916 -0.719376 -0.341429
0.774062 0.449751 0.858349 128 128 255 -0.462557 -0.826428 -0.321027
0.735864 0.468639 0.854671 128 128 255 -0.351136 -0.882438 -0.313059
0.693257 0.484721 0.850390 128 128 255 -0.288126 -0.904781 -0.313617
0.646601 0.500185 0.845541 128 128 255 -0.270351 -0.908858 -0.317628
0.596273 0.517067 0.840159 128 128 255 -0.286510 -0.902419 -0.321794
0.542665 0.537087 0.834286 128 128 255 -0.323672 -0.888379 -0.325607
0.486177 0.561511 0.827966 128 128 255 -0.369570 -0.868204 -0.331118
0.427216 0.591045 0.821247 128 128 255 -0.413757 -0.843720 -0.341968
0.366194 0.625769 0.814181 128 128 255 -0.448298 -0.817297 -0.362015
0.303527 0.665114 0.806822 128 128 255 -0.467723 -0.791182 -0.394039
0.239629 0.707888 0.799224 128 128 255 -0.468404 -0.766819 -0.438848
0.174918 0.752349 0.791447 128 128 255 -0.447908 -0.744652 -0.494845
0.109805 0.796308 0.783549 128 128 255 -0.404770 -0.724400 -0.558037
0.044704 0.837277 0.775590 128 128 255 -0.338624 -0.705539 -0.622534
-0.019976 0.872636 0.767632 128 128 255 -0.250307 -0.687681 -0.681499
-0.083829 0.899804 0.759734 128 128 255 -0.141652 -0.670583 -0.728185
-0.146453 0.916422 0.751956 128 128 255 -0.015168 -0.653707 -0.756596
-0.207449 0.920514 0.744359 128 128 255 0.125774 -0.635568 -0.761731
-0.266424 0.910631 0.736999 128 128 255 0.275738 -0.613335 -0.740128
-0.322991 0.885956 0.729933 128 128 255 0.425671 -0.583381 -0.691715
-0.376768 0.846373 0.723215 128 128 255 0.563180 -0.543125 -0.622771
-0.427383 0.792487 0.716895 128 128 255 0.676432 -0.493086 -0.547089
-0.474473 0.725601 0.711021 128 128 255 0.759197 -0.436925 -0.482406
-0.517688 0.647640 0.705639 128 128 255 0.811883 -0.379076 -0.444013
-0.556690 0.561049 0.700790 128 128 255 0.837916 -0.322403 -0.440400
-0.591160 0.468639 0.696510 128 128 255 0.839864 -0.267754 -0.472162
-0.620800 0.373423 0.692831 128 128 255 0.818706 -0.215007 -0.532441
-0.645334 0.278436 0.689783 128 128 255 0.776231 -0.164328 -0.608656
-0.664515 0.186555 0.687387 128 128 255 0.717640 -0.116518 -0.686598
-0.678126 0.100327 0.685663 128 128 255 0.651137 -0.072252 -0.755513
-0.685984 0.021827 0.684623 128 128 255 0.584792 -0.031092 -0.810587
-0.687947 -0.047455 0.684276 128 128 255 0.523855 0.008874 -0.851762
-0.683913 -0.106689 0.684623 128 128 255 0.470211 0.050811 -0.881090
-0.673826 -0.155727 0.685663 128 128 255 0.423207 0.098677 -0.900644
-0.657681 -0.195088 0.687387 128 128 255 0.380799 0.156310 -0.911350
-0.635521 -0.225891 0.689783 128 128 255 0.340911 0.225227 -0.912717
-0.607444 -0.249751 0.692831 128 128 255 0.303423 0.301019 -0.904059
-0.573604 -0.268639 0.696510 128 128 255 0.271943 0.371940 -0.887529
-0.534207 -0.284721 0.700790 128 128 255 0.252347 0.425172 -0.869223
-0.489517 -0.300185 0.705639 128 128 255 0.248044 0.456230 -0.854592
-0.439851 -0.317067 0.711021 128 128 255 0.257726 0.470206 -0.844087
-0.385581 -0.337087 0.716895 128 128 255 0.277545 0.475871 -0.834575
-0.327127 -0.361511 0.723215 128 128 255 0.303762 0.480740 -0.822568
-0.264955 -0.391045 0.729933 128 128 255 0.333593 0.489616 -0.805600
-0.199577 -0.425769 0.736999 128 128 255 0.364807 0.505027 -0.782217
-0.131538 -0.465114 0.744359 128 128 255 0.394992 0.527978 -0.751811
-0.061418 -0.507888 0.751956 128 128 255 0.420938 0.558433 -0.714818
0.010178 -0.552349 0.759734 128 128 255 0.438252 0.595527 -0.673263
0.082628 -0.596308 0.767632 128 128 255 0.441331 0.637630 -0.631391
0.155296 -0.637277 0.775590 128 128 255 0.423647 0.682258 -0.595858
0.227543 -0.672636 0.783549 128 128 255 0.378288 0.725550 -0.574870
0.298733 -0.699804 0.791447 128 128 255 0.298988 0.760986 -0.575765
0.368242 -0.716422 0.799224 128 128 255 0.182995 0.778041 -0.600969
0.435460 -0.720514 0.806822 128 128 255 0.036725 0.764226 -0.643902
0.499807 -0.710631 0.814181 128 128 255 -0.120582 0.713744 -0.689949
0.560731 -0.685956 0.821247 128 128 255 -0.264746 0.635361 -0.725414
0.617718 -0.646373 0.827966 128 128 255 -0.381201 0.546888 -0.745385
0.670299 -0.592487 0.834286 128 128 255 -0.469167 0.462860 -0.752092
0.718051 -0.525601 0.840159 128 128 255 -0.535187 0.389720 -0.749462
0.760603 -0.447640 0.845541 128 128 255 -0.586751 0.328063 -0.740336
0.797639 -0.361049 0.850390 128 128 255 -0.629753 0.275819 -0.726179
0.828899 -0.268639 0.854671 128 128 255 -0.668188 0.230057 -0.707530
0.854182 -0.173423 0.858349 128 128 255 -0.704512 0.187627 -0.684441
0.873346 -0.078436 0.861398 128 128 255 -0.739979 0.145189 -0.656774
0.886304 0.013445 0.863793 128 128 255 -0.774798 0.098959 -0.624416
0.893030 0.099673 0.865517 128 128 255 -0.808026 0.044290 -0.587480
0.893551 0.178173 0.866557 128 128 255 -0.837087 -0.024811 -0.546507
0.887947 0.247455 0.866904 128 128 255 -0.851864 -0.051275 -0.521247
0.914254 0.253209 0.817788 128 128 255 -0.866737 -0.238263 -0.438175
0.898609 0.314754 0.817502 128 128 255 -0.861523 -0.290151 -0.416643
0.877059 0.365705 0.816648 128 128 255 -0.815644 -0.442575 -0.372629
0.849932 0.406602 0.815232 128 128 255 -0.722388 -0.605763 -0.333476
0.817593 0.438607 0.813265 128 128 255 -0.590747 -0.747640 -0.303402
0.780428 0.463398 0.810761 128 128 255 -0.455351 -0.843257 -0.285611
0.738842 0.483022 0.807739 128 128 255 -0.351610 -0.893499 -0.279338
0.693250 0.499732 0.804224 128 128 255 -0.294300 -0.913707 -0.280226
0.644072 0.515799 0.800241 128 128 255 -0.280789 -0.916963 -0.283435
0.591726 0.533340 0.795821 128 128 255 -0.300933 -0.909759 -0.285969
0.536628 0.554141 0.790997 128 128 255 -0.342439 -0.894469 -0.287508
0.479180 0.579518 0.785806 128 128 255 -0.393088 -0.872489 -0.290249
0.419775 0.610205 0.780288 128 128 255 -0.442204 -0.845953 -0.298025
0.358792 0.646284 0.774484 128 128 255 -0.481649 -0.817807 -0.314970
0.296598 0.687164 0.768439 128 128 255 -0.505887 -0.790926 -0.344259
0.233543 0.731607 0.762199 128 128 255 -0.511221 -0.767264 -0.387244
0.169965 0.777802 0.755811 128 128 255 -0.494918 -0.747532 -0.443003
0.106194 0.823476 0.749324 128 128 255 -0.454789 -0.731395 -0.508162
0.042547 0.866044 0.742788 128 128 255 -0.389351 -0.717916 -0.577064
-0.020663 0.902783 0.736251 128 128 255 -0.298238 -0.705990 -0.642365
-0.083126 0.931011 0.729764 128 128 255 -0.182494 -0.694480 -0.695983
-0.144534 0.948277 0.723376 128 128 255 -0.044713 -0.681941 -0.730040
-0.204575 0.952529 0.717136 128 128 255 0.110449 -0.666060 -0.737675
-0.262933 0.942260 0.711091 128 128 255 0.274995 -0.643447 -0.714390
-0.319287 0.916623 0.705288 128 128 255 0.436574 -0.610594 -0.660740
-0.373306 0.875495 0.699769 128 128 255 0.580346 -0.566126 -0.585406
-0.424651 0.819507 0.694579 128 128 255 0.694572 -0.512472 -0.504918
-0.472978 0.750010 0.689755 128 128 255 0.775391 -0.454724 -0.438172
-0.517932 0.669008 0.685334 128 128 255 0.825859 -0.397594 -0.399846
-0.559157 0.579038 0.681351 128 128 255 0.850991 -0.343396 -0.397358
-0.596295 0.483022 0.677836 128 128 255 0.853831 -0.292140 -0.430845
-0.628990 0.384091 0.674815 128 128 255 0.835033 -0.242836 -0.493711
-0.656893 0.285398 0.672311 128 128 255 0.795490 -0.194861 -0.573782
-0.679672 0.189932 0.670343 128 128 255 0.739344 -0.148512 -0.656746
-0.697012 0.100339 0.668927 128 128 255 0.674173 -0.104382 -0.731160
-0.708624 0.018777 0.668073 128 128 255 0.608064 -0.062222 -0.791446
-0.714253 -0.053209 0.667788 128 128 255 0.546619 -0.020270 -0.837136
-0.713686 -0.114754 0.668073 128 128 255 0.492015 0.024791 -0.870234
-0.706754 -0.165705 0.668927 128 128 255 0.443614 0.077484 -0.892862
-0.693344 -0.206602 0.670343 128 128 255 0.399054 0.142536 -0.905781
-0.673403 -0.238607 0.672311 128 128 255 0.355718 0.222120 -0.907815
-0.646939 -0.263398 0.674815 128 128 255 0.313245 0.311014 -0.897300
-0.614034 -0.283022 0.677836 128 128 255 0.276055 0.394584 -0.876412
-0.574838 -0.299732 0.681351 128 128 255 0.251605 0.457155 -0.853056
-0.529577 -0.315799 0.685334 128 128 255 0.244222 0.493763 -0.834598
-0.478551 -0.333340 0.689755 128 128 255 0.252403 0.510609 -0.821931
-0.422133 -0.354141 0.694579 128 128 255 0.271661 0.517563 -0.811375
-0.360768 -0.379518 0.699769 128 128 255 0.297662 0.522792 -0.798803
-0.294967 -0.410205 0.705288 128 128 255 0.327191 0.531424 -0.781367
-0.225304 -0.446284 0.711091 128 128 255 0.357716 0.546111 -0.757497
-0.152407 -0.487164 0.717136 128 128 255 0.386651 0.567858 -0.726662
-0.076955 -0.531607 0.723376 128 128 255 0.410739 0.596578 -0.689483
0.000339 -0.577802 0.729764 128 128 255 0.425725 0.631389 -0.648156
0.078729 -0.623476 0.736251 128 128 255 0.426323 0.670741 -0.606923
0.157453 -0.666044 0.742788 128 128 255 0.406450 0.712368 -0.572127
0.235740 -0.702783 0.749324 128 128 255 0.359615 0.752763 -0.551384
0.312822 -0.731011 0.755811 128 128 255 0.279769 0.785873 -0.551482
0.387946 -0.748277 0.762199 128 128 255 0.163888 0.801666 -0.574868
0.460384 -0.752529 0.768439 128 128 255 0.017365 0.787660 -0.615866
0.529444 -0.742260 0.774484 128 128 255 -0.141847 0.736909 -0.660942
0.594479 -0.716623 0.780288 128 128 255 -0.289682 0.656540 -0.696448
0.654894 -0.675495 0.785806 128 128 255 -0.410324 0.563935 -0.716667
0.710156 -0.619507 0.790997 128 128 255 -0.501797 0.474474 -0.723238
0.759802 -0.550010 0.795821 128 128 255 -0.570229 0.395548 -0.719987
0.803437 -0.469008 0.800241 128 128 255 -0.623188 0.328226 -0.709862
0.840745 -0.379038 0.804224 128 128 255 -0.666748 0.270520 -0.694454
0.871487 -0.283022 0.807739 128 128 255 -0.705022 0.219380 -0.674401
0.895501 -0.184091 0.810761 128 128 255 -0.740483 0.171463 -0.649835
0.912703 -0.085398 0.813265 128 128 255 -0.774308 0.123234 -0.620694
0.923085 0.010068 0.815232 128 128 255 -0.806526 0.070742 -0.586951
0.926708 0.099661 0.816648 128 128 255 -0.835902 0.009277 -0.548800
0.923701 0.181223 0.817502 128 128 255 -0.859439 -0.066968 -0.506833
0.914254 0.253209 0.817788 128 128 255 -0.871022 -0.098231 -0.481322
0.939010 0.258671 0.766164 128 128 255 -0.871431 -0.284141 -0.399839
0.919396 0.322409 0.765945 128 128 255 -0.861674 -0.338088 -0.378437
0.893801 0.375177 0.765292 128 128 255 -0.806101 -0.487709 -0.335173
0.862669 0.417532 0.764208 128 128 255 -0.707011 -0.641491 -0.297700
0.826470 0.450678 0.762702 128 128 255 -0.576699 -0.771005 -0.270128
0.785689 0.476353 0.760786 128 128 255 -0.447685 -0.857143 -0.254722
0.740818 0.496677 0.758473 128 128 255 -0.350685 -0.902564 -0.249796
0.692346 0.513982 0.755783 128 128 255 -0.298458 -0.920874 -0.250826
0.640751 0.530622 0.752734 128 128 255 -0.288853 -0.923277 -0.253226
0.586491 0.548788 0.749351 128 128 255 -0.312709 -0.915189 -0.254249
0.530003 0.570331 0.745659 128 128 255 -0.358286 -0.898479 -0.253706
0.471693 0.596613 0.741686 128 128 255 -0.413393 -0.874443 -0.253881
0.411939 0.628393 0.737463 128 128 255 -0.467116 -0.845499 -0.258714
0.351088 0.665758 0.733021 128 128 255 -0.511136 -0.815155 -0.272511
0.289454 0.708095 0.728394 128 128 255 -0.539919 -0.786931 -0.298710
0.227325 0.754123 0.723618 128 128 255 -0.549840 -0.763346 -0.339087
0.164965 0.801965 0.718729 128 128 255 -0.538049 -0.745511 -0.393340
0.102614 0.849267 0.713764 128 128 255 -0.501802 -0.733256 -0.458837
0.040498 0.893353 0.708761 128 128 255 -0.438491 -0.725475 -0.530482
-0.021164 0.931401 0.703758 128 128 255 -0.346220 -0.720477 -0.600870
-0.082160 0.960636 0.698794 128 128 255 -0.224613 -0.716112 -0.660857
-0.142274 0.978518 0.693905 128 128 255 -0.075752 -0.709592 -0.700529
-0.201280 0.982921 0.689129 128 128 255 0.094504 -0.697163 -0.710656
-0.258941 0.972286 0.684502 128 128 255 0.274896 -0.674393 -0.685293
-0.314999 0.945735 0.680060 128 128 255 0.448729 -0.637957 -0.625822
-0.369175 0.903141 0.675837 128 128 255 0.598340 -0.588308 -0.543952
-0.421165 0.845157 0.671864 128 128 255 0.712669 -0.530373 -0.459138
-0.470639 0.773183 0.668172 128 128 255 0.790907 -0.470774 -0.390946
-0.517244 0.689293 0.664789 128 128 255 0.838940 -0.414319 -0.352874
-0.560603 0.596116 0.661740 128 128 255 0.863287 -0.362655 -0.351021
-0.600319 0.496677 0.659049 128 128 255 0.867462 -0.314984 -0.385091
-0.635981 0.394219 0.656737 128 128 255 0.851911 -0.269512 -0.449011
-0.667171 0.292007 0.654821 128 128 255 0.816679 -0.224813 -0.531502
-0.693470 0.193138 0.653315 128 128 255 0.764639 -0.180536 -0.618655
-0.714466 0.100352 0.652231 128 128 255 0.702336 -0.136994 -0.698539
-0.729768 0.015881 0.651577 128 128 255 0.637555 -0.094012 -0.764647
-0.739010 -0.058671 0.651359 128 128 255 0.576175 -0.049942 -0.815799
-0.741868 -0.122409 0.651577 128 128 255 0.520755 -0.001313 -0.853705
-0.738062 -0.175177 0.652231 128 128 255 0.470771 0.057012 -0.880411
-0.727374 -0.217532 0.653315 128 128 255 0.423557 0.130743 -0.896385
-0.709653 -0.250678 0.654821 128 128 255 0.375878 0.222678 -0.899517
-0.684822 -0.276353 0.656737 128 128 255 0.327141 0.326251 -0.886870
-0.652890 -0.296677 0.659049 128 128 255 0.282967 0.423019 -0.860805
-0.613951 -0.313982 0.661740 128 128 255 0.252877 0.494235 -0.831736
-0.568194 -0.330622 0.664789 128 128 255 0.242160 0.535166 -0.809294
-0.515901 -0.348788 0.668172 128 128 255 0.248870 0.553730 -0.794636
-0.457446 -0.370331 0.671864 128 128 255 0.267674 0.561046 -0.783312
-0.393298 -0.396613 0.675837 128 128 255 0.293560 0.565877 -0.770458
-0.324011 -0.428393 0.680060 128 128 255 0.322853 0.573605 -0.752823
-0.250221 -0.465758 0.684502 128 128 255 0.352733 0.586963 -0.728734
-0.172637 -0.508095 0.689129 128 128 255 0.380459 0.606948 -0.697757
-0.092030 -0.554123 0.693905 128 128 255 0.402767 0.633449 -0.660698
-0.009225 -0.601965 0.698794 128 128 255 0.415557 0.665604 -0.619906
0.074915 -0.649267 0.703758 128 128 255 0.413862 0.701988 -0.579596
0.159502 -0.693353 0.708761 128 128 255 0.392000 0.740571 -0.545794
0.243636 -0.731401 0.713764 128 128 255 0.343841 0.778176 -0.525561
0.326421 -0.760636 0.718729 128 128 255 0.263492 0.809174 -0.525175
0.406978 -0.778518 0.723618 128 128 255 0.147636 0.823950 -0.547093
0.484463 -0.782921 0.728394 128 128 255 0.000690 0.809991 -0.586442
0.558075 -0.772286 0.733021 128 128 255 -0.160591 0.759228 -0.630701
0.627071 -0.745735 0.737463 128 128 255 -0.312239 0.677124 -0.666341
0.690780 -0.703141 0.741686 128 128 255 -0.437171 0.580540 -0.686917
0.748608 -0.645157 0.745659 128 128 255 -0.532164 0.485678 -0.693483
0.800049 -0.573183 0.749351 128 128 255 -0.602908 0.400931 -0.689751
0.844688 -0.489293 0.752734 128 128 255 -0.657062 0.327906 -0.678784
0.882208 -0.396116 0.755783 128 128 255 -0.700903 0.264735 -0.662307
0.912391 -0.296677 0.758473 128 128 255 -0.738686 0.208275 -0.641065
0.935115 -0.194219 0.760786 128 128 255 -0.772918 0.155017 -0.615279
0.950354 -0.092007 0.762702 128 128 255 -0.804710 0.101259 -0.584969
0.958174 0.006862 0.764208 128 128 255 -0.833934 0.042937 -0.550192
0.958727 0.099648 0.765292 128 128 255 -0.859096 -0.024654 -0.511220
0.952240 0.184119 0.765945 128 128 255 -0.876845 -0.107034 -0.468707
0.939010 0.258671 0.766164 128 128 255 -0.885034 -0.142464 -0.443192
0.962170 0.263830 0.712399 128 128 255 -0.872690 -0.325543 -0.363914
0.938687 0.329642 0.712252 128 128 255 -0.858707 -0.380795 -0.342954
0.909159 0.384126 0.711810 128 128 255 -0.794942 -0.526687 -0.301111
0.874139 0.427858 0.711076 128 128 255 -0.691642 -0.671540 -0.265830
0.834201 0.462082 0.710058 128 128 255 -0.563219 -0.790426 -0.240854
0.789927 0.488591 0.708762 128 128 255 -0.439966 -0.868697 -0.227587
0.741894 0.509576 0.707198 128 128 255 -0.348846 -0.910080 -0.223743
0.690662 0.527444 0.705378 128 128 255 -0.301105 -0.926716 -0.224796
0.636764 0.544626 0.703316 128 128 255 -0.295026 -0.928273 -0.226425
0.580699 0.563382 0.701028 128 128 255 -0.322293 -0.919244 -0.226094
0.522923 0.585626 0.698531 128 128 255 -0.371649 -0.901017 -0.223707
0.463846 0.612762 0.695844 128 128 255 -0.430901 -0.874771 -0.221586
0.403830 0.645576 0.692988 128 128 255 -0.488887 -0.843173 -0.223717
0.343188 0.684156 0.689984 128 128 255 -0.537106 -0.810267 -0.234486
0.282187 0.727870 0.686855 128 128 255 -0.570067 -0.780210 -0.257479
0.221051 0.775394 0.683625 128 128 255 -0.584317 -0.756104 -0.294755
0.159967 0.824792 0.680318 128 128 255 -0.577062 -0.739539 -0.346528
0.099093 0.873632 0.676960 128 128 255 -0.545210 -0.730685 -0.410908
0.038564 0.919152 0.673576 128 128 255 -0.485153 -0.728542 -0.483584
-0.021498 0.958437 0.670193 128 128 255 -0.393280 -0.731096 -0.557521
-0.080973 0.988622 0.666835 128 128 255 -0.267197 -0.735228 -0.622933
-0.139737 1.007086 0.663528 128 128 255 -0.107691 -0.736420 -0.667898
-0.197649 1.011632 0.660298 128 128 255 0.078450 -0.728682 -0.680344
-0.254549 1.000652 0.657169 128 128 255 0.275891 -0.705841 -0.652436
-0.310241 0.973237 0.654165 128 128 255 0.462306 -0.664870 -0.586703
-0.364498 0.929258 0.651309 128 128 255 0.616931 -0.608945 -0.498579
-0.417049 0.869388 0.648622 128 128 255 0.730260 -0.546145 -0.410421
-0.467584 0.795074 0.646125 128 128 255 0.805231 -0.484570 -0.341753
-0.515745 0.708456 0.643836 128 128 255 0.850590 -0.428827 -0.304309
-0.561139 0.612249 0.641775 128 128 255 0.874171 -0.379767 -0.302658
-0.603330 0.509576 0.639955 128 128 255 0.879921 -0.335835 -0.336085
-0.641855 0.403786 0.638391 128 128 255 0.868248 -0.294561 -0.399222
-0.676226 0.298251 0.637095 128 128 255 0.838544 -0.253787 -0.482116
-0.705941 0.196167 0.636076 128 128 255 0.792365 -0.212417 -0.571871
-0.730496 0.100363 0.635343 128 128 255 0.734845 -0.170262 -0.656516
-0.749396 0.013146 0.634901 128 128 255 0.673023 -0.127003 -0.728636
-0.762170 -0.063830 0.634754 128 128 255 0.612827 -0.081001 -0.786055
-0.768383 -0.129642 0.634901 128 128 255 0.557191 -0.028573 -0.829892
-0.767648 -0.184126 0.635343 128 128 255 0.505782 0.036113 -0.861905
-0.759644 -0.227858 0.636076 128 128 255 0.455605 0.119889 -0.882072
-0.744124 -0.262082 0.637095 128 128 255 0.402655 0.226140 -0.886978
-0.720928 -0.288591 0.638391 128 128 255 0.346097 0.346216 -0.871982
-0.689993 -0.309576 0.639955 128 128 255 0.293309 0.456669 -0.839895
-0.651359 -0.327444 0.641775 128 128 255 0.256566 0.535618 -0.804542
-0.605176 -0.344626 0.643836 128 128 255 0.242140 0.579570 -0.778118
-0.551709 -0.363382 0.646125 128 128 255 0.247318 0.598785 -0.761768
-0.491335 -0.385626 0.648622 128 128 255 0.265699 0.605675 -0.750041
-0.424543 -0.412762 0.651309 128 128 255 0.291500 0.609485 -0.737262
-0.351929 -0.445576 0.654165 128 128 255 0.320563 0.615756 -0.719781
-0.274189 -0.484156 0.657169 128 128 255 0.349785 0.627263 -0.695839
-0.192110 -0.527870 0.660298 128 128 255 0.376299 0.645003 -0.665109
-0.106556 -0.575395 0.663528 128 128 255 0.396861 0.668870 -0.628581
-0.018456 -0.624792 0.666835 128 128 255 0.407547 0.698069 -0.588732
0.071212 -0.673633 0.670193 128 128 255 0.403702 0.731329 -0.549711
0.161436 -0.719152 0.673576 128 128 255 0.380013 0.766863 -0.517215
0.251193 -0.758437 0.676960 128 128 255 0.330658 0.801803 -0.497772
0.339462 -0.788622 0.680318 128 128 255 0.249850 0.830892 -0.497185
0.425242 -0.807086 0.683625 128 128 255 0.133963 0.844882 -0.517907
0.507573 -0.811632 0.686855 128 128 255 -0.013511 0.831212 -0.555791
0.585550 -0.800652 0.689984 128 128 255 -0.176967 0.780719 -0.599300
0.658340 -0.773237 0.692988 128 128 255 -0.332537 0.697182 -0.635103
0.725195 -0.729258 0.695844 128 128 255 -0.461859 0.596830 -0.656110
0.785461 -0.669388 0.698531 128 128 255 -0.560404 0.496647 -0.662789
0.838594 -0.595074 0.701028 128 128 255 -0.633387 0.406087 -0.658722
0.884157 -0.508456 0.703316 128 128 255 -0.688565 0.327361 -0.647081
0.921835 -0.412249 0.705378 128 128 255 -0.732449 0.258763 -0.629731
0.951429 -0.309576 0.707198 128 128 255 -0.769456 0.197085 -0.607532
0.972856 -0.203786 0.708762 128 128 255 -0.802149 0.138678 -0.580797
0.986149 -0.098251 0.710058 128 128 255 -0.831596 0.079699 -0.549633
0.991446 0.003833 0.711076 128 128 255 -0.857534 0.016014 -0.514179
0.988985 0.099637 0.711810 128 128 255 -0.878253 -0.057019 -0.474785
0.979092 0.186854 0.712252 128 128 255 -0.890127 -0.144570 -0.432173
0.962170 0.263830 0.712399 128 128 255 -0.894837 -0.183553 -0.406910
0.983689 0.268678 0.656879 128 128 255 -0.871474 -0.362577 -0.330259
0.956466 0.336437 0.656804 128 128 255 -0.853639 -0.418557 -0.310016
0.923144 0.392533 0.656581 128 128 255 -0.783058 -0.560239 -0.270096
0.884379 0.437559 0.656211 128 128 255 -0.676812 -0.696859 -0.237304
0.840848 0.472796 0.655698 128 128 255 -0.550561 -0.806663 -0.214890
0.793226 0.500090 0.655044 128 128 255 -0.432447 -0.878387 -0.203532
0.742170 0.521696 0.654255 128 128 255 -0.346435 -0.916381 -0.200569
0.688312 0.540092 0.653338 128 128 255 -0.302624 -0.931550 -0.201578
0.632236 0.557782 0.652298 128 128 255 -0.299694 -0.932296 -0.202501
0.574480 0.577094 0.651144 128 128 255 -0.330065 -0.922313 -0.200989
0.515519 0.599996 0.649885 128 128 255 -0.382900 -0.902537 -0.197016
0.455765 0.627935 0.648530 128 128 255 -0.445985 -0.874005 -0.192906
0.395565 0.661720 0.647089 128 128 255 -0.507888 -0.839606 -0.192642
0.335199 0.701442 0.645574 128 128 255 -0.559921 -0.803891 -0.200616
0.274886 0.746449 0.643996 128 128 255 -0.596648 -0.771628 -0.220460
0.214789 0.795380 0.642367 128 128 255 -0.614851 -0.746487 -0.254391
0.155022 0.846239 0.640699 128 128 255 -0.611933 -0.730568 -0.302999
0.095658 0.896525 0.639006 128 128 255 -0.584661 -0.724500 -0.365062
0.036746 0.943391 0.637300 128 128 255 -0.528627 -0.727640 -0.437143
-0.021685 0.983839 0.635593 128 128 255 -0.438500 -0.737989 -0.512923
-0.079608 1.014918 0.633900 128 128 255 -0.309373 -0.751677 -0.582468
-0.136987 1.033927 0.632232 128 128 255 -0.139836 -0.762182 -0.632079
-0.193766 1.038608 0.630603 128 128 255 0.062872 -0.760340 -0.646475
-0.249855 1.027303 0.629025 128 128 255 0.278421 -0.737297 -0.615528
-0.305125 0.999077 0.627510 128 128 255 0.477340 -0.690576 -0.543370
-0.359395 0.953797 0.626070 128 128 255 0.635739 -0.627272 -0.449851
-0.412430 0.892155 0.624714 128 128 255 0.746834 -0.559229 -0.359865
-0.463935 0.815641 0.623455 128 128 255 0.817913 -0.495742 -0.291989
-0.513555 0.726461 0.622301 128 128 255 0.860401 -0.440830 -0.255693
-0.560874 0.627407 0.621261 128 128 255 0.883151 -0.394421 -0.253922
-0.605425 0.521696 0.620344 128 128 255 0.890474 -0.354282 -0.285553
-0.646690 0.412775 0.619555 128 128 255 0.882911 -0.317436 -0.345981
-0.684117 0.304118 0.618901 128 128 255 0.859509 -0.281150 -0.426847
-0.717122 0.199012 0.618388 128 128 255 0.820688 -0.243599 -0.516846
-0.745112 0.100374 0.618018 128 128 255 0.769977 -0.203905 -0.604614
-0.767492 0.010576 0.617795 128 128 255 0.713202 -0.161330 -0.682140
-0.783689 -0.068678 0.617721 128 128 255 0.655944 -0.114026 -0.746147
-0.793160 -0.136437 0.617795 128 128 255 0.601356 -0.057955 -0.796877
-0.795416 -0.192533 0.618018 128 128 255 0.549266 0.013569 -0.835537
-0.790034 -0.237559 0.618388 128 128 255 0.496257 0.108733 -0.861340
-0.776675 -0.272796 0.618901 128 128 255 0.437239 0.231505 -0.869038
-0.755098 -0.300090 0.619555 128 128 255 0.371035 0.370146 -0.851660
-0.725169 -0.321696 0.620344 128 128 255 0.307618 0.494661 -0.812824
-0.686877 -0.340092 0.621261 128 128 255 0.262977 0.580200 -0.770851
-0.640335 -0.357782 0.622301 128 128 255 0.244356 0.625843 -0.740682
-0.585789 -0.377094 0.623455 128 128 255 0.247861 0.644775 -0.723070
-0.523618 -0.399996 0.624714 128 128 255 0.265781 0.650630 -0.711366
-0.454331 -0.427935 0.626070 128 128 255 0.291467 0.652955 -0.699068
-0.378564 -0.461720 0.627510 128 128 255 0.320258 0.657347 -0.682151
-0.297071 -0.501442 0.629025 128 128 255 0.348774 0.666593 -0.658795
-0.210713 -0.546449 0.630603 128 128 255 0.374040 0.681703 -0.628789
-0.120444 -0.595380 0.632232 128 128 255 0.392863 0.702618 -0.593285
-0.027294 -0.646239 0.633900 128 128 255 0.401512 0.728647 -0.554852
0.067648 -0.696525 0.635593 128 128 255 0.395636 0.758702 -0.517536
0.163254 -0.743391 0.637300 128 128 255 0.370257 0.791232 -0.486685
0.258379 -0.783839 0.639006 128 128 255 0.319814 0.823654 -0.468309
0.351880 -0.814918 0.640699 128 128 255 0.238588 0.851040 -0.467767
0.442642 -0.833927 0.642367 128 128 255 0.122643 0.864468 -0.487497
0.529593 -0.838608 0.643996 128 128 255 -0.025420 0.851327 -0.524020
0.611727 -0.827303 0.645574 128 128 255 -0.191111 0.801410 -0.566762
0.688124 -0.799077 0.647089 128 128 255 -0.350687 0.716784 -0.602694
0.757961 -0.753797 0.648530 128 128 255 -0.484506 0.612924 -0.624162
0.820529 -0.692155 0.649885 128 128 255 -0.586658 0.507546 -0.631055
0.875245 -0.615641 0.651144 128 128 255 -0.661835 0.411215 -0.626798
0.921654 -0.526461 0.652298 128 128 255 -0.717901 0.326821 -0.614659
0.959440 -0.427407 0.653338 128 128 255 -0.761625 0.252866 -0.596645
0.988424 -0.321696 0.654255 128 128 255 -0.797618 0.186104 -0.573734
1.008563 -0.212775 0.655044 128 128 255 -0.828521 0.122766 -0.546334
1.019944 -0.104118 0.655698 128 128 255 -0.855382 0.058900 -0.514638
1.022777 0.000988 0.656211 128 128 255 -0.877835 -0.009672 -0.478866
1.017384 0.099626 0.656581 128 128 255 -0.893998 -0.087482 -0.439448
1.004186 0.189424 0.656804 128 128 255 -0.900055 -0.179316 -0.397173
0.983689 0.268678 0.656879 128 128 255 -0.901298 -0.221288 -0.372415
1.003525 0.273205 0.600000 128 128 255 -0.868574 -0.395470 -0.298636
0.972720 0.342782 0.600000 128 128 255 -0.847279 -0.451752 -0.279354
0.935768 0.400384 0.600000 128 128 255 -0.771086 -0.589064 -0.241722
0.893428 0.446618 0.600000 128 128 255 -0.662842 -0.718246 -0.211573
0.846473 0.482801 0.600000 128 128 255 -0.538857 -0.820312 -0.191628
0.795667 0.510827 0.600000 128 128 255 -0.425285 -0.886576 -0.181976
0.741747 0.533013 0.600000 128 128 255 -0.343690 -0.921721 -0.179743
0.685408 0.551903 0.600000 128 128 255 -0.303301 -0.935609 -0.180675
0.627289 0.570068 0.600000 128 128 255 -0.303159 -0.935598 -0.180974
0.567961 0.589898 0.600000 128 128 255 -0.336331 -0.924680 -0.178463
0.507918 0.613414 0.600000 128 128 255 -0.392353 -0.903367 -0.173167
0.447574 0.642103 0.600000 128 128 255 -0.458967 -0.872542 -0.167392
0.387260 0.676795 0.600000 128 128 255 -0.524458 -0.835281 -0.165073
0.327224 0.717582 0.600000 128 128 255 -0.579928 -0.796615 -0.170554
0.267641 0.763798 0.600000 128 128 255 -0.619999 -0.761888 -0.187425
0.208611 0.814042 0.600000 128 128 255 -0.641724 -0.735314 -0.217955
0.150178 0.866266 0.600000 128 128 255 -0.642794 -0.719488 -0.262970
0.092337 0.917901 0.600000 128 128 255 -0.620017 -0.715563 -0.321791
0.035048 0.966025 0.600000 128 128 255 -0.568421 -0.723438 -0.391835
-0.021746 1.007559 0.600000 128 128 255 -0.481079 -0.741484 -0.467723
-0.078108 1.039471 0.600000 128 128 255 -0.350255 -0.765435 -0.539843
-0.134088 1.058991 0.600000 128 128 255 -0.171416 -0.786657 -0.593116
-0.189710 1.063798 0.600000 128 128 255 0.048413 -0.791780 -0.608885
-0.244957 1.052189 0.600000 128 128 255 0.282873 -0.768115 -0.574441
-0.299760 1.023205 0.600000 128 128 255 0.493703 -0.714213 -0.496142
-0.353985 0.976710 0.600000 128 128 255 0.654276 -0.642594 -0.398744
-0.407430 0.913414 0.600000 128 128 255 0.761932 -0.569252 -0.308887
-0.459817 0.834847 0.600000 128 128 255 0.828665 -0.504136 -0.243230
-0.510790 0.743273 0.600000 128 128 255 0.868179 -0.450245 -0.208675
-0.559918 0.641561 0.600000 128 128 255 0.889990 -0.406493 -0.206596
-0.606699 0.533013 0.600000 128 128 255 0.898662 -0.370066 -0.235493
-0.650566 0.421169 0.600000 128 128 255 0.894999 -0.337665 -0.291477
-0.690903 0.309596 0.600000 128 128 255 0.878039 -0.306191 -0.367824
-0.727049 0.201669 0.600000 128 128 255 0.847439 -0.273229 -0.455185
-0.758325 0.100384 0.600000 128 128 255 0.805227 -0.237152 -0.543478
-0.784042 0.008176 0.600000 128 128 255 0.755718 -0.196555 -0.624705
-0.803525 -0.073205 0.600000 128 128 255 0.703681 -0.149082 -0.694700
-0.816132 -0.142782 0.600000 128 128 255 0.652160 -0.090089 -0.752710
-0.821273 -0.200384 0.600000 128 128 255 0.600982 -0.011744 -0.799176
-0.818428 -0.246618 0.600000 128 128 255 0.546039 0.095893 -0.832253
-0.807170 -0.282801 0.600000 128 128 255 0.480564 0.237516 -0.844183
-0.787178 -0.310827 0.600000 128 128 255 0.402725 0.396998 -0.824745
-0.758253 -0.333013 0.600000 128 128 255 0.326274 0.535798 -0.778759
-0.720331 -0.351903 0.600000 128 128 255 0.272283 0.626585 -0.730242
-0.673491 -0.370068 0.600000 128 128 255 0.248893 0.672638 -0.696857
-0.617961 -0.389898 0.600000 128 128 255 0.250521 0.690536 -0.678527
-0.554120 -0.413414 0.600000 128 128 255 0.267882 0.694947 -0.667299
-0.482497 -0.442103 0.600000 128 128 255 0.293380 0.695502 -0.655900
-0.403766 -0.476795 0.600000 128 128 255 0.321821 0.697745 -0.639986
-0.318735 -0.517582 0.600000 128 128 255 0.349558 0.704453 -0.617701
-0.228338 -0.563798 0.600000 128 128 255 0.373529 0.716673 -0.588945
-0.133611 -0.614042 0.600000 128 128 255 0.390611 0.734432 -0.555007
-0.035683 -0.666266 0.600000 128 128 255 0.397282 0.757183 -0.518499
0.064251 -0.717901 0.600000 128 128 255 0.389480 0.784033 -0.483320
0.164952 -0.766025 0.600000 128 128 255 0.362530 0.813661 -0.454453
0.265158 -0.807559 0.600000 128 128 255 0.311094 0.843740 -0.437405
0.363613 -0.839471 0.600000 128 128 255 0.229494 0.869634 -0.437114
0.459088 -0.858991 0.600000 128 128 255 0.113481 0.882719 -0.455993
0.550407 -0.863798 0.600000 128 128 255 -0.035197 0.870347 -0.491180
0.636468 -0.852189 0.600000 128 128 255 -0.203147 0.821325 -0.533064
0.716266 -0.823205 0.600000 128 128 255 -0.366794 0.735990 -0.569017
0.788908 -0.776710 0.600000 128 128 255 -0.505222 0.628930 -0.590930
0.853632 -0.713414 0.600000 128 128 255 -0.611060 0.518522 -0.598114
0.909817 -0.634847 0.600000 128 128 255 -0.688422 0.416495 -0.593807
0.956992 -0.543273 0.600000 128 128 255 -0.745274 0.326490 -0.581353
0.994841 -0.441561 0.600000 128 128 255 -0.788675 0.247270 -0.562894
1.023205 -0.333013 0.600000 128 128 255 -0.823459 0.175578 -0.539526
1.042078 -0.221169 0.600000 128 128 255 -0.852375 0.107546 -0.511753
1.051600 -0.109596 0.600000 128 128 255 -0.876475 0.039133 -0.479854
1.052049 -0.001669 0.600000 128 128 255 -0.895323 -0.033857 -0.444128
1.043830 0.099616 0.600000 128 128 255 -0.906916 -0.115821 -0.405078
1.027454 0.191824 0.600000 128 128 255 -0.907325 -0.211150 -0.363560
1.003525 0.273205 0.600000 128 128 255 -0.905187 -0.255611 -0.339559
1.021642 0.277402 0.542170 128 128 255 -0.864624 -0.424503 -0.268744
0.987437 0.348665 0.542244 128 128 255 -0.840249 -0.480792 -0.250640
0.947044 0.407663 0.542467 128 128 255 -0.759467 -0.613795 -0.215558
0.901323 0.455018 0.542837 128 128 255 -0.649919 -0.736352 -0.188122
0.851135 0.492077 0.543350 128 128 255 -0.528161 -0.831844 -0.170531
0.797330 0.520782 0.544004 128 128 255 -0.418574 -0.893542 -0.162415
