ply
format ascii 1.0
element vertex 693
property float x
property float y
property float z
property uchar red
property uchar green
property uchar blue
property float nx
property float ny
property float nz
end_header
-0.779911 -0.017846 -0.494880 128 128 255 0.660487 0.425395 0.618705
-0.749863 -0.070283 -0.489091 128 128 255 0.634056 0.448748 0.629760
-0.716595 -0.124545 -0.482547 128 128 255 0.614013 0.464955 0.637813
-0.680660 -0.180572 -0.475276 128 128 255 0.599243 0.476155 0.643571
-0.642610 -0.238219 -0.467309 128 128 255 0.588629 0.483903 0.647575
-0.602983 -0.297254 -0.458680 128 128 255 0.581117 0.489349 0.650262
-0.562298 -0.357354 -0.449425 128 128 255 0.575742 0.493369 0.652003
-0.521045 -0.418117 -0.439586 128 128 255 0.571608 0.496663 0.653139
-0.479676 -0.479059 -0.429203 128 128 255 0.567866 0.499825 0.653990
-0.438603 -0.539635 -0.418321 128 128 255 0.563679 0.503397 0.654873
-0.398186 -0.599245 -0.406986 128 128 255 0.558165 0.507903 0.656114
-0.358734 -0.657253 -0.395248 128 128 255 0.550341 0.513882 0.658065
-0.320497 -0.713002 -0.383157 128 128 255 0.539025 0.521905 0.661111
-0.283666 -0.765836 -0.370764 128 128 255 0.522712 0.532575 0.665684
-0.248372 -0.815116 -0.358122 128 128 255 0.499404 0.546503 0.672257
-0.214684 -0.860240 -0.345286 128 128 255 0.466385 0.564218 0.681281
-0.182611 -0.900658 -0.332310 128 128 255 0.419986 0.585936 0.693030
-0.152106 -0.935892 -0.319251 128 128 255 0.355495 0.611100 0.707234
-0.123065 -0.965548 -0.306163 128 128 255 0.267645 0.637554 0.722420
-0.095337 -0.989326 -0.293104 128 128 255 0.152543 0.660558 0.735114
-0.068725 -1.007030 -0.280128 128 128 255 0.011726 0.672700 0.739823
-0.042993 -1.018569 -0.267292 128 128 255 -0.143523 0.666659 0.731414
-0.017877 -1.023962 -0.254650 128 128 255 -0.293620 0.640591 0.709528
0.006914 -1.023335 -0.242257 128 128 255 -0.420280 0.600595 0.680184
0.031685 -1.016909 -0.230166 128 128 255 -0.515197 0.556582 0.651758
0.056749 -1.005000 -0.218428 128 128 255 -0.579771 0.516569 0.630097
0.082416 -0.987998 -0.207093 128 128 255 -0.619857 0.484650 0.617164
0.108989 -0.966356 -0.196211 128 128 255 -0.641732 0.461921 0.612217
0.136751 -0.940576 -0.185828 128 128 255 -0.650564 0.447932 0.613288
0.165958 -0.911185 -0.175989 128 128 255 -0.650258 0.441665 0.618140
0.196836 -0.878722 -0.166734 128 128 255 -0.643708 0.442003 0.624718
0.229567 -0.843718 -0.158105 128 128 255 -0.633094 0.447911 0.631322
0.264287 -0.806678 -0.150138 128 128 255 -0.620084 0.458470 0.636633
0.301081 -0.768065 -0.142867 128 128 255 -0.605975 0.472849 0.639694
0.339977 -0.728290 -0.136323 128 128 255 -0.591793 0.490259 0.639866
0.380943 -0.687695 -0.130534 128 128 255 -0.578358 0.509899 0.636793
0.423885 -0.646548 -0.125526 128 128 255 -0.566346 0.530917 0.630381
0.468648 -0.605040 -0.121319 128 128 255 -0.556328 0.552381 0.620786
0.515011 -0.563281 -0.117932 128 128 255 -0.548805 0.573284 0.608407
0.562696 -0.521301 -0.115378 128 128 255 -0.544233 0.592561 0.593870
0.611361 -0.479059 -0.113670 128 128 255 -0.543032 0.609139 0.577985
0.660615 -0.436451 -0.112814 128 128 255 -0.545578 0.621985 0.561675
0.710012 -0.393319 -0.112814 128 128 255 -0.552188 0.630158 0.545883
0.759065 -0.349466 -0.113670 128 128 255 -0.563103 0.632833 0.531449
0.807247 -0.304673 -0.115378 128 128 255 -0.578453 0.629308 0.519002
0.854005 -0.258713 -0.117932 128 128 255 -0.598244 0.618990 0.508876
0.898761 -0.211371 -0.121319 128 128 255 -0.622336 0.601368 0.501053
0.940927 -0.162457 -0.125526 128 128 255 -0.650437 0.575980 0.495156
0.979911 -0.111826 -0.130534 128 128 255 -0.669316 0.561464 0.486594
0.963701 -0.101775 -0.162914 128 128 255 -0.676428 0.519745 0.521834
0.998883 -0.049587 -0.169084 128 128 255 -0.698736 0.497824 0.513750
1.029797 0.004505 -0.175995 128 128 255 -0.735510 0.448442 0.507864
1.055899 0.060415 -0.183618 128 128 255 -0.773508 0.389894 0.499668
1.076681 0.117972 -0.191921 128 128 255 -0.811503 0.321631 0.487869
1.091677 0.176917 -0.200867 128 128 255 -0.847851 0.243116 0.471215
1.100474 0.236901 -0.210420 128 128 255 -0.880368 0.153990 0.448596
1.102719 0.297496 -0.220536 128 128 255 -0.906258 0.054356 0.419215
1.098126 0.358198 -0.231175 128 128 255 -0.922198 -0.054841 0.382811
1.086482 0.418442 -0.242289 128 128 255 -0.924691 -0.171443 0.339931
1.067650 0.477615 -0.253831 128 128 255 -0.910736 -0.291903 0.292152
1.041577 0.535071 -0.265752 128 128 255 -0.878647 -0.411554 0.242080
1.008293 0.590152 -0.278001 128 128 255 -0.828695 -0.525368 0.193010
0.967912 0.642204 -0.290525 128 128 255 -0.763169 -0.628946 0.148326
0.920635 0.690597 -0.303271 128 128 255 -0.685804 -0.719297 0.110835
0.866746 0.734741 -0.316183 128 128 255 -0.600866 -0.795100 0.082317
0.806610 0.774109 -0.329208 128 128 255 -0.512334 -0.856441 0.063426
0.740672 0.808245 -0.342289 128 128 255 -0.423436 -0.904325 0.053837
0.669446 0.836782 -0.355369 128 128 255 -0.336531 -0.940207 0.052514
0.593514 0.859452 -0.368394 128 128 255 -0.253201 -0.965674 0.057983
0.513516 0.876087 -0.381307 128 128 255 -0.174423 -0.982281 0.068566
0.430144 0.886632 -0.394053 128 128 255 -0.100707 -0.991486 0.082543
0.344130 0.891136 -0.406577 128 128 255 -0.032223 -0.994637 0.098285
0.256242 0.889752 -0.418825 128 128 255 0.031128 -0.992954 0.114339
0.167265 0.882730 -0.430746 128 128 255 0.089651 -0.987520 0.129485
0.078001 0.870405 -0.442289 128 128 255 0.143818 -0.979253 0.142759
-0.010750 0.853186 -0.453403 128 128 255 0.194218 -0.968880 0.153462
-0.098198 0.831537 -0.464041 128 128 255 0.241531 -0.956918 0.161155
-0.183569 0.805964 -0.474158 128 128 255 0.286497 -0.943652 0.165651
-0.266122 0.776995 -0.483710 128 128 255 0.329896 -0.929126 0.167013
-0.345156 0.745162 -0.492657 128 128 255 0.372550 -0.913126 0.165553
-0.420015 0.710981 -0.500959 128 128 255 0.415314 -0.895160 0.161869
-0.490103 0.674940 -0.508583 128 128 255 0.459091 -0.874428 0.156877
-0.554887 0.637478 -0.515494 128 128 255 0.504827 -0.849756 0.151869
-0.613904 0.598976 -0.521663 128 128 255 0.553484 -0.819499 0.148583
-0.666766 0.559748 -0.527065 128 128 255 0.605930 -0.781387 0.149276
-0.713165 0.520029 -0.531675 128 128 255 0.662653 -0.732340 0.156746
-0.752875 0.479976 -0.535474 128 128 255 0.723168 -0.668339 0.174214
-0.785753 0.439665 -0.538446 128 128 255 0.784970 -0.584688 0.204849
-0.811740 0.399095 -0.540578 128 128 255 0.842235 -0.477321 0.250607
-0.830861 0.358198 -0.541860 128 128 255 0.885474 -0.345842 0.310368
-0.843218 0.316843 -0.542289 128 128 255 0.904337 -0.197307 0.378476
-0.848991 0.274852 -0.541860 128 128 255 0.893815 -0.046599 0.446008
-0.848433 0.232012 -0.540578 128 128 255 0.858421 0.089756 0.505032
-0.841862 0.188095 -0.538446 128 128 255 0.809163 0.201421 0.551982
-0.829653 0.142871 -0.535474 128 128 255 0.756941 0.286454 0.587353
-0.812237 0.096125 -0.531675 128 128 255 0.708791 0.348274 0.613449
-0.790084 0.047677 -0.527065 128 128 255 0.667860 0.392013 0.632684
-0.763701 -0.002606 -0.521663 128 128 255 0.634798 0.422470 0.646955
-0.733620 -0.054794 -0.515494 128 128 255 0.609017 0.443459 0.657603
-0.700387 -0.108885 -0.508583 128 128 255 0.589443 0.457807 0.665560
-0.664557 -0.164795 -0.500959 128 128 255 0.574891 0.467557 0.671484
-0.626681 -0.222353 -0.492657 128 128 255 0.564223 0.474187 0.675869
-0.587296 -0.281298 -0.483710 128 128 255 0.556396 0.478779 0.679112
-0.546920 -0.341282 -0.474158 128 128 255 0.550465 0.482159 0.681550
-0.506042 -0.401877 -0.464041 128 128 255 0.545560 0.484985 0.683487
-0.465113 -0.462579 -0.453403 128 128 255 0.540854 0.487816 0.685210
-0.424542 -0.522823 -0.442289 128 128 255 0.535524 0.491159 0.687006
-0.384687 -0.581996 -0.430746 128 128 255 0.528695 0.495508 0.689169
-0.345855 -0.639452 -0.418825 128 128 255 0.519374 0.501365 0.692014
-0.308293 -0.694533 -0.406577 128 128 255 0.506354 0.509254 0.695892
-0.272189 -0.746585 -0.394053 128 128 255 0.488084 0.519723 0.701186
-0.237672 -0.794977 -0.381307 128 128 255 0.462501 0.533301 0.708296
-0.204806 -0.839122 -0.368394 128 128 255 0.426813 0.550400 0.717559
-0.173598 -0.878489 -0.355369 128 128 255 0.377307 0.571063 0.729059
-0.143995 -0.912626 -0.342289 128 128 255 0.309348 0.594486 0.742220
-0.115893 -0.941163 -0.329208 128 128 255 0.218072 0.618225 0.755144
-0.089133 -0.963832 -0.316183 128 128 255 0.100583 0.637380 0.763957
-0.063516 -0.980468 -0.303271 128 128 255 -0.039980 0.644904 0.763217
-0.038802 -0.991013 -0.290525 128 128 255 -0.190996 0.634685 0.748796
-0.014721 -0.995517 -0.278001 128 128 255 -0.333233 0.606382 0.721981
0.009021 -0.994133 -0.265752 128 128 255 -0.450479 0.566670 0.689894
0.032735 -0.987111 -0.253831 128 128 255 -0.536499 0.524811 0.660865
0.056736 -0.974786 -0.242289 128 128 255 -0.593613 0.487785 0.640069
0.081341 -0.957566 -0.231175 128 128 255 -0.627675 0.458952 0.628798
0.106856 -0.935918 -0.220536 128 128 255 -0.644632 0.439061 0.625840
0.133569 -0.910345 -0.210420 128 128 255 -0.649327 0.427564 0.628939
0.161742 -0.881376 -0.200867 128 128 255 -0.645442 0.423449 0.635686
0.191602 -0.849543 -0.191921 128 128 255 -0.635751 0.425645 0.643931
0.223338 -0.815362 -0.183618 128 128 255 -0.622371 0.433164 0.651938
0.257091 -0.779320 -0.175995 128 128 255 -0.606948 0.445128 0.658388
0.292948 -0.741858 -0.169084 128 128 255 -0.590772 0.460739 0.662351
0.330941 -0.703357 -0.162914 128 128 255 -0.574864 0.479226 0.663230
0.371044 -0.664129 -0.157513 128 128 255 -0.560042 0.499803 0.660719
0.413165 -0.624410 -0.152903 128 128 255 -0.546974 0.521624 0.654773
0.457152 -0.584356 -0.149104 128 128 255 -0.536221 0.543760 0.645594
0.502790 -0.544045 -0.146132 128 128 255 -0.528268 0.565205 0.633622
0.549801 -0.503476 -0.144000 128 128 255 -0.523543 0.584901 0.619510
0.597848 -0.462579 -0.142717 128 128 255 -0.522428 0.601790 0.604084
0.646541 -0.421224 -0.142289 128 128 255 -0.525253 0.614860 0.588265
0.695438 -0.379232 -0.142717 128 128 255 -0.532276 0.623203 0.572975
0.744052 -0.336393 -0.144000 128 128 255 -0.543668 0.626039 0.559017
0.791862 -0.292476 -0.146132 128 128 255 -0.559494 0.622723 0.546976
0.838312 -0.247252 -0.149104 128 128 255 -0.579697 0.612728 0.537136
0.882827 -0.200506 -0.152903 128 128 255 -0.604097 0.595617 0.529440
0.924821 -0.152058 -0.157513 128 128 255 -0.632383 0.571008 0.523489
0.963701 -0.101775 -0.162914 128 128 255 -0.651531 0.556961 0.515075
0.946567 -0.090859 -0.195012 128 128 255 -0.657783 0.516696 0.548039
0.981712 -0.038955 -0.201556 128 128 255 -0.680245 0.495632 0.540015
1.012662 0.014922 -0.208827 128 128 255 -0.717034 0.448253 0.533789
1.038875 0.070662 -0.216795 128 128 255 -0.755212 0.392118 0.525260
1.059840 0.128066 -0.225424 128 128 255 -0.793702 0.326593 0.513200
1.075091 0.186849 -0.234678 128 128 255 -0.831017 0.250984 0.496405
1.084214 0.246637 -0.244518 128 128 255 -0.865112 0.164686 0.473772
1.086856 0.306977 -0.254901 128 128 255 -0.893262 0.067464 0.444446
1.082726 0.367345 -0.265783 128 128 255 -0.912079 -0.040129 0.408045
1.071612 0.427159 -0.277117 128 128 255 -0.917813 -0.156291 0.364954
1.053374 0.485794 -0.288855 128 128 255 -0.907010 -0.277671 0.316592
1.027955 0.542599 -0.300947 128 128 255 -0.877443 -0.399503 0.265502
0.995384 0.596913 -0.313340 128 128 255 -0.828935 -0.516345 0.215068
0.955771 0.648089 -0.325981 128 128 255 -0.763613 -0.623196 0.168886
0.909314 0.695506 -0.338818 128 128 255 -0.685374 -0.716491 0.130011
0.856294 0.738592 -0.351793 128 128 255 -0.598873 -0.794523 0.100418
0.797072 0.776841 -0.364853 128 128 255 -0.508535 -0.857239 0.080832
0.732088 0.809821 -0.377941 128 128 255 -0.417966 -0.905693 0.070888
0.661853 0.837196 -0.391000 128 128 255 -0.329777 -0.941501 0.069446
0.586944 0.858725 -0.403976 128 128 255 -0.245682 -0.966452 0.074903
0.507998 0.874277 -0.416812 128 128 255 -0.166684 -0.982301 0.085454
0.425701 0.883825 -0.429454 128 128 255 -0.093261 -0.990678 0.099291
0.340782 0.887451 -0.441847 128 128 255 -0.025507 -0.993069 0.114727
0.254002 0.885335 -0.453938 128 128 255 0.036772 -0.990794 0.130288
0.166144 0.877752 -0.465676 128 128 255 0.093980 -0.984995 0.144753
0.078003 0.865058 -0.477010 128 128 255 0.146677 -0.976616 0.157182
-0.009626 0.847677 -0.487892 128 128 255 0.195532 -0.966390 0.166906
-0.095955 0.826083 -0.498275 128 128 255 0.241287 -0.954814 0.173523
-0.180217 0.800785 -0.508115 128 128 255 0.284732 -0.942147 0.176881
-0.261676 0.772308 -0.517370 128 128 255 0.326689 -0.928394 0.177083
-0.339635 0.741173 -0.525999 128 128 255 0.368013 -0.913301 0.174491
-0.413442 0.707884 -0.533966 128 128 255 0.409599 -0.896332 0.169759
-0.482507 0.672907 -0.541237 128 128 255 0.452394 -0.876631 0.163883
-0.546300 0.636656 -0.547781 128 128 255 0.497403 -0.852961 0.158267
-0.604363 0.599484 -0.553569 128 128 255 0.545666 -0.823580 0.154805
-0.656312 0.561671 -0.558578 128 128 255 0.598138 -0.786070 0.155965
-0.701842 0.523421 -0.562785 128 128 255 0.655378 -0.737099 0.164821
-0.740732 0.484856 -0.566172 128 128 255 0.716854 -0.672256 0.184912
-0.772842 0.446020 -0.568725 128 128 255 0.779726 -0.586329 0.219647
-0.798117 0.406882 -0.570434 128 128 255 0.837332 -0.474872 0.270872
-0.816582 0.367345 -0.571290 128 128 255 0.878938 -0.337871 0.336617
-0.828346 0.327254 -0.571290 128 128 255 0.893480 -0.184077 0.409645
-0.833590 0.286411 -0.570434 128 128 255 0.876914 -0.030616 0.479671
-0.832568 0.244592 -0.568725 128 128 255 0.835926 0.105041 0.538696
-0.825601 0.201559 -0.566172 128 128 255 0.783055 0.213466 0.584173
-0.813067 0.157079 -0.562785 128 128 255 0.729316 0.294251 0.617668
-0.795395 0.110944 -0.558578 128 128 255 0.681082 0.351908 0.642096
-0.773059 0.062982 -0.553569 128 128 255 0.640772 0.392050 0.660082
-0.746567 0.013074 -0.547781 128 128 255 0.608529 0.419578 0.673533
-0.716448 -0.038830 -0.541237 128 128 255 0.583475 0.438246 0.683738
-0.683253 -0.092707 -0.533966 128 128 255 0.564398 0.450778 0.691559
-0.647533 -0.148447 -0.525999 128 128 255 0.550064 0.459114 0.697599
-0.609840 -0.205851 -0.517370 128 128 255 0.539328 0.464648 0.702302
-0.570710 -0.264634 -0.508115 128 128 255 0.531166 0.468398 0.706021
-0.530661 -0.324422 -0.498275 128 128 255 0.524657 0.471138 0.709059
-0.490179 -0.384762 -0.487892 128 128 255 0.518959 0.473484 0.711684
-0.449714 -0.445130 -0.477010 128 128 255 0.513270 0.475960 0.714154
-0.409672 -0.504944 -0.465676 128 128 255 0.506781 0.479043 0.716722
-0.370411 -0.563579 -0.453938 128 128 255 0.498624 0.483192 0.719652
-0.332233 -0.620384 -0.441847 128 128 255 0.487799 0.488875 0.723224
-0.295384 -0.674698 -0.429454 128 128 255 0.473076 0.496573 0.727747
-0.260049 -0.725874 -0.416812 128 128 255 0.452861 0.506776 0.733550
-0.226351 -0.773291 -0.403976 128 128 255 0.425034 0.519938 0.740952
-0.194354 -0.816377 -0.391000 128 128 255 0.386744 0.536358 0.750166
-0.164059 -0.854626 -0.377941 128 128 255 0.334255 0.555918 0.761071
-0.135411 -0.887606 -0.364853 128 128 255 0.263049 0.577590 0.772784
-0.108299 -0.914981 -0.351793 128 128 255 0.168711 0.598690 0.783011
-0.082563 -0.936510 -0.338818 128 128 255 0.049350 0.614237 0.787577
-0.057998 -0.952062 -0.325981 128 128 255 -0.090412 0.617612 0.781269
-0.034359 -0.961610 -0.313340 128 128 255 -0.236905 0.603842 0.761086
-0.011373 -0.965236 -0.300947 128 128 255 -0.371463 0.573832 0.729885
0.011261 -0.963120 -0.288855 128 128 255 -0.479825 0.534615 0.695669
0.033856 -0.955537 -0.277117 128 128 255 -0.557521 0.494815 0.666580
0.056734 -0.942843 -0.265783 128 128 255 -0.607592 0.460530 0.647105
0.080216 -0.925462 -0.254901 128 128 255 -0.635851 0.434512 0.637881
0.104613 -0.903868 -0.244518 128 128 255 -0.647955 0.417230 0.637239
0.130217 -0.878570 -0.234678 128 128 255 -0.648475 0.408051 0.642631
0.157296 -0.850093 -0.225424 128 128 255 -0.640914 0.405967 0.651475
0.186081 -0.818958 -0.216795 128 128 255 -0.627958 0.409937 0.661529
0.216766 -0.785670 -0.208827 128 128 255 -0.611688 0.419010 0.671020
0.249494 -0.750692 -0.201556 128 128 255 -0.593741 0.432339 0.678642
0.284360 -0.714441 -0.195012 128 128 255 -0.575406 0.449148 0.683501
0.321400 -0.677269 -0.189224 128 128 255 -0.557707 0.468682 0.685054
0.360589 -0.639456 -0.184216 128 128 255 -0.541458 0.490162 0.683055
0.401842 -0.601206 -0.180009 128 128 255 -0.527315 0.512745 0.677519
0.445009 -0.562641 -0.176621 128 128 255 -0.515823 0.535502 0.668703
0.489879 -0.523805 -0.174068 128 128 255 -0.507446 0.557432 0.657091
0.536177 -0.484668 -0.172360 128 128 255 -0.502581 0.577485 0.643369
0.583570 -0.445130 -0.171504 128 128 255 -0.501567 0.594617 0.628380
0.631669 -0.405039 -0.171504 128 128 255 -0.504677 0.607847 0.613044
0.680037 -0.364196 -0.172360 128 128 255 -0.512108 0.616305 0.598259
0.728188 -0.322377 -0.174068 128 128 255 -0.523961 0.619261 0.584792
0.775601 -0.279344 -0.176621 128 128 255 -0.540233 0.616129 0.573178
0.821725 -0.234865 -0.180009 128 128 255 -0.560809 0.606453 0.563655
0.865986 -0.188730 -0.184216 128 128 255 -0.585469 0.589871 0.556129
0.907796 -0.140767 -0.189224 128 128 255 -0.613888 0.566074 0.550183
0.946567 -0.090859 -0.195012 128 128 255 -0.633265 0.552508 0.541950
0.928525 -0.079127 -0.226795 128 128 255 -0.638720 0.513794 0.572759
0.963631 -0.027542 -0.233706 128 128 255 -0.661294 0.493599 0.564845
0.994620 0.026074 -0.241329 128 128 255 -0.698038 0.448256 0.558398
1.020948 0.081587 -0.249632 128 128 255 -0.736325 0.394561 0.549679
1.042105 0.138774 -0.258579 128 128 255 -0.775218 0.331805 0.537533
1.057624 0.197320 -0.268131 128 128 255 -0.813394 0.259144 0.520802
1.067090 0.256829 -0.278248 128 128 255 -0.848953 0.175743 0.498392
1.070148 0.316824 -0.288886 128 128 255 -0.879259 0.081040 0.469400
1.066506 0.376763 -0.300000 128 128 255 -0.900897 -0.024806 0.433323
1.055949 0.436048 -0.311542 128 128 255 -0.909894 -0.140388 0.390363
1.038335 0.494045 -0.323463 128 128 255 -0.902355 -0.262593 0.341760
1.013605 0.550098 -0.335712 128 128 255 -0.875478 -0.386608 0.289952
0.981784 0.603549 -0.348236 128 128 255 -0.828584 -0.506581 0.238377
0.942979 0.653755 -0.360982 128 128 255 -0.763579 -0.616868 0.190841
0.897386 0.700112 -0.373895 128 128 255 -0.684511 -0.713263 0.150666
0.845279 0.742064 -0.386919 128 128 255 -0.596449 -0.793624 0.120042
0.787019 0.779127 -0.400000 128 128 255 -0.504308 -0.857739 0.099784
0.723039 0.810898 -0.413081 128 128 255 -0.412102 -0.906731 0.089500
0.653847 0.837068 -0.426105 128 128 255 -0.322708 -0.942404 0.087939
0.580016 0.857432 -0.439018 128 128 255 -0.237964 -0.966776 0.093369
0.502177 0.871887 -0.451764 128 128 255 -0.158890 -0.981818 0.103862
0.421012 0.880440 -0.464288 128 128 255 -0.085911 -0.989347 0.117521
0.337245 0.883201 -0.476537 128 128 255 -0.019031 -0.990986 0.132607
0.251633 0.880380 -0.488458 128 128 255 0.042048 -0.988149 0.147627
0.164952 0.872275 -0.500000 128 128 255 0.097834 -0.982033 0.161367
0.077993 0.859261 -0.511114 128 128 255 0.148979 -0.973606 0.172908
-0.008453 0.841774 -0.521752 128 128 255 0.196228 -0.963593 0.181613
-0.093604 0.820297 -0.531869 128 128 255 0.240383 -0.952473 0.187112
-0.176699 0.795340 -0.541421 128 128 255 0.282280 -0.940472 0.189290
-0.257006 0.767422 -0.550368 128 128 255 0.322779 -0.927557 0.188286
-0.333832 0.737056 -0.558671 128 128 255 0.362767 -0.913431 0.184510
-0.406532 0.704725 -0.566294 128 128 255 0.403177 -0.897509 0.178675
-0.474519 0.670873 -0.573205 128 128 255 0.445002 -0.878884 0.171860
-0.537268 0.635891 -0.579375 128 128 255 0.489309 -0.856247 0.165585
-0.594326 0.600099 -0.584776 128 128 255 0.537221 -0.827754 0.161916
-0.645313 0.563746 -0.589386 128 128 255 0.589791 -0.790820 0.163554
-0.689928 0.527002 -0.593185 128 128 255 0.647647 -0.741834 0.173884
-0.727954 0.489956 -0.596157 128 128 255 0.710202 -0.675933 0.196793
-0.759255 0.452618 -0.598289 128 128 255 0.774205 -0.587315 0.235942
-0.783778 0.414929 -0.599572 128 128 255 0.831990 -0.471129 0.292966
-0.801554 0.376763 -0.600000 128 128 255 0.871428 -0.327943 0.364782
-0.812693 0.337943 -0.599572 128 128 255 0.880875 -0.168634 0.442292
-0.817378 0.298256 -0.598289 128 128 255 0.857747 -0.012805 0.513912
-0.815868 0.257462 -0.596157 128 128 255 0.811219 0.121438 0.571993
-0.808483 0.215320 -0.593185 128 128 255 0.755182 0.226009 0.615321
-0.795605 0.171596 -0.589386 128 128 255 0.700443 0.302201 0.646572
-0.777664 0.126087 -0.584776 128 128 255 0.652526 0.355566 0.669165
-0.755135 0.078631 -0.579375 128 128 255 0.613094 0.392100 0.685838
-0.728525 0.029127 -0.573205 128 128 255 0.581810 0.416738 0.698446
-0.698368 -0.022458 -0.566294 128 128 255 0.557549 0.433137 0.708189
-0.665210 -0.076074 -0.558671 128 128 255 0.538990 0.443900 0.715851
-0.629606 -0.131587 -0.550368 128 128 255 0.524870 0.450862 0.721966
-0.592105 -0.188773 -0.541421 128 128 255 0.514053 0.455328 0.726929
-0.553243 -0.247320 -0.531869 128 128 255 0.505538 0.458253 0.731051
-0.513537 -0.306829 -0.521752 128 128 255 0.498436 0.460358 0.734597
-0.473471 -0.366824 -0.511114 128 128 255 0.491934 0.462219 0.737804
-0.433494 -0.426763 -0.500000 128 128 255 0.485252 0.464328 0.740898
-0.394009 -0.486048 -0.488458 128 128 255 0.477600 0.467127 0.744103
-0.355372 -0.544045 -0.476537 128 128 255 0.468116 0.471048 0.747650
-0.317883 -0.600098 -0.464288 128 128 255 0.455793 0.476520 0.751786
-0.281784 -0.653549 -0.451764 128 128 255 0.439377 0.483986 0.756773
-0.247257 -0.703755 -0.439018 128 128 255 0.417239 0.493883 0.762883
-0.214423 -0.750112 -0.426105 128 128 255 0.387208 0.506590 0.770348
-0.183340 -0.792064 -0.413081 128 128 255 0.346383 0.522300 0.779244
-0.154006 -0.829127 -0.400000 128 128 255 0.291024 0.540745 0.789240
-0.126363 -0.860898 -0.386919 128 128 255 0.216758 0.560700 0.799144
-0.100294 -0.887068 -0.373895 128 128 255 0.119645 0.579277 0.806303
-0.075635 -0.907432 -0.360982 128 128 255 -0.001211 0.591466 0.806329
-0.052177 -0.921887 -0.348236 128 128 255 -0.139821 0.591105 0.794384
-0.029670 -0.930440 -0.335712 128 128 255 -0.281687 0.574269 0.768679
-0.007836 -0.933201 -0.323463 128 128 255 -0.408837 0.542908 0.733555
0.013631 -0.930380 -0.311542 128 128 255 -0.508814 0.504268 0.697726
0.035048 -0.922275 -0.300000 128 128 255 -0.578668 0.466381 0.669053
0.056744 -0.909261 -0.288886 128 128 255 -0.622021 0.434593 0.651321
0.079043 -0.891774 -0.278248 128 128 255 -0.644627 0.411150 0.644524
0.102263 -0.870297 -0.268131 128 128 255 -0.651885 0.396283 0.646533
0.126699 -0.845340 -0.258579 128 128 255 -0.648142 0.389283 0.654500
0.152625 -0.817423 -0.249632 128 128 255 -0.636770 0.389136 0.665655
0.180279 -0.787056 -0.241329 128 128 255 -0.620394 0.394823 0.677663
0.209855 -0.754725 -0.233706 128 128 255 -0.601084 0.405415 0.688721
0.241506 -0.720873 -0.226795 128 128 255 -0.580484 0.420087 0.697542
0.275329 -0.685891 -0.220625 128 128 255 -0.559894 0.438076 0.703284
0.311363 -0.650099 -0.215224 128 128 255 -0.540336 0.458639 0.705470
0.349590 -0.613746 -0.210614 128 128 255 -0.522619 0.480997 0.703926
0.389928 -0.577002 -0.206815 128 128 255 -0.507387 0.504309 0.698735
0.432231 -0.539956 -0.203843 128 128 255 -0.495163 0.527646 0.690219
0.476292 -0.502618 -0.201711 128 128 255 -0.486381 0.550009 0.678914
0.521838 -0.464929 -0.200428 128 128 255 -0.481399 0.570359 0.665542
0.568542 -0.426763 -0.200000 128 128 255 -0.480508 0.587673 0.650963
0.616016 -0.387943 -0.200428 128 128 255 -0.483920 0.601002 0.636096
0.663825 -0.348256 -0.201711 128 128 255 -0.491762 0.609522 0.621814
0.711487 -0.307462 -0.203843 128 128 255 -0.504065 0.612558 0.608844
0.758483 -0.265320 -0.206815 128 128 255 -0.520757 0.609589 0.597674
0.804263 -0.221596 -0.210614 128 128 255 -0.541669 0.600227 0.588491
0.848255 -0.176087 -0.215224 128 128 255 -0.566542 0.584185 0.581169
0.889872 -0.128631 -0.220625 128 128 255 -0.595044 0.561229 0.575278
0.928525 -0.079127 -0.226795 128 128 255 -0.614609 0.548154 0.567259
0.909597 -0.066627 -0.258227 128 128 255 -0.619317 0.511070 0.596032
0.944661 -0.015402 -0.265499 128 128 255 -0.641962 0.491753 0.588271
0.975689 0.037905 -0.273466 128 128 255 -0.678595 0.448469 0.581708
1.002137 0.093134 -0.282095 128 128 255 -0.716911 0.397231 0.572928
1.023495 0.150034 -0.291349 128 128 255 -0.756112 0.337262 0.560847
1.039295 0.208268 -0.301189 128 128 255 -0.795028 0.267587 0.544360
1.049120 0.267413 -0.311572 128 128 255 -0.831915 0.187151 0.522391
1.052613 0.326973 -0.322454 128 128 255 -0.864252 0.095079 0.493993
1.049483 0.386386 -0.333789 128 128 255 -0.888625 -0.008868 0.458549
1.039510 0.445043 -0.345526 128 128 255 -0.900877 -0.123699 0.416075
1.022550 0.502302 -0.357618 128 128 255 -0.896694 -0.246607 0.367594
0.998542 0.557504 -0.370011 128 128 255 -0.872673 -0.372775 0.315404
0.967507 0.609994 -0.382653 128 128 255 -0.827570 -0.495966 0.262956
0.929550 0.659142 -0.395489 128 128 255 -0.763010 -0.609848 0.214246
0.884862 0.704354 -0.408464 128 128 255 -0.683170 -0.709500 0.172881
0.833714 0.745098 -0.421524 128 128 255 -0.593560 -0.792290 0.141288
0.776462 0.780913 -0.434612 128 128 255 -0.499629 -0.857832 0.120394
0.713536 0.811424 -0.447671 128 128 255 -0.405834 -0.907329 0.109787
0.645438 0.836355 -0.460647 128 128 255 -0.315329 -0.942804 0.108111
0.572737 0.855528 -0.473483 128 128 255 -0.230068 -0.966534 0.113498
0.496059 0.868877 -0.486125 128 128 255 -0.151072 -0.980727 0.123905
0.416082 0.876439 -0.498518 128 128 255 -0.078697 -0.987392 0.137347
0.333524 0.878355 -0.510609 128 128 255 -0.012840 -0.988291 0.152038
0.249136 0.874859 -0.522347 128 128 255 0.046911 -0.984930 0.166470
0.163690 0.866273 -0.533681 128 128 255 0.101171 -0.978553 0.179440
0.077972 0.852988 -0.544563 128 128 255 0.150683 -0.970142 0.190052
-0.007233 0.835453 -0.554946 128 128 255 0.196267 -0.960414 0.197699
-0.091149 0.814155 -0.564786 128 128 255 0.238780 -0.949823 0.202042
-0.173019 0.789604 -0.574041 128 128 255 0.279102 -0.938559 0.203000
-0.252117 0.762313 -0.582670 128 128 255 0.318126 -0.926551 0.200748
-0.327754 0.732779 -0.590637 128 128 255 0.356773 -0.913455 0.195739
-0.399292 0.701470 -0.597908 128 128 255 0.396008 -0.898639 0.188746
-0.466148 0.668804 -0.604452 128 128 255 0.436874 -0.881138 0.180933
-0.527802 0.635143 -0.610241 128 128 255 0.480503 -0.859569 0.173951
-0.583804 0.600779 -0.615249 128 128 255 0.528108 -0.831977 0.170046
-0.633781 0.565927 -0.619456 128 128 255 0.580846 -0.795595 0.172183
-0.677436 0.530721 -0.622843 128 128 255 0.639425 -0.746489 0.184090
-0.714555 0.495219 -0.625396 128 128 255 0.703178 -0.679279 0.210047
-0.745006 0.459399 -0.627105 128 128 255 0.768357 -0.587480 0.253958
-0.768741 0.423172 -0.627961 128 128 255 0.826099 -0.465831 0.317116
-0.785793 0.386386 -0.627961 128 128 255 0.862716 -0.315758 0.394990
-0.796274 0.348844 -0.627105 128 128 255 0.866235 -0.150782 0.476341
-0.800374 0.310316 -0.625396 128 128 255 0.836131 0.006856 0.548487
-0.798350 0.270553 -0.622843 128 128 255 0.784296 0.138860 0.604646
-0.790527 0.229307 -0.619456 128 128 255 0.725668 0.238959 0.645217
-0.777286 0.186349 -0.615249 128 128 255 0.670485 0.310250 0.673939
-0.759062 0.141480 -0.610241 128 128 255 0.623284 0.359229 0.694602
-0.736330 0.094553 -0.604452 128 128 255 0.584967 0.392168 0.709943
-0.709597 0.045482 -0.597908 128 128 255 0.554764 0.413968 0.721712
-0.679398 -0.005742 -0.590637 128 128 255 0.531346 0.428157 0.730994
-0.646279 -0.059049 -0.582670 128 128 255 0.513319 0.437205 0.738482
-0.610795 -0.114278 -0.574041 128 128 255 0.499407 0.442833 0.744642
-0.573495 -0.171179 -0.564786 128 128 255 0.488495 0.446264 0.749814
-0.534914 -0.229413 -0.554946 128 128 255 0.479614 0.448383 0.754270
-0.495567 -0.288558 -0.544563 128 128 255 0.471909 0.449864 0.758238
-0.455937 -0.348117 -0.533681 128 128 255 0.464596 0.451243 0.761925
-0.416470 -0.407530 -0.522347 128 128 255 0.456921 0.452978 0.765529
-0.377570 -0.466187 -0.510609 128 128 255 0.448111 0.455482 0.769242
-0.339587 -0.523446 -0.498518 128 128 255 0.437308 0.459156 0.773265
-0.302820 -0.578648 -0.486125 128 128 255 0.423499 0.464397 0.777808
-0.267507 -0.631139 -0.473483 128 128 255 0.405410 0.471608 0.783089
-0.233828 -0.680286 -0.460647 128 128 255 0.381376 0.481176 0.789318
-0.201899 -0.725499 -0.447671 128 128 255 0.349178 0.493411 0.796631
-0.171775 -0.766243 -0.434612 128 128 255 0.305875 0.508407 0.804961
-0.143450 -0.802057 -0.421524 128 128 255 0.247734 0.525759 0.813760
-0.116859 -0.832569 -0.408464 128 128 255 0.170540 0.544057 0.821534
-0.091885 -0.857499 -0.395489 128 128 255 0.070841 0.560244 0.825293
-0.068356 -0.876673 -0.382653 128 128 255 -0.051278 0.569312 0.820521
-0.046059 -0.890022 -0.370011 128 128 255 -0.188561 0.565553 0.802866
-0.024740 -0.897584 -0.357618 128 128 255 -0.325836 0.546002 0.771824
-0.004114 -0.899499 -0.345526 128 128 255 -0.445889 0.513499 0.733145
0.016128 -0.896004 -0.333789 128 128 255 -0.537933 0.475423 0.696133
0.036310 -0.887417 -0.322454 128 128 255 -0.600340 0.439272 0.668305
0.056765 -0.874132 -0.311572 128 128 255 -0.637215 0.409751 0.652734
0.077824 -0.856597 -0.301189 128 128 255 -0.654246 0.388673 0.648764
0.099807 -0.835299 -0.291349 128 128 255 -0.656609 0.376065 0.653788
0.123019 -0.810749 -0.282095 128 128 255 -0.648470 0.371139 0.664637
0.147736 -0.783457 -0.273466 128 128 255 -0.633104 0.372869 0.678342
0.174201 -0.753924 -0.265499 128 128 255 -0.613115 0.380241 0.692464
0.202615 -0.722614 -0.258227 128 128 255 -0.590588 0.392341 0.705177
0.233135 -0.689948 -0.251684 128 128 255 -0.567189 0.408352 0.715225
0.265862 -0.656288 -0.245895 128 128 255 -0.544231 0.427520 0.721830
0.300841 -0.621923 -0.240887 128 128 255 -0.522743 0.449104 0.724600
0.338058 -0.587071 -0.236680 128 128 255 -0.503523 0.472328 0.723444
0.377436 -0.551866 -0.233292 128 128 255 -0.487196 0.496344 0.718528
0.418832 -0.516364 -0.230739 128 128 255 -0.474256 0.520225 0.710245
0.462043 -0.480544 -0.229031 128 128 255 -0.465099 0.542973 0.699188
0.506801 -0.444316 -0.228175 128 128 255 -0.460036 0.563565 0.686121
0.552780 -0.407530 -0.228175 128 128 255 -0.459300 0.581003 0.671922
0.599598 -0.369989 -0.229031 128 128 255 -0.463037 0.594375 0.657506
0.646820 -0.331460 -0.230739 128 128 255 -0.471301 0.602908 0.643721
0.693969 -0.291697 -0.233292 128 128 255 -0.484048 0.605987 0.631251
0.740526 -0.250452 -0.236680 128 128 255 -0.501139 0.603158 0.620532
0.785945 -0.207493 -0.240887 128 128 255 -0.522351 0.594105 0.611709
0.829653 -0.162624 -0.245895 128 128 255 -0.547394 0.578614 0.604620
0.871067 -0.115697 -0.251684 128 128 255 -0.575930 0.556518 0.598826
0.909597 -0.066627 -0.258227 128 128 255 -0.595647 0.543941 0.591044
0.889802 -0.053413 -0.289276 128 128 255 -0.599644 0.508556 0.617898
0.924821 -0.002589 -0.296900 128 128 255 -0.622320 0.490121 0.610327
0.955889 0.050358 -0.305202 128 128 255 -0.658775 0.448907 0.603737
0.982463 0.105242 -0.314149 128 128 255 -0.697036 0.400136 0.595006
1.004030 0.161787 -0.323701 128 128 255 -0.736439 0.342967 0.583121
1.020123 0.219629 -0.333818 128 128 255 -0.775967 0.276306 0.567037
1.030323 0.278325 -0.344456 128 128 255 -0.814033 0.198900 0.545701
1.034271 0.337356 -0.355570 128 128 255 -0.848249 0.109576 0.518138
1.031675 0.396146 -0.367112 128 128 255 -0.875243 0.007694 0.483622
1.022312 0.454076 -0.379034 128 128 255 -0.890714 -0.106197 0.441984
1.006036 0.510496 -0.391282 128 128 255 -0.889952 -0.229647 0.394014
0.982783 0.564748 -0.403806 128 128 255 -0.868944 -0.357909 0.341814
0.952570 0.616185 -0.416552 128 128 255 -0.825814 -0.484379 0.288805
0.915499 0.664184 -0.429465 128 128 255 -0.761839 -0.602007 0.239144
0.871756 0.708173 -0.442490 128 128 255 -0.681297 -0.705076 0.196729
0.821611 0.747638 -0.455570 128 128 255 -0.590165 -0.790397 0.164250
0.765413 0.782145 -0.468651 128 128 255 -0.494470 -0.857389 0.142769
0.703588 0.811351 -0.481675 128 128 255 -0.399150 -0.907354 0.131862
0.636634 0.835007 -0.494588 128 128 255 -0.307646 -0.942568 0.130075
0.565115 0.852972 -0.507334 128 128 255 -0.222017 -0.965595 0.135405
0.489651 0.865210 -0.519858 128 128 255 -0.143267 -0.978901 0.145696
0.410916 0.871789 -0.532107 128 128 255 -0.071662 -0.984694 0.158879
0.329621 0.872880 -0.544028 128 128 255 -0.006980 -0.984874 0.173129
0.246514 0.868742 -0.555570 128 128 255 0.051313 -0.981033 0.186928
0.162360 0.859716 -0.566684 128 128 255 0.103942 -0.974454 0.199086
0.077940 0.846212 -0.577323 128 128 255 0.151743 -0.966129 0.208731
-0.005968 0.828685 -0.587439 128 128 255 0.195603 -0.956761 0.215285
-0.088592 0.807629 -0.596992 128 128 255 0.236435 -0.946775 0.218439
-0.169180 0.783549 -0.605938 128 128 255 0.275155 -0.936325 0.218142
-0.247013 0.756950 -0.614241 128 128 255 0.312690 -0.925295 0.214601
-0.321407 0.728313 -0.621864 128 128 255 0.349987 -0.913299 0.208311
-0.391730 0.698085 -0.628775 128 128 255 0.388049 -0.899653 0.200106
-0.457402 0.666660 -0.634945 128 128 255 0.427964 -0.883331 0.191242
-0.517910 0.634372 -0.640346 128 128 255 0.470938 -0.862870 0.183502
-0.572809 0.601478 -0.644956 128 128 255 0.518278 -0.836197 0.179339
-0.621729 0.568162 -0.648755 128 128 255 0.571260 -0.800336 0.182004
-0.664379 0.534525 -0.651727 128 128 255 0.630673 -0.750990 0.195615
-0.700549 0.500588 -0.653859 128 128 255 0.695748 -0.682175 0.224882
-0.730111 0.466302 -0.655142 128 128 255 0.762124 -0.586618 0.273945
-0.753021 0.431546 -0.655570 128 128 255 0.819511 -0.458662 0.343556
-0.769315 0.396146 -0.655142 128 128 255 0.852529 -0.300975 0.427328
-0.779109 0.359886 -0.653859 128 128 255 0.849259 -0.130332 0.511637
-0.782594 0.322519 -0.651727 128 128 255 0.811917 0.028347 0.583084
-0.780032 0.283789 -0.648755 128 128 255 0.755210 0.157197 0.636354
-0.771750 0.243447 -0.644956 128 128 255 0.694674 0.252220 0.673656
-0.758131 0.201264 -0.640346 128 128 255 0.639629 0.318348 0.699664
-0.739610 0.157052 -0.634945 128 128 255 0.593519 0.362885 0.718366
-0.716664 0.110677 -0.628775 128 128 255 0.556525 0.392263 0.732400
-0.689802 0.062072 -0.621864 128 128 255 0.527503 0.411287 0.743360
-0.659558 0.011248 -0.614241 128 128 255 0.504965 0.423329 0.752199
-0.626480 -0.041699 -0.605938 128 128 255 0.487472 0.430716 0.759509
-0.591121 -0.096583 -0.596992 128 128 255 0.473758 0.435057 0.765689
-0.554030 -0.153129 -0.587439 128 128 255 0.462737 0.437484 0.771027
-0.515742 -0.210971 -0.577323 128 128 255 0.453480 0.438822 0.775752
-0.476769 -0.269666 -0.566684 128 128 255 0.445165 0.439694 0.780063
-0.437595 -0.328697 -0.555570 128 128 255 0.437041 0.440599 0.784135
-0.398662 -0.387488 -0.544028 128 128 255 0.428378 0.441961 0.788139
-0.360372 -0.445417 -0.532107 128 128 255 0.418419 0.444167 0.792239
-0.323073 -0.501837 -0.519858 128 128 255 0.406311 0.447586 0.796604
-0.287060 -0.556090 -0.507334 128 128 255 0.391034 0.452587 0.801410
-0.252570 -0.607526 -0.494588 128 128 255 0.371293 0.459535 0.806827
-0.219776 -0.655526 -0.481675 128 128 255 0.345387 0.468769 0.812997
-0.188793 -0.699514 -0.468651 128 128 255 0.311053 0.480536 0.819958
-0.159671 -0.738979 -0.455570 128 128 255 0.265308 0.494839 0.827494
-0.132400 -0.773487 -0.442490 128 128 255 0.204430 0.511140 0.834832
-0.106911 -0.802692 -0.429465 128 128 255 0.124369 0.527866 0.840172
-0.083081 -0.826349 -0.416552 128 128 255 0.022163 0.541800 0.840215
-0.060734 -0.844314 -0.403806 128 128 255 -0.101136 0.547947 0.830377
-0.039651 -0.856551 -0.391282 128 128 255 -0.237070 0.541040 0.806891
-0.019574 -0.863131 -0.379034 128 128 255 -0.369892 0.518995 0.770600
-0.000212 -0.864221 -0.367112 128 128 255 -0.483165 0.485433 0.728633
0.018749 -0.860083 -0.355570 128 128 255 -0.567660 0.447837 0.690800
0.037640 -0.851058 -0.344456 128 128 255 -0.622932 0.413232 0.664225
0.056797 -0.837553 -0.333818 128 128 255 -0.653497 0.385765 0.651251
0.076558 -0.820027 -0.323701 128 128 255 -0.664970 0.366879 0.650549
0.097250 -0.798971 -0.314149 128 128 255 -0.662332 0.356410 0.659006
0.119180 -0.774891 -0.305202 128 128 255 -0.649605 0.353491 0.673095
0.142632 -0.748291 -0.296900 128 128 255 -0.630016 0.357071 0.689624
0.167854 -0.719654 -0.289276 128 128 255 -0.606179 0.366127 0.706044
0.195053 -0.689426 -0.282365 128 128 255 -0.580222 0.379746 0.720510
0.224389 -0.658002 -0.276196 128 128 255 -0.553851 0.397113 0.731813
0.255970 -0.625713 -0.270794 128 128 255 -0.528403 0.417474 0.739260
0.289846 -0.592820 -0.266184 128 128 255 -0.504909 0.440087 0.742557
0.326006 -0.559504 -0.262385 128 128 255 -0.484153 0.464170 0.741715
0.364379 -0.525866 -0.259413 128 128 255 -0.466732 0.488873 0.736997
0.404826 -0.491930 -0.257281 128 128 255 -0.453102 0.513266 0.728874
0.447148 -0.457643 -0.255998 128 128 255 -0.443611 0.536358 0.718003
0.491081 -0.422887 -0.255570 128 128 255 -0.438515 0.557141 0.705194
0.536302 -0.387488 -0.255998 128 128 255 -0.437978 0.574648 0.691343
0.582432 -0.351227 -0.257281 128 128 255 -0.442074 0.588010 0.677359
0.629041 -0.313861 -0.259413 128 128 255 -0.450777 0.596509 0.664061
0.675652 -0.275131 -0.262385 128 128 255 -0.463967 0.599596 0.652088
0.721750 -0.234789 -0.266184 128 128 255 -0.481440 0.596886 0.641827
0.766789 -0.192606 -0.270794 128 128 255 -0.502921 0.588137 0.633376
0.810201 -0.148394 -0.276196 128 128 255 -0.528092 0.573204 0.626542
0.851401 -0.102018 -0.282365 128 128 255 -0.556614 0.551985 0.620881
0.889802 -0.053413 -0.289276 128 128 255 -0.576448 0.539908 0.613357
0.869161 -0.039543 -0.319908 128 128 255 -0.579762 0.506282 0.638400
0.904133 0.010838 -0.327876 128 128 255 -0.602431 0.488728 0.631048
0.935243 0.063372 -0.336505 128 128 255 -0.638641 0.449589 0.624506
0.961946 0.117848 -0.345759 128 128 255 -0.676764 0.403285 0.615915
0.983731 0.173966 -0.355599 128 128 255 -0.716261 0.348921 0.604337
1.000128 0.231337 -0.365982 128 128 255 -0.756263 0.285299 0.588787
1.010718 0.289494 -0.376864 128 128 255 -0.795347 0.210983 0.568250
1.015141 0.347903 -0.388198 128 128 255 -0.831273 0.124524 0.541737
1.013101 0.405974 -0.399936 128 128 255 -0.860744 0.024886 0.508430
1.004373 0.463076 -0.412028 128 128 255 -0.879364 -0.087853 0.467976
0.988810 0.518558 -0.424421 128 128 255 -0.882062 -0.211653 0.420916
0.966343 0.571763 -0.437062 128 128 255 -0.864206 -0.341907 0.369117
0.936987 0.622053 -0.449899 128 128 255 -0.823233 -0.471691 0.315904
0.900839 0.668818 -0.462874 128 128 255 -0.759993 -0.593200 0.265562
0.858083 0.711505 -0.475934 128 128 255 -0.678833 -0.699843 0.222274
0.808982 0.749624 -0.489022 128 128 255 -0.586215 -0.787797 0.189016
0.753883 0.782769 -0.502081 128 128 255 -0.488801 -0.856260 0.167011
0.693206 0.810625 -0.515057 128 128 255 -0.392039 -0.906653 0.155836
0.627445 0.832979 -0.527893 128 128 255 -0.299665 -0.941543 0.153941
0.557157 0.849720 -0.540535 128 128 255 -0.213836 -0.963810 0.159200
0.482960 0.860844 -0.552928 128 128 255 -0.135512 -0.976197 0.169342
0.405519 0.866453 -0.565019 128 128 255 -0.064853 -0.981116 0.182225
0.325542 0.866742 -0.576757 128 128 255 -0.001502 -0.980605 0.195989
0.243770 0.861996 -0.588091 128 128 255 0.055203 -0.976333 0.209111
0.160964 0.852577 -0.598973 128 128 255 0.106100 -0.969618 0.220417
0.077896 0.838904 -0.609356 128 128 255 0.152111 -0.961453 0.229063
-0.004658 0.821445 -0.619196 128 128 255 0.194193 -0.952524 0.234494
-0.085935 0.800692 -0.628451 128 128 255 0.233304 -0.943223 0.236431
-0.165187 0.777147 -0.637080 128 128 255 0.270397 -0.933666 0.234849
-0.241701 0.751302 -0.645047 128 128 255 0.306425 -0.923695 0.229983
-0.314799 0.723623 -0.652318 128 128 255 0.342364 -0.912874 0.222370
-0.383853 0.694534 -0.658862 128 128 255 0.379250 -0.900467 0.212905
-0.448291 0.664403 -0.664650 128 128 255 0.418223 -0.885385 0.202935
-0.507603 0.633532 -0.669659 128 128 255 0.460562 -0.866080 0.194392
-0.561351 0.602149 -0.673866 128 128 255 0.507682 -0.840344 0.189950
-0.609169 0.570400 -0.677253 128 128 255 0.560984 -0.804970 0.193185
-0.650771 0.538355 -0.679806 128 128 255 0.621347 -0.755243 0.208651
-0.685951 0.506003 -0.681515 128 128 255 0.687868 -0.684470 0.241534
-0.714586 0.473261 -0.682371 128 128 255 0.755431 -0.584471 0.296172
-0.736634 0.439984 -0.682371 128 128 255 0.812045 -0.449242 0.372512
-0.752137 0.405974 -0.681515 128 128 255 0.840543 -0.283221 0.461816
-0.761214 0.370995 -0.679806 128 128 255 0.829643 -0.107122 0.547922
-0.764059 0.334791 -0.677253 128 128 255 0.785015 0.051605 0.617323
-0.760936 0.297097 -0.673866 128 128 255 0.724074 0.176318 0.666804
-0.752174 0.257663 -0.669659 128 128 255 0.662400 0.265698 0.700451
-0.738159 0.216266 -0.664650 128 128 255 0.608067 0.326452 0.723659
-0.719328 0.172728 -0.658862 128 128 255 0.563396 0.366525 0.740436
-0.696158 0.126929 -0.652318 128 128 255 0.527901 0.392394 0.753224
-0.669161 0.078823 -0.645047 128 128 255 0.500134 0.408712 0.763427
-0.638870 0.028443 -0.637080 128 128 255 0.478494 0.418675 0.771851
-0.605833 -0.024091 -0.628451 128 128 255 0.461530 0.424458 0.778990
-0.570604 -0.078568 -0.619196 128 128 255 0.447998 0.427555 0.785172
-0.533731 -0.134686 -0.609356 128 128 255 0.436855 0.429014 0.790635
-0.495747 -0.192056 -0.598973 128 128 255 0.427210 0.429597 0.795574
-0.457165 -0.250214 -0.588091 128 128 255 0.418281 0.429878 0.800154
-0.418465 -0.308623 -0.576757 128 128 255 0.409348 0.430322 0.804523
-0.380088 -0.366693 -0.565019 128 128 255 0.399707 0.431320 0.808825
-0.342434 -0.423795 -0.552928 128 128 255 0.388612 0.433231 0.813199
-0.305847 -0.479277 -0.540535 128 128 255 0.375215 0.436398 0.817783
-0.270621 -0.532483 -0.527893 128 128 255 0.358489 0.441161 0.822717
-0.236987 -0.582772 -0.515057 128 128 255 0.337114 0.447851 0.828121
-0.205117 -0.629538 -0.502081 128 128 255 0.309353 0.456762 0.834068
-0.175120 -0.672224 -0.489022 128 128 255 0.272894 0.468083 0.840492
-0.147042 -0.710344 -0.475934 128 128 255 0.224709 0.481731 0.847019
-0.120870 -0.743489 -0.462874 128 128 255 0.161086 0.497045 0.852641
-0.096529 -0.771345 -0.449899 128 128 255 0.078132 0.512291 0.855250
-0.073891 -0.793698 -0.437062 128 128 255 -0.026623 0.524098 0.851241
-0.052776 -0.810439 -0.424421 128 128 255 -0.151166 0.527480 0.836011
-0.032960 -0.821564 -0.412028 128 128 255 -0.285859 0.517578 0.806472
-0.014177 -0.827173 -0.399936 128 128 255 -0.414430 0.493134 0.764897
0.003867 -0.827462 -0.388198 128 128 255 -0.521220 0.458494 0.719801
0.021493 -0.822716 -0.376864 128 128 255 -0.598482 0.421237 0.681453
0.039036 -0.813296 -0.365982 128 128 255 -0.646856 0.387979 0.656544
0.056841 -0.799624 -0.355599 128 128 255 -0.671210 0.362381 0.646651
0.075249 -0.782165 -0.345759 128 128 255 -0.677084 0.345549 0.649733
0.094593 -0.761412 -0.336505 128 128 255 -0.669282 0.337139 0.662117
0.115187 -0.737866 -0.327876 128 128 255 -0.651721 0.336201 0.679874
0.137320 -0.712021 -0.319908 128 128 255 -0.627617 0.341639 0.699557
0.161245 -0.684342 -0.312637 128 128 255 -0.599643 0.352411 0.718494
0.187176 -0.655253 -0.306093 128 128 255 -0.570002 0.367589 0.734831
0.215278 -0.625123 -0.300305 128 128 255 -0.540457 0.386350 0.747422
0.245664 -0.594252 -0.295297 128 128 255 -0.512378 0.407935 0.755683
0.278388 -0.562868 -0.291090 128 128 255 -0.486797 0.431595 0.759443
0.313447 -0.531120 -0.287702 128 128 255 -0.464475 0.456542 0.758836
0.350771 -0.499075 -0.285149 128 128 255 -0.445970 0.481920 0.754230
0.390229 -0.466722 -0.283441 128 128 255 -0.431688 0.506799 0.746190
0.431623 -0.433980 -0.282585 128 128 255 -0.421919 0.530195 0.735444
0.474694 -0.400703 -0.282585 128 128 255 -0.416849 0.551121 0.722843
0.519125 -0.366693 -0.283441 128 128 255 -0.416567 0.568643 0.709308
0.564538 -0.331715 -0.285149 128 128 255 -0.421062 0.581945 0.695735
0.610506 -0.295511 -0.287702 128 128 255 -0.430228 0.590367 0.682913
0.656555 -0.257817 -0.291090 128 128 255 -0.443868 0.593428 0.671434
0.702174 -0.218383 -0.295297 128 128 255 -0.461709 0.590819 0.661632
0.746817 -0.176986 -0.300305 128 128 255 -0.483432 0.582368 0.653560
0.789918 -0.133448 -0.306093 128 128 255 -0.508695 0.567998 0.646999
0.830895 -0.087649 -0.312637 128 128 255 -0.537157 0.547668 0.641500
0.869161 -0.039543 -0.319908 128 128 255 -0.557076 0.536092 0.634248
0.847696 -0.025075 -0.350091 128 128 255 -0.559727 0.504273 0.657582
0.882618 0.024817 -0.358393 128 128 255 -0.582353 0.487599 0.650471
0.913771 0.076883 -0.367340 128 128 255 -0.618253 0.450532 0.644037
0.940609 0.130888 -0.376892 128 128 255 -0.656155 0.406690 0.635660
0.962619 0.186504 -0.387009 128 128 255 -0.695637 0.355132 0.624475
0.979333 0.243320 -0.397647 128 128 255 -0.735974 0.294567 0.609567
0.990328 0.300851 -0.408761 128 128 255 -0.775907 0.223401 0.589967
0.995244 0.358543 -0.420304 128 128 255 -0.813357 0.139921 0.564688
0.993781 0.415796 -0.432225 128 128 255 -0.845135 0.042709 0.532845
0.985714 0.471971 -0.444474 128 128 255 -0.866797 -0.068641 0.493915
0.970891 0.526416 -0.456998 128 128 255 -0.872959 -0.192562 0.448177
0.949241 0.578479 -0.469743 128 128 255 -0.858374 -0.324669 0.397220
0.920775 0.627531 -0.482656 128 128 255 -0.819737 -0.457765 0.344211
0.885587 0.672979 -0.495681 128 128 255 -0.757394 -0.583272 0.293509
0.843856 0.714289 -0.508761 128 128 255 -0.675710 -0.693637 0.249566
0.795841 0.750999 -0.521842 128 128 255 -0.581661 -0.784320 0.215666
0.741884 0.782730 -0.534867 128 128 255 -0.482587 -0.854271 0.193212
0.682401 0.809198 -0.547780 128 128 255 -0.384488 -0.905050 0.181808
0.617880 0.830223 -0.560525 128 128 255 -0.291399 -0.939549 0.179815
0.548873 0.845729 -0.573049 128 128 255 -0.205552 -0.961004 0.184985
0.475992 0.855742 -0.585298 128 128 255 -0.127850 -0.972446 0.194944
0.399897 0.860394 -0.597219 128 128 255 -0.058318 -0.976498 0.207484
0.321291 0.859909 -0.608761 128 128 255 0.003542 -0.975331 0.220717
0.240907 0.854593 -0.619875 128 128 255 0.058529 -0.970685 0.233122
0.159502 0.844825 -0.630514 128 128 255 0.107591 -0.963904 0.243543
0.077841 0.831038 -0.640631 128 128 255 0.151738 -0.955979 0.251158
-0.003306 0.813703 -0.650183 128 128 255 0.191987 -0.947570 0.255446
-0.083181 0.793315 -0.659129 128 128 255 0.229340 -0.939038 0.256146
-0.161044 0.770366 -0.667432 128 128 255 0.264780 -0.930459 0.253255
-0.236186 0.745336 -0.675055 128 128 255 0.299283 -0.921629 0.247039
-0.307935 0.718674 -0.681966 128 128 255 0.333854 -0.912066 0.238069
-0.375671 0.690778 -0.688136 128 128 255 0.369562 -0.900977 0.227298
-0.438825 0.661989 -0.693537 128 128 255 0.407597 -0.887205 0.216175
-0.496894 0.632578 -0.698147 128 128 255 0.449321 -0.869108 0.206788
-0.549444 0.602739 -0.701947 128 128 255 0.496263 -0.844332 0.202055
-0.596116 0.572587 -0.704919 128 128 255 0.549965 -0.809406 0.205916
-0.636627 0.542154 -0.707050 128 128 255 0.611401 -0.759127 0.223416
-0.670777 0.511399 -0.708333 128 128 255 0.679487 -0.685973 0.260266
-0.698447 0.480211 -0.708761 128 128 255 0.748181 -0.580714 0.320932
-0.719599 0.448416 -0.708333 128 128 255 0.803469 -0.437111 0.404192
-0.734280 0.415796 -0.707050 128 128 255 0.826390 -0.262092 0.498385
-0.742610 0.382099 -0.704919 128 128 255 0.807097 -0.081033 0.584831
-0.744788 0.347056 -0.701947 128 128 255 0.755405 0.076521 0.650775
-0.741080 0.310400 -0.698147 128 128 255 0.691067 0.196076 0.695687
-0.731819 0.271880 -0.693537 128 128 255 0.629073 0.279299 0.725438
-0.717392 0.231280 -0.688136 128 128 255 0.576005 0.334526 0.745863
-0.698238 0.188433 -0.681966 128 128 255 0.533072 0.370146 0.760806
-0.674835 0.143238 -0.675055 128 128 255 0.499216 0.392574 0.772444
-0.647696 0.095666 -0.667432 128 128 255 0.472751 0.406263 0.781957
-0.617355 0.045774 -0.659129 128 128 255 0.452013 0.414214 0.790007
-0.584361 -0.006293 -0.650183 128 128 255 0.435561 0.418450 0.796986
-0.549267 -0.060297 -0.640631 128 128 255 0.422193 0.420348 0.803157
-0.512619 -0.115913 -0.630514 128 128 255 0.410911 0.420875 0.808713
-0.474952 -0.172730 -0.619875 128 128 255 0.400869 0.420730 0.813812
-0.436775 -0.230260 -0.608761 128 128 255 0.391324 0.420444 0.818592
-0.398567 -0.287953 -0.597219 128 128 255 0.381587 0.420442 0.823177
-0.360768 -0.345205 -0.585298 128 128 255 0.370976 0.421089 0.827684
-0.323774 -0.401381 -0.573049 128 128 255 0.358759 0.422717 0.832227
-0.287928 -0.455826 -0.560525 128 128 255 0.344091 0.425644 0.836916
-0.253519 -0.507889 -0.547780 128 128 255 0.325929 0.430181 0.841852
-0.220775 -0.556940 -0.534867 128 128 255 0.302931 0.436630 0.847105
-0.189865 -0.602389 -0.521842 128 128 255 0.273317 0.445245 0.852675
