ply
format ascii 1.0
element vertex 693
property float x
property float y
property float z
property uchar red
property uchar green
property uchar blue
property float nx
property float ny
property float nz
end_header
-0.508532 0.534366 0.378674 128 128 255 -0.038407 -0.132145 0.990486
-0.460420 0.613615 0.390249 128 128 255 -0.050632 -0.102006 0.993494
-0.405146 0.694719 0.400405 128 128 255 -0.060789 -0.069577 0.995723
-0.342776 0.776914 0.408839 128 128 255 -0.068140 -0.035491 0.997044
-0.273491 0.859366 0.415259 128 128 255 -0.071974 -0.000514 0.997406
-0.197602 0.941179 0.419394 128 128 255 -0.071636 0.034485 0.996835
-0.115544 1.021417 0.420996 128 128 255 -0.066570 0.068571 0.995423
-0.027881 1.099120 0.419855 128 128 255 -0.056346 0.100785 0.993311
0.064704 1.173323 0.415797 128 128 255 -0.040684 0.130188 0.990654
0.161417 1.243080 0.408696 128 128 255 -0.019471 0.155901 0.987581
0.261367 1.307487 0.398478 128 128 255 0.007230 0.177133 0.984160
0.363588 1.365706 0.385121 128 128 255 0.039171 0.193209 0.980375
0.467057 1.416983 0.368658 128 128 255 0.075916 0.203595 0.976108
0.570719 1.460668 0.349179 128 128 255 0.116843 0.207915 0.971143
0.673512 1.496232 0.326823 128 128 255 0.161154 0.205980 0.965195
0.774395 1.523274 0.301780 128 128 255 0.207894 0.197802 0.957943
0.872365 1.541529 0.274280 128 128 255 0.255999 0.183610 0.949080
0.966487 1.550868 0.244590 128 128 255 0.304352 0.163847 0.938363
1.055902 1.551295 0.213004 128 128 255 0.333673 0.143092 0.931766
1.038422 1.572179 0.216356 128 128 255 0.356358 0.136423 0.924336
1.124761 1.565824 0.183496 128 128 255 0.383015 0.112404 0.916878
1.204985 1.550787 0.149349 128 128 255 0.425839 0.081342 0.901135
1.278532 1.527408 0.114246 128 128 255 0.465549 0.047794 0.883731
1.344955 1.496113 0.078514 128 128 255 0.501710 0.012601 0.864944
1.403921 1.457400 0.042474 128 128 255 0.534100 -0.023474 0.845095
1.455203 1.411820 0.006433 128 128 255 0.562682 -0.059776 0.824510
1.498676 1.359964 -0.029322 128 128 255 0.587573 -0.095776 0.803483
1.534306 1.302444 -0.064523 128 128 255 0.609005 -0.131072 0.782261
1.562139 1.239885 -0.098926 128 128 255 0.627290 -0.165383 0.761023
1.582290 1.172908 -0.132309 128 128 255 0.642791 -0.198532 0.739869
1.594935 1.102121 -0.164475 128 128 255 0.655901 -0.230436 0.718814
1.600296 1.028116 -0.195253 128 128 255 0.667046 -0.261085 0.697771
1.598632 0.951456 -0.224492 128 128 255 0.676688 -0.290540 0.676520
1.590230 0.872676 -0.252062 128 128 255 0.685353 -0.318927 0.654658
1.575399 0.792278 -0.277856 128 128 255 0.693709 -0.346448 0.631460
1.554459 0.710729 -0.301780 128 128 255 0.702714 -0.373425 0.605596
1.527735 0.628463 -0.323759 128 128 255 0.713972 -0.400393 0.574394
1.495557 0.545876 -0.343731 128 128 255 0.730697 -0.428334 0.531612
1.458247 0.463337 -0.361647 128 128 255 0.760775 -0.459208 0.458639
1.416126 0.381180 -0.377466 128 128 255 0.826915 -0.493941 0.268764
1.369503 0.299710 -0.391157 128 128 255 0.623579 -0.252387 -0.739898
1.318680 0.219208 -0.402695 128 128 255 -0.338653 0.341549 -0.876732
1.263947 0.139929 -0.412062 128 128 255 -0.489996 0.434038 -0.755986
1.205583 0.062108 -0.419243 128 128 255 -0.534769 0.473530 -0.699851
1.143855 -0.014039 -0.424227 128 128 255 -0.552835 0.500393 -0.666319
1.079022 -0.088311 -0.427005 128 128 255 -0.560216 0.522213 -0.643002
1.011331 -0.160521 -0.427571 128 128 255 -0.562107 0.541390 -0.625246
0.941023 -0.230495 -0.425920 128 128 255 -0.560683 0.558927 -0.610930
0.868331 -0.298064 -0.422048 128 128 255 -0.557003 0.575327 -0.598954
0.793484 -0.363068 -0.415951 128 128 255 -0.551642 0.590874 -0.588693
0.716707 -0.425352 -0.407629 128 128 255 -0.544927 0.605747 -0.579762
0.638223 -0.484764 -0.397081 128 128 255 -0.537055 0.620063 -0.571921
0.558259 -0.541154 -0.384308 128 128 255 -0.528138 0.633902 -0.565012
0.477042 -0.594373 -0.369314 128 128 255 -0.518240 0.647320 -0.558931
0.394807 -0.644271 -0.352107 128 128 255 -0.507385 0.660355 -0.553616
0.311796 -0.690698 -0.332696 128 128 255 -0.495575 0.673031 -0.549031
0.228262 -0.733506 -0.311100 128 128 255 -0.482788 0.685357 -0.545162
0.144471 -0.772542 -0.287341 128 128 255 -0.468986 0.697330 -0.542018
0.060701 -0.807656 -0.261453 128 128 255 -0.454115 0.708933 -0.539623
-0.022747 -0.838700 -0.233477 128 128 255 -0.438108 0.720136 -0.538020
-0.105559 -0.865526 -0.203468 128 128 255 -0.420886 0.730888 -0.537269
-0.187398 -0.887995 -0.171497 128 128 255 -0.402356 0.741118 -0.537451
-0.267905 -0.905973 -0.137649 128 128 255 -0.382417 0.750731 -0.538666
-0.346700 -0.919339 -0.102032 128 128 255 -0.360959 0.759597 -0.541037
-0.423382 -0.927986 -0.064773 128 128 255 -0.337865 0.767553 -0.544711
-0.497530 -0.931830 -0.026025 128 128 255 -0.313019 0.774383 -0.549864
-0.568706 -0.930809 0.014032 128 128 255 -0.286313 0.779817 -0.556696
-0.636456 -0.924894 0.055190 128 128 255 -0.257655 0.783514 -0.565438
-0.700320 -0.914096 0.097212 128 128 255 -0.226989 0.785050 -0.576343
-0.759834 -0.898465 0.139830 128 128 255 -0.194322 0.783906 -0.589686
-0.814542 -0.878106 0.182743 128 128 255 -0.159753 0.779458 -0.605743
-0.864003 -0.853177 0.225624 128 128 255 -0.123518 0.770974 -0.624774
-0.907804 -0.823898 0.268117 128 128 255 -0.086051 0.757631 -0.646986
-0.945572 -0.790556 0.309844 128 128 255 -0.048048 0.738551 -0.672484
-0.976988 -0.753504 0.350410 128 128 255 -0.010529 0.712878 -0.701209
-1.001799 -0.713161 0.389407 128 128 255 0.025112 0.679906 -0.732869
-1.019832 -0.670016 0.426428 128 128 255 0.057111 0.639248 -0.766877
-1.031007 -0.624615 0.461071 128 128 255 0.083401 0.591044 -0.802316
-1.035346 -0.577558 0.492952 128 128 255 0.101799 0.536140 -0.837968
-1.032982 -0.529485 0.521716 128 128 255 0.110276 0.476185 -0.872403
-1.024159 -0.481066 0.547050 128 128 255 0.107275 0.413570 -0.904130
-1.009237 -0.432982 0.568687 128 128 255 0.091999 0.351187 -0.931774
-0.988684 -0.385909 0.586422 128 128 255 0.064577 0.292051 -0.954220
-0.963068 -0.340503 0.600116 128 128 255 0.026049 0.238901 -0.970695
-0.933044 -0.297374 0.609700 128 128 255 -0.021796 0.193868 -0.980785
-0.899337 -0.257080 0.615179 128 128 255 -0.076685 0.158297 -0.984409
-0.862725 -0.220104 0.616632 128 128 255 -0.136159 0.132720 -0.981757
-0.824011 -0.186847 0.614206 128 128 255 -0.197842 0.116953 -0.973232
-0.784012 -0.157617 0.608115 128 128 255 -0.259649 0.110264 -0.959387
-0.743528 -0.132626 0.598627 128 128 255 -0.319918 0.111565 -0.940854
-0.703327 -0.111987 0.586058 128 128 255 -0.377460 0.119602 -0.918270
-0.664130 -0.095719 0.570761 128 128 255 -0.431554 0.133095 -0.892214
-0.626592 -0.083748 0.553114 128 128 255 -0.481891 0.150851 -0.863148
-0.591294 -0.075920 0.533513 128 128 255 -0.528502 0.171826 -0.831361
-0.558736 -0.072005 0.512358 128 128 255 -0.571679 0.195151 -0.796932
-0.529332 -0.071711 0.490046 128 128 255 -0.611900 0.220134 -0.759684
-0.503410 -0.074692 0.466963 128 128 255 -0.649775 0.246243 -0.719136
-0.481210 -0.080563 0.443477 128 128 255 -0.685987 0.273072 -0.674428
-0.462894 -0.088907 0.419936 128 128 255 -0.721248 0.300290 -0.624202
-0.448545 -0.099283 0.396659 128 128 255 -0.756214 0.327570 -0.566426
-0.438174 -0.111241 0.373941 128 128 255 -0.791345 0.354458 -0.498129
-0.431729 -0.124320 0.352043 128 128 255 -0.826581 0.380136 -0.415044
-0.429101 -0.138062 0.331200 128 128 255 -0.860657 0.402983 -0.311247
-0.430128 -0.152013 0.311616 128 128 255 -0.889752 0.419785 -0.179226
-0.434603 -0.165727 0.293466 128 128 255 -0.905293 0.424628 -0.011643
-0.442281 -0.178769 0.276899 128 128 255 -0.892219 0.408408 0.192737
-0.452880 -0.190717 0.262038 128 128 255 -0.832946 0.361965 0.418548
-0.466090 -0.201166 0.248981 128 128 255 -0.722208 0.284819 0.630313
-0.481573 -0.209722 0.237805 128 128 255 -0.579151 0.190481 0.792655
-0.498966 -0.216012 0.228563 128 128 255 -0.434430 0.097293 0.895435
-0.517886 -0.219675 0.221292 128 128 255 -0.308712 0.016485 0.951013
-0.537929 -0.220371 0.216008 128 128 255 -0.208168 -0.049190 0.976855
-0.558672 -0.217777 0.212708 128 128 255 -0.130952 -0.101233 0.986207
-0.579676 -0.211587 0.211375 128 128 255 -0.072840 -0.142197 0.987155
-0.600484 -0.201517 0.211971 128 128 255 -0.029720 -0.174400 0.984226
-0.620624 -0.187303 0.214445 128 128 255 0.001732 -0.199624 0.979871
-0.639610 -0.168707 0.218727 128 128 255 0.024029 -0.219153 0.975395
-0.656943 -0.145516 0.224730 128 128 255 0.039037 -0.233880 0.971482
-0.672112 -0.117548 0.232350 128 128 255 0.048139 -0.244413 0.968476
-0.684597 -0.084657 0.241463 128 128 255 0.052377 -0.251150 0.966530
-0.693876 -0.046734 0.251930 128 128 255 0.052552 -0.254338 0.965687
-0.699421 -0.003717 0.263587 128 128 255 0.049304 -0.254112 0.965917
-0.700711 0.044407 0.276255 128 128 255 0.043162 -0.250531 0.967146
-0.697235 0.097592 0.289732 128 128 255 0.034596 -0.243603 0.969258
-0.688502 0.155730 0.303797 128 128 255 0.024049 -0.233305 0.972106
-0.674046 0.218641 0.318209 128 128 255 0.011962 -0.219614 0.975514
-0.653441 0.286071 0.332709 128 128 255 -0.001199 -0.202523 0.979277
-0.626309 0.357681 0.347021 128 128 255 -0.014925 -0.182075 0.983171
-0.592334 0.433048 0.360854 128 128 255 -0.028659 -0.158383 0.986962
-0.551275 0.511662 0.373908 128 128 255 -0.041786 -0.131662 0.990414
-0.502978 0.592921 0.385874 128 128 255 -0.053640 -0.102246 0.993312
-0.447387 0.676139 0.396445 128 128 255 -0.063522 -0.070601 0.995480
-0.384561 0.760548 0.405315 128 128 255 -0.070721 -0.037332 0.996797
-0.314673 0.845308 0.412191 128 128 255 -0.074547 -0.003166 0.997212
-0.238027 0.929518 0.416798 128 128 255 -0.074366 0.031066 0.996747
-0.155055 1.012232 0.418888 128 128 255 -0.069633 0.064470 0.995487
-0.066315 1.092477 0.418245 128 128 255 -0.059920 0.096124 0.993564
0.027510 1.169276 0.414692 128 128 255 -0.044944 0.125123 0.991123
0.125623 1.241666 0.408099 128 128 255 -0.024577 0.150613 0.988287
0.227130 1.308726 0.398387 128 128 255 0.001138 0.171820 0.985128
0.331058 1.369599 0.385528 128 128 255 0.031984 0.188081 0.981633
0.436374 1.423511 0.369553 128 128 255 0.067563 0.198863 0.977696
0.542010 1.469794 0.350544 128 128 255 0.107299 0.203784 0.973118
0.646891 1.507897 0.328639 128 128 255 0.150443 0.202635 0.967629
0.749958 1.537401 0.304022 128 128 255 0.196094 0.195403 0.960919
0.850193 1.558023 0.276922 128 128 255 0.243239 0.182276 0.952686
0.946639 1.569619 0.247602 128 128 255 0.290803 0.163653 0.942683
1.038422 1.572179 0.216356 128 128 255 0.319874 0.143580 0.936518
1.019952 1.592209 0.219897 128 128 255 0.342244 0.136876 0.929588
1.108673 1.587902 0.187363 128 128 255 0.368758 0.113511 0.922569
1.191289 1.574772 0.153507 128 128 255 0.411308 0.083541 0.907660
1.267222 1.553152 0.118661 128 128 255 0.450932 0.051005 0.891100
1.336009 1.523463 0.083153 128 128 255 0.487168 0.016718 0.873148
1.397301 1.486202 0.047305 128 128 255 0.519757 -0.018567 0.854113
1.450860 1.441921 0.011425 128 128 255 0.548622 -0.054194 0.834312
1.496549 1.391212 -0.024197 128 128 255 0.573842 -0.089626 0.814047
1.534326 1.334694 -0.059290 128 128 255 0.595612 -0.124444 0.793574
1.564229 1.272995 -0.093609 128 128 255 0.614209 -0.158351 0.773092
1.586369 1.206744 -0.126930 128 128 255 0.629965 -0.191151 0.752732
1.600918 1.136558 -0.159053 128 128 255 0.643252 -0.222735 0.732541
1.608096 1.063035 -0.189804 128 128 255 0.654465 -0.253073 0.712481
1.608162 0.986746 -0.219031 128 128 255 0.664033 -0.282201 0.692404
1.601404 0.908237 -0.246601 128 128 255 0.672451 -0.310215 0.671994
1.588132 0.828015 -0.272404 128 128 255 0.680338 -0.337287 0.650675
1.568667 0.746557 -0.296346 128 128 255 0.688596 -0.363698 0.627343
1.543339 0.664303 -0.318351 128 128 255 0.698783 -0.389935 0.599711
1.512480 0.581659 -0.338354 128 128 255 0.714226 -0.416973 0.562152
1.476417 0.498997 -0.356305 128 128 255 0.744182 -0.447116 0.496267
1.435474 0.416659 -0.372163 128 128 255 0.824711 -0.483582 0.293259
1.389965 0.334956 -0.385894 128 128 255 0.154419 0.071618 -0.985406
1.340196 0.254172 -0.397475 128 128 255 -0.460416 0.403285 -0.790809
1.286459 0.174569 -0.406885 128 128 255 -0.538651 0.455664 -0.708678
1.229039 0.096383 -0.414110 128 128 255 -0.563422 0.484608 -0.669112
1.168207 0.019834 -0.419138 128 128 255 -0.572855 0.506944 -0.644085
1.104224 -0.054875 -0.421960 128 128 255 -0.575605 0.526312 -0.625839
1.037343 -0.127554 -0.422570 128 128 255 -0.574692 0.543970 -0.611413
0.967805 -0.198028 -0.420962 128 128 255 -0.571443 0.560484 -0.599426
0.895848 -0.266127 -0.417133 128 128 255 -0.566520 0.576151 -0.589157
0.821703 -0.331691 -0.411081 128 128 255 -0.560291 0.591149 -0.580187
0.745596 -0.394565 -0.402803 128 128 255 -0.552968 0.605596 -0.572260
0.667755 -0.454597 -0.392300 128 128 255 -0.544673 0.619570 -0.565212
0.588405 -0.511637 -0.379574 128 128 255 -0.535475 0.633129 -0.558940
0.507777 -0.565538 -0.364629 128 128 255 -0.525410 0.646314 -0.553373
0.426105 -0.616153 -0.347473 128 128 255 -0.514484 0.659153 -0.548474
0.343633 -0.663333 -0.328119 128 128 255 -0.502684 0.671663 -0.544222
0.260614 -0.706932 -0.306584 128 128 255 -0.489981 0.683848 -0.540621
0.177311 -0.746800 -0.282893 128 128 255 -0.476334 0.695703 -0.537683
0.094006 -0.782792 -0.257080 128 128 255 -0.461685 0.707213 -0.535440
0.010993 -0.814760 -0.229189 128 128 255 -0.445969 0.718345 -0.533940
-0.071411 -0.842564 -0.199275 128 128 255 -0.429108 0.729052 -0.533245
-0.152873 -0.866065 -0.167412 128 128 255 -0.411012 0.739267 -0.533435
-0.233037 -0.885136 -0.133688 128 128 255 -0.391584 0.748902 -0.534611
-0.311527 -0.899659 -0.098210 128 128 255 -0.370718 0.757836 -0.536892
-0.387946 -0.909533 -0.061110 128 128 255 -0.348303 0.765914 -0.540426
-0.461878 -0.914677 -0.022542 128 128 255 -0.324229 0.772938 -0.545382
-0.532889 -0.915034 0.017312 128 128 255 -0.298389 0.778655 -0.551961
-0.600532 -0.910581 0.058241 128 128 255 -0.270694 0.782745 -0.560389
-0.664354 -0.901329 0.100006 128 128 255 -0.241086 0.784811 -0.570920
-0.723899 -0.887335 0.142336 128 128 255 -0.209558 0.784365 -0.583830
-0.778717 -0.868705 0.184931 128 128 255 -0.176189 0.780815 -0.599404
-0.828377 -0.845598 0.227460 128 128 255 -0.141181 0.773462 -0.617919
-0.872475 -0.818236 0.269568 128 128 255 -0.104915 0.761505 -0.639612
-0.910646 -0.786903 0.310875 128 128 255 -0.068009 0.744070 -0.664631
-0.942579 -0.751950 0.350987 128 128 255 -0.031390 0.720275 -0.692978
-0.968030 -0.713793 0.389499 128 128 255 0.003659 0.689335 -0.724433
-0.986833 -0.672913 0.426003 128 128 255 0.035476 0.650725 -0.758484
-0.998915 -0.629847 0.460102 128 128 255 0.062071 0.604378 -0.794276
-1.004303 -0.585184 0.491416 128 128 255 0.081270 0.550889 -0.830612
-1.003132 -0.539552 0.519595 128 128 255 0.090968 0.491656 -0.866025
-0.995649 -0.493606 0.544330 128 128 255 0.089448 0.428879 -0.898923
-0.982211 -0.448011 0.565361 128 128 255 0.075695 0.365378 -0.927777
-0.963283 -0.403426 0.582490 128 128 255 0.049602 0.304241 -0.951303
-0.939428 -0.360485 0.595583 128 128 255 0.012018 0.248402 -0.968582
-0.911291 -0.319782 0.604580 128 128 255 -0.035387 0.200260 -0.979104
-0.879586 -0.281855 0.609491 128 128 255 -0.090381 0.161438 -0.982735
-0.845076 -0.247168 0.610402 128 128 255 -0.150481 0.132710 -0.979665
-0.808553 -0.216107 0.607466 128 128 255 -0.213242 0.114069 -0.970318
-0.770815 -0.188963 0.600899 128 128 255 -0.276492 0.104892 -0.955275
-0.732645 -0.165935 0.590973 128 128 255 -0.338478 0.104139 -0.935194
-0.694795 -0.147126 0.578009 128 128 255 -0.397931 0.110550 -0.910730
-0.657968 -0.132545 0.562359 128 128 255 -0.454070 0.122810 -0.882461
-0.622802 -0.122115 0.544403 128 128 255 -0.506545 0.139669 -0.850826
-0.589864 -0.115676 0.524535 128 128 255 -0.555364 0.160013 -0.816068
-0.559639 -0.112998 0.503155 128 128 255 -0.600811 0.182897 -0.778187
-0.532529 -0.113790 0.480658 128 128 255 -0.643361 0.207555 -0.736890
-0.508851 -0.117711 0.457427 128 128 255 -0.683617 0.233368 -0.691526
-0.488837 -0.124377 0.433830 128 128 255 -0.722231 0.259826 -0.640993
-0.472641 -0.133379 0.410208 128 128 255 -0.759827 0.286464 -0.583610
-0.460340 -0.144283 0.386881 128 128 255 -0.796860 0.312751 -0.516914
-0.451944 -0.156645 0.364137 128 128 255 -0.833360 0.337912 -0.437408
-0.447397 -0.170013 0.342238 128 128 255 -0.868418 0.360613 -0.340306
-0.446588 -0.183936 0.321413 128 128 255 -0.899218 0.378428 -0.219545
-0.449357 -0.197968 0.301865 128 128 255 -0.919468 0.387093 -0.068823
-0.455497 -0.211670 0.283766 128 128 255 -0.917845 0.379981 0.114783
-0.464765 -0.224614 0.267264 128 128 255 -0.879310 0.349410 0.323614
-0.476882 -0.236386 0.252479 128 128 255 -0.793879 0.291739 0.533521
-0.491540 -0.246583 0.239508 128 128 255 -0.669030 0.213268 0.711980
-0.508404 -0.254820 0.228426 128 128 255 -0.528623 0.128086 0.839137
-0.527114 -0.260725 0.219287 128 128 255 -0.396265 0.048736 0.916842
-0.547290 -0.263943 0.212125 128 128 255 -0.284169 -0.018917 0.958588
-0.568530 -0.264135 0.206957 128 128 255 -0.194601 -0.074184 0.978073
-0.590415 -0.260981 0.203780 128 128 255 -0.125150 -0.118585 0.985025
-0.612508 -0.254175 0.202575 128 128 255 -0.072205 -0.154069 0.985418
-0.634354 -0.243434 0.203308 128 128 255 -0.032406 -0.182344 0.982701
-0.655482 -0.228494 0.205926 128 128 255 -0.003028 -0.204727 0.978814
-0.675406 -0.209115 0.210361 128 128 255 0.018026 -0.222175 0.974840
-0.693629 -0.185082 0.216527 128 128 255 0.032344 -0.235365 0.971369
-0.709638 -0.156212 0.224319 128 128 255 0.041129 -0.244755 0.968712
-0.722914 -0.122354 0.233618 128 128 255 0.045305 -0.250645 0.967018
-0.732929 -0.083397 0.244283 128 128 255 0.045595 -0.253218 0.966334
-0.739155 -0.039273 0.256154 128 128 255 0.042586 -0.252567 0.966642
-0.741068 0.010035 0.269052 128 128 255 0.036776 -0.248722 0.967876
-0.738150 0.064486 0.282777 128 128 255 0.028610 -0.241673 0.969936
-0.729905 0.123976 0.297111 128 128 255 0.018511 -0.231389 0.972685
-0.715860 0.188330 0.311812 128 128 255 0.006906 -0.217841 0.975960
-0.695582 0.257299 0.326624 128 128 255 -0.005755 -0.201019 0.979570
-0.668685 0.330549 0.341272 128 128 255 -0.018981 -0.180961 0.983307
-0.634845 0.407661 0.355465 128 128 255 -0.032231 -0.157776 0.986949
-0.593810 0.488124 0.368904 128 128 255 -0.044913 -0.131668 0.990276
-0.545417 0.571340 0.381281 128 128 255 -0.056387 -0.102954 0.993087
-0.489601 0.656623 0.392285 128 128 255 -0.065977 -0.072079 0.995214
-0.426410 0.743201 0.401611 128 128 255 -0.073001 -0.039616 0.996545
-0.356012 0.830231 0.408965 128 128 255 -0.076790 -0.006258 0.997028
-0.278701 0.916805 0.414069 128 128 255 -0.076730 0.027203 0.996681
-0.194902 1.001968 0.416671 128 128 255 -0.072289 0.059911 0.995583
-0.105171 1.084737 0.416552 128 128 255 -0.063045 0.090984 0.993855
-0.010190 1.164119 0.413530 128 128 255 -0.048710 0.119545 0.991633
0.089245 1.239139 0.407471 128 128 255 -0.029148 0.144769 0.989036
0.192237 1.308856 0.398291 128 128 255 -0.004381 0.165902 0.986133
0.297805 1.372394 0.385958 128 128 255 0.025401 0.182291 0.982916
0.404907 1.428960 0.370496 128 128 255 0.059834 0.193407 0.979292
0.512464 1.477864 0.351984 128 128 255 0.098382 0.198865 0.975076
0.619388 1.518537 0.330555 128 128 255 0.140346 0.198441 0.970013
0.724602 1.550539 0.306389 128 128 255 0.184874 0.192095 0.963805
0.827070 1.573569 0.279712 128 128 255 0.231003 0.179987 0.956160
0.925819 1.587467 0.250784 128 128 255 0.277704 0.162471 0.946828
1.019952 1.592209 0.219897 128 128 255 0.306465 0.143077 0.941067
1.000507 1.611362 0.223626 128 128 255 0.328496 0.136297 0.934619
1.091596 1.609153 0.191436 128 128 255 0.354801 0.113597 0.928015
1.176599 1.597980 0.157888 128 128 255 0.396963 0.084730 0.913916
1.254918 1.578170 0.123314 128 128 255 0.436381 0.053229 0.898186
1.326073 1.550139 0.088043 128 128 255 0.472571 0.019887 0.881068
1.389701 1.514381 0.052399 128 128 255 0.505241 -0.014560 0.862856
1.445550 1.471449 0.016690 128 128 255 0.534276 -0.049458 0.843862
1.493472 1.421937 -0.018790 128 128 255 0.559716 -0.084263 0.824389
1.533415 1.366468 -0.053769 128 128 255 0.581718 -0.118546 0.804706
1.565409 1.305677 -0.087999 128 128 255 0.600522 -0.151992 0.785030
1.589562 1.240196 -0.121253 128 128 255 0.616427 -0.184383 0.765520
1.606039 1.170653 -0.153330 128 128 255 0.629767 -0.215593 0.746266
1.615059 1.097651 -0.184052 128 128 255 0.640904 -0.245564 0.727283
1.616880 1.021773 -0.213265 128 128 255 0.650223 -0.274304 0.708496
1.611791 0.943569 -0.240834 128 128 255 0.658156 -0.301878 0.689711
1.600103 0.863559 -0.266647 128 128 255 0.665235 -0.328413 0.670528
1.582139 0.782224 -0.290609 128 128 255 0.672226 -0.354124 0.650160
1.558232 0.700015 -0.312640 128 128 255 0.680468 -0.379404 0.626909
1.528717 0.617342 -0.332676 128 128 255 0.692997 -0.405096 0.596367
1.493925 0.534587 -0.350664 128 128 255 0.719518 -0.433585 0.542492
1.454184 0.452096 -0.366562 128 128 255 0.816600 -0.472023 0.332202
1.409812 0.370187 -0.380336 128 128 255 -0.325614 0.330819 -0.885740
1.361118 0.289148 -0.391962 128 128 255 -0.542793 0.438145 -0.716522
1.308401 0.209244 -0.401417 128 128 255 -0.577154 0.469599 -0.668110
1.251948 0.130718 -0.408688 128 128 255 -0.587848 0.492016 -0.642149
1.192033 0.053792 -0.413762 128 128 255 -0.590652 0.511283 -0.624275
1.128923 -0.021329 -0.416631 128 128 255 -0.589660 0.528897 -0.610385
1.062872 -0.094454 -0.417287 128 128 255 -0.586408 0.545431 -0.598858
0.994126 -0.165404 -0.415726 128 128 255 -0.581598 0.561164 -0.588930
0.922926 -0.234009 -0.411943 128 128 255 -0.575597 0.576259 -0.580184
0.849504 -0.300109 -0.405937 128 128 255 -0.568608 0.590821 -0.572377
0.774090 -0.363547 -0.397706 128 128 255 -0.560748 0.604922 -0.565359
0.696913 -0.424173 -0.387251 128 128 255 -0.552081 0.618617 -0.559034
0.618202 -0.481839 -0.374575 128 128 255 -0.542642 0.631945 -0.553340
0.538186 -0.536396 -0.359682 128 128 255 -0.532437 0.644936 -0.548241
0.457103 -0.587700 -0.342582 128 128 255 -0.521459 0.657609 -0.543720
0.375195 -0.635606 -0.323288 128 128 255 -0.509683 0.669976 -0.539774
0.292717 -0.679967 -0.301818 128 128 255 -0.497075 0.682040 -0.536412
0.209932 -0.720638 -0.278199 128 128 255 -0.483588 0.693794 -0.533659
0.127119 -0.757476 -0.252466 128 128 255 -0.469166 0.705221 -0.531552
0.044575 -0.790338 -0.224664 128 128 255 -0.453741 0.716291 -0.530138
-0.037389 -0.819086 -0.194852 128 128 255 -0.437237 0.726960 -0.529483
-0.118440 -0.843586 -0.163104 128 128 255 -0.419570 0.737166 -0.529668
-0.198224 -0.863716 -0.129510 128 128 255 -0.400644 0.746823 -0.530791
-0.276371 -0.879361 -0.094180 128 128 255 -0.380360 0.755822 -0.532972
-0.352485 -0.890426 -0.057248 128 128 255 -0.358611 0.764018 -0.536353
-0.426156 -0.896833 -0.018870 128 128 255 -0.335291 0.771225 -0.541102
-0.496956 -0.898532 0.020768 128 128 255 -0.310298 0.777209 -0.547413
-0.564445 -0.895502 0.061455 128 128 255 -0.283544 0.781672 -0.555511
-0.628174 -0.887759 0.102949 128 128 255 -0.254968 0.784241 -0.565648
-0.687697 -0.875364 0.144976 128 128 255 -0.224554 0.784458 -0.578101
-0.742571 -0.858425 0.187234 128 128 255 -0.192365 0.781764 -0.593162
-0.792373 -0.837103 0.229392 128 128 255 -0.158568 0.775491 -0.611122
-0.836709 -0.811620 0.271094 128 128 255 -0.123495 0.764864 -0.632244
-0.875221 -0.782261 0.311959 128 128 255 -0.087696 0.749020 -0.656718
-0.907609 -0.749372 0.351594 128 128 255 -0.052004 0.727057 -0.684604
-0.933637 -0.713368 0.389595 128 128 255 -0.017597 0.698125 -0.715759
-0.953147 -0.674720 0.425557 128 128 255 0.013971 0.661570 -0.749753
-0.966071 -0.633959 0.459086 128 128 255 0.040793 0.617124 -0.785807
-0.972444 -0.591664 0.489805 128 128 255 0.060723 0.565127 -0.822766
-0.972403 -0.548450 0.517370 128 128 255 0.071595 0.506701 -0.859144
-0.966197 -0.504956 0.541478 128 128 255 0.071541 0.443820 -0.893256
-0.954183 -0.461831 0.561875 128 128 255 0.059316 0.379186 -0.923417
-0.936823 -0.419717 0.578370 128 128 255 0.034563 0.315928 -0.948153
-0.914671 -0.379230 0.590836 128 128 255 -0.002087 0.257165 -0.966365
-0.888367 -0.340945 0.599221 128 128 255 -0.049111 0.205579 -0.977407
-0.858614 -0.305380 0.603540 128 128 255 -0.104331 0.163105 -0.981077
-0.826161 -0.272982 0.603886 128 128 255 -0.165243 0.130799 -0.977541
-0.791786 -0.244119 0.600418 128 128 255 -0.229327 0.108867 -0.967242
-0.756269 -0.219067 0.593356 128 128 255 -0.294310 0.096819 -0.950793
-0.720378 -0.198012 0.582977 128 128 255 -0.358332 0.093675 -0.928883
-0.684847 -0.181046 0.569601 128 128 255 -0.420033 0.098175 -0.902183
-0.650362 -0.168170 0.553585 128 128 255 -0.478556 0.108963 -0.871270
-0.617545 -0.159300 0.535309 128 128 255 -0.533497 0.124718 -0.836556
-0.586946 -0.154273 0.515165 128 128 255 -0.584830 0.144246 -0.798228
-0.559038 -0.152858 0.493553 128 128 255 -0.632816 0.166508 -0.756187
-0.534209 -0.154765 0.470865 128 128 255 -0.677909 0.190636 -0.709998
-0.512766 -0.159655 0.447483 128 128 255 -0.720668 0.215901 -0.658806
-0.494932 -0.167151 0.423770 128 128 255 -0.761658 0.241653 -0.601233
-0.480853 -0.176847 0.400066 128 128 255 -0.801315 0.267240 -0.535236
-0.470602 -0.188317 0.376687 128 128 255 -0.839716 0.291860 -0.457923
-0.464183 -0.201123 0.353918 128 128 255 -0.876182 0.314330 -0.365378
-0.461539 -0.214821 0.332018 128 128 255 -0.908549 0.332713 -0.252667
-0.462558 -0.228969 0.311213 128 128 255 -0.932029 0.343811 -0.114526
-0.467080 -0.243128 0.291702 128 128 255 -0.937969 0.342747 0.052335
-0.474899 -0.256865 0.273658 128 128 255 -0.914126 0.323508 0.244371
-0.485773 -0.269760 0.257223 128 128 255 -0.849634 0.281773 0.445787
-0.499426 -0.281404 0.242517 128 128 255 -0.744658 0.219439 0.630342
-0.515552 -0.291402 0.229635 128 128 255 -0.614823 0.145716 0.775087
-0.533819 -0.299372 0.218652 128 128 255 -0.482114 0.071862 0.873156
-0.553870 -0.304947 0.209619 128 128 255 -0.362543 0.005395 0.931951
-0.575329 -0.307775 0.202571 128 128 255 -0.262638 -0.050959 0.963548
-0.597796 -0.307521 0.197523 128 128 255 -0.182580 -0.097400 0.978355
-0.620856 -0.303865 0.194473 128 128 255 -0.119891 -0.135227 0.983534
-0.644072 -0.296503 0.193403 128 128 255 -0.071535 -0.165886 0.983547
-0.666993 -0.285153 0.194277 128 128 255 -0.034761 -0.190610 0.981050
-0.689149 -0.269549 0.197045 128 128 255 -0.007327 -0.210358 0.977597
-0.710056 -0.249451 0.201638 128 128 255 0.012525 -0.225832 0.974086
-0.729215 -0.224642 0.207971 128 128 255 0.026148 -0.237529 0.971028
-0.746114 -0.194935 0.215943 128 128 255 0.034588 -0.245789 0.968706
-0.760232 -0.160178 0.225434 128 128 255 0.038666 -0.250827 0.967259
-0.771041 -0.120253 0.236304 128 128 255 0.039034 -0.252768 0.966739
-0.778009 -0.075091 0.248397 128 128 255 0.036232 -0.251669 0.967135
-0.780608 -0.024669 0.261533 128 128 255 0.030724 -0.247536 0.968391
-0.778315 0.030978 0.275517 128 128 255 0.022933 -0.240342 0.970417
-0.770630 0.091751 0.290128 128 128 255 0.013262 -0.230048 0.973089
-0.757072 0.157481 0.305131 128 128 255 0.002123 -0.216619 0.976254
-0.737201 0.227922 0.320267 128 128 255 -0.010048 -0.200043 0.979736
-0.710621 0.302746 0.335264 128 128 255 -0.022777 -0.180354 0.983338
-0.677001 0.381538 0.349832 128 128 255 -0.035544 -0.157655 0.986854
-0.636078 0.463790 0.363672 128 128 255 -0.047776 -0.132141 0.990079
-0.587680 0.548907 0.376475 128 128 255 -0.058858 -0.104112 0.992822
-0.531731 0.636200 0.387932 128 128 255 -0.068141 -0.073993 0.994928
-0.468270 0.724900 0.397735 128 128 255 -0.074965 -0.042328 0.996287
-0.397454 0.814157 0.405588 128 128 255 -0.078688 -0.009776 0.996851
-0.319569 0.903058 0.411210 128 128 255 -0.078715 0.022908 0.996634
-0.235036 0.990641 0.414348 128 128 255 -0.074526 0.054907 0.995706
-0.144404 1.075911 0.414776 128 128 255 -0.065707 0.085374 0.994180
-0.048351 1.157862 0.412311 128 128 255 -0.051971 0.113465 0.992182
0.052325 1.235503 0.406812 128 128 255 -0.033171 0.138381 0.989823
0.156725 1.307877 0.398190 128 128 255 -0.009313 0.159389 0.987172
0.263863 1.374087 0.386408 128 128 255 0.019435 0.175850 0.984225
0.372688 1.433321 0.371486 128 128 255 0.052743 0.187238 0.980897
0.482111 1.484869 0.353497 128 128 255 0.090113 0.193167 0.977019
0.591028 1.528139 0.332569 128 128 255 0.130887 0.193404 0.972349
0.698348 1.562673 0.308879 128 128 255 0.174264 0.187889 0.966607
0.803017 1.588150 0.282647 128 128 255 0.219329 0.176748 0.959508
0.904041 1.604393 0.254133 128 128 255 0.265096 0.160300 0.950804
1.000507 1.611362 0.223626 128 128 255 0.293494 0.141581 0.945419
0.980099 1.629619 0.227539 128 128 255 0.315163 0.134681 0.939432
1.073542 1.629554 0.195711 128 128 255 0.341197 0.112650 0.933217
1.160922 1.620388 0.162488 128 128 255 0.382860 0.084888 0.919898
1.241624 1.602437 0.128202 128 128 255 0.421956 0.054440 0.904980
1.315150 1.576115 0.093182 128 128 255 0.457979 0.022072 0.888689
1.381122 1.541911 0.057753 128 128 255 0.490609 -0.011495 0.871304
1.439272 1.500378 0.022226 128 128 255 0.519697 -0.045615 0.853132
1.489442 1.452112 -0.013104 128 128 255 0.545243 -0.079741 0.834477
1.531567 1.397741 -0.047963 128 128 255 0.567363 -0.113434 0.815618
1.565673 1.337902 -0.082098 128 128 255 0.586258 -0.146365 0.796793
1.591859 1.273237 -0.115281 128 128 255 0.602189 -0.178297 0.778189
1.610287 1.204378 -0.147308 128 128 255 0.615450 -0.209077 0.759939
1.621173 1.131939 -0.177999 128 128 255 0.626348 -0.238629 0.742121
1.624773 1.056509 -0.207196 128 128 255 0.635208 -0.266927 0.724749
1.621378 0.978649 -0.234764 128 128 255 0.642372 -0.293993 0.707761
1.611298 0.898884 -0.260587 128 128 255 0.648228 -0.319898 0.690988
1.594859 0.817707 -0.284568 128 128 255 0.653280 -0.344765 0.674064
1.572398 0.735573 -0.306627 128 128 255 0.658368 -0.368810 0.656148
1.544250 0.652904 -0.326697 128 128 255 0.665432 -0.392512 0.634929
1.510753 0.570084 -0.344723 128 128 255 0.681599 -0.417466 0.600954
1.472237 0.487468 -0.360664 128 128 255 0.786121 -0.455184 0.418117
1.429025 0.405379 -0.374483 128 128 255 -0.552398 0.423897 -0.717752
1.381430 0.324111 -0.386156 128 128 255 -0.599698 0.456886 -0.656976
1.329754 0.243933 -0.395660 128 128 255 -0.608030 0.477970 -0.633913
1.274288 0.165092 -0.402979 128 128 255 -0.608816 0.496499 -0.618733
1.215313 0.087812 -0.408102 128 128 255 -0.606538 0.513761 -0.606763
1.153096 0.012303 -0.411020 128 128 255 -0.602525 0.530159 -0.596569
1.087896 -0.061242 -0.411725 128 128 255 -0.597320 0.545881 -0.587557
1.019964 -0.132644 -0.410212 128 128 255 -0.591181 0.561036 -0.579434
0.949542 -0.201730 -0.406478 128 128 255 -0.584248 0.575697 -0.572038
0.876865 -0.268341 -0.400521 128 128 255 -0.576597 0.589920 -0.565270
0.802166 -0.332319 -0.392340 128 128 255 -0.568268 0.603750 -0.559068
0.725676 -0.393513 -0.381936 128 128 255 -0.559280 0.617221 -0.553393
0.647625 -0.451777 -0.369312 128 128 255 -0.549633 0.630361 -0.548223
0.568246 -0.506964 -0.354475 128 128 255 -0.539316 0.643191 -0.543547
0.487775 -0.558930 -0.337434 128 128 255 -0.528304 0.655726 -0.539368
0.406458 -0.607532 -0.318203 128 128 255 -0.516568 0.667973 -0.535696
0.324547 -0.652626 -0.296802 128 128 255 -0.504064 0.679934 -0.532550
0.242307 -0.694070 -0.273260 128 128 255 -0.490745 0.691601 -0.529960
0.160017 -0.731723 -0.247611 128 128 255 -0.476552 0.702958 -0.527966
0.077971 -0.765447 -0.219905 128 128 255 -0.461419 0.713975 -0.526623
-0.003519 -0.795106 -0.190200 128 128 255 -0.445272 0.724612 -0.525994
-0.084124 -0.820572 -0.158574 128 128 255 -0.428028 0.734811 -0.526160
-0.163493 -0.841725 -0.125117 128 128 255 -0.409598 0.744493 -0.527219
-0.241257 -0.858457 -0.089944 128 128 255 -0.389885 0.753555 -0.529287
-0.317027 -0.870676 -0.053189 128 128 255 -0.368789 0.761863 -0.532503
-0.390395 -0.878309 -0.015013 128 128 255 -0.346207 0.769245 -0.537031
-0.460939 -0.881311 0.024399 128 128 255 -0.322042 0.775482 -0.543062
-0.528225 -0.879666 0.064830 128 128 255 -0.296208 0.780297 -0.550815
-0.591812 -0.873394 0.106038 128 128 255 -0.268641 0.783344 -0.560540
-0.651260 -0.862559 0.147746 128 128 255 -0.239320 0.784190 -0.572513
-0.706135 -0.847271 0.189650 128 128 255 -0.208287 0.782311 -0.587032
-0.756023 -0.827696 0.231419 128 128 255 -0.175685 0.777070 -0.604398
-0.800537 -0.804055 0.272693 128 128 255 -0.141799 0.767720 -0.624899
-0.839332 -0.776631 0.313095 128 128 255 -0.107113 0.753414 -0.648764
-0.872113 -0.745772 0.352230 128 128 255 -0.072374 0.733239 -0.676109
-0.898655 -0.711884 0.389696 128 128 255 -0.038654 0.706288 -0.706868
-0.918808 -0.675436 0.425090 128 128 255 -0.007398 0.671791 -0.740704
-0.932512 -0.636950 0.458022 128 128 255 0.019577 0.629290 -0.776924
-0.939806 -0.596993 0.488120 128 128 255 0.040167 0.578861 -0.814436
-0.940832 -0.556169 0.515044 128 128 255 0.052166 0.521331 -0.851758
-0.935841 -0.515104 0.538497 128 128 255 0.053559 0.458403 -0.887129
-0.925191 -0.474429 0.558234 128 128 255 0.042870 0.392614 -0.918704
-0.909338 -0.434769 0.574068 128 128 255 0.019472 0.327088 -0.944793
-0.888835 -0.396721 0.585883 128 128 255 -0.016258 0.265112 -0.964081
-0.864310 -0.360843 0.593630 128 128 255 -0.062967 0.209667 -0.975743
-0.836457 -0.327632 0.597335 128 128 255 -0.118555 0.163038 -0.979471
-0.806013 -0.297519 0.597095 128 128 255 -0.180499 0.126610 -0.975392
-0.773740 -0.270853 0.593075 128 128 255 -0.246197 0.100851 -0.963959
-0.740404 -0.247896 0.585501 128 128 255 -0.313256 0.085436 -0.945818
-0.706754 -0.228821 0.574652 128 128 255 -0.379693 0.079463 -0.921694
-0.673509 -0.213709 0.560851 128 128 255 -0.444032 0.081676 -0.892281
-0.641336 -0.202551 0.544457 128 128 255 -0.505323 0.090671 -0.858154
-0.610841 -0.195258 0.525850 128 128 255 -0.563091 0.105047 -0.819691
-0.582560 -0.191663 0.505422 128 128 255 -0.617257 0.123504 -0.777007
-0.556949 -0.191534 0.483570 128 128 255 -0.668032 0.144892 -0.729890
-0.534387 -0.194583 0.460686 128 128 255 -0.715813 0.168211 -0.677729
-0.515166 -0.200472 0.437148 128 128 255 -0.761060 0.192583 -0.619435
-0.499503 -0.208829 0.413317 128 128 255 -0.804150 0.217180 -0.553331
-0.487535 -0.219253 0.389530 128 128 255 -0.845175 0.241106 -0.477019
-0.479330 -0.231325 0.366098 128 128 255 -0.883591 0.263223 -0.387273
-0.474889 -0.244614 0.343305 128 128 255 -0.917664 0.281883 -0.280062
-0.474151 -0.258684 0.321404 128 128 255 -0.943613 0.294580 -0.151050
-0.477004 -0.273100 0.300620 128 128 255 -0.954671 0.297651 0.002832
-0.483286 -0.287429 0.281150 128 128 255 -0.941005 0.286503 0.180069
-0.492794 -0.301248 0.263162 128 128 255 -0.892586 0.257203 0.370319
-0.505287 -0.314142 0.246797 128 128 255 -0.805948 0.209482 0.553684
-0.520491 -0.325708 0.232173 128 128 255 -0.689887 0.148653 0.708490
-0.538102 -0.335558 0.219385 128 128 255 -0.562206 0.083404 0.822781
-0.557792 -0.343313 0.208503 128 128 255 -0.439836 0.021281 0.897826
-0.579208 -0.348613 0.199580 128 128 255 -0.332595 -0.033659 0.942469
-0.601974 -0.351107 0.192649 128 128 255 -0.243512 -0.080334 0.966565
-0.625697 -0.350463 0.187726 128 128 255 -0.171759 -0.119223 0.977898
-0.649960 -0.346364 0.184807 128 128 255 -0.115026 -0.151335 0.981767
-0.674333 -0.338507 0.183876 128 128 255 -0.070789 -0.177700 0.981535
-0.698364 -0.326608 0.184896 128 128 255 -0.036794 -0.199189 0.979270
-0.721586 -0.310404 0.187818 128 128 255 -0.011191 -0.216481 0.976223
-0.743516 -0.289651 0.192574 128 128 255 0.007495 -0.230075 0.973144
-0.763655 -0.264132 0.199081 128 128 255 0.020420 -0.240325 0.970478
-0.781493 -0.233656 0.207238 128 128 255 0.028493 -0.247467 0.968477
-0.796505 -0.198067 0.216927 128 128 255 0.032443 -0.251649 0.967275
-0.808163 -0.157245 0.228009 128 128 255 0.032857 -0.252946 0.966922
-0.815932 -0.111115 0.240330 128 128 255 0.030232 -0.251380 0.967416
-0.819279 -0.059648 0.253714 128 128 255 0.025001 -0.246937 0.968709
-0.817679 -0.002877 0.267963 128 128 255 0.017562 -0.239577 0.970719
-0.810623 0.059108 0.282863 128 128 255 0.008303 -0.229251 0.973332
-0.797627 0.126143 0.298177 128 128 255 -0.002382 -0.215920 0.976408
-0.778240 0.197986 0.313649 128 128 255 -0.014071 -0.199568 0.979783
-0.752061 0.274316 0.329007 128 128 255 -0.026307 -0.180228 0.983273
-0.718746 0.354721 0.343964 128 128 255 -0.038589 -0.157997 0.986685
-0.678024 0.438699 0.358220 128 128 255 -0.050365 -0.133059 0.989828
-0.629711 0.525656 0.371466 128 128 255 -0.061042 -0.105702 0.992523
-0.573722 0.614904 0.383393 128 128 255 -0.069998 -0.076328 0.994623
-0.510084 0.705673 0.393691 128 128 255 -0.076599 -0.045454 0.996025
-0.438945 0.797111 0.402063 128 128 255 -0.080227 -0.013708 0.996682
-0.360582 0.888300 0.408226 128 128 255 -0.080305 0.018193 0.996604
-0.275407 0.978269 0.411921 128 128 255 -0.076329 0.049468 0.995855
-0.183964 1.066013 0.412921 128 128 255 -0.067894 0.079304 0.994536
-0.086928 1.150514 0.411036 128 128 255 -0.054713 0.106892 0.992764
0.014906 1.230765 0.406123 128 128 255 -0.036633 0.131458 0.990645
0.120636 1.305791 0.398085 128 128 255 -0.013645 0.152291 0.988241
0.229271 1.374678 0.386880 128 128 255 0.014103 0.168766 0.985555
0.339753 1.436592 0.372523 128 128 255 0.046308 0.180366 0.982509
0.450981 1.490801 0.355082 128 128 255 0.082509 0.186704 0.978945
0.561839 1.536694 0.334680 128 128 255 0.122090 0.187537 0.974640
0.671220 1.573790 0.311488 128 128 255 0.164293 0.182791 0.969327
0.778052 1.601750 0.285725 128 128 255 0.208251 0.172565 0.962732
0.881323 1.620378 0.257647 128 128 255 0.253021 0.157140 0.954614
0.980099 1.629619 0.227539 128 128 255 0.281004 0.139087 0.949574
0.958742 1.646959 0.231633 128 128 255 0.302294 0.132017 0.944028
1.054521 1.649084 0.200187 128 128 255 0.327996 0.110662 0.938175
1.144267 1.641971 0.167306 128 128 255 0.369056 0.083998 0.925604
1.227346 1.625930 0.133322 128 128 255 0.407713 0.054612 0.911476
1.303244 1.601365 0.098566 128 128 255 0.443450 0.023241 0.895998
1.371563 1.568765 0.063364 128 128 255 0.475920 -0.009413 0.879438
1.432024 1.528681 0.028029 128 128 255 0.504939 -0.042713 0.862097
1.484453 1.481711 -0.007142 128 128 255 0.530470 -0.076113 0.844280
1.528777 1.428483 -0.041872 128 128 255 0.552586 -0.109169 0.826275
1.565012 1.369643 -0.075907 128 128 255 0.571449 -0.141535 0.808340
1.593251 1.305838 -0.109014 128 128 255 0.587273 -0.172958 0.790694
1.613651 1.237706 -0.140988 128 128 255 0.600300 -0.203264 0.773514
1.626425 1.165871 -0.171645 128 128 255 0.610779 -0.232346 0.756944
1.631829 1.090929 -0.200826 128 128 255 0.618942 -0.260148 0.741103
1.630151 1.013449 -0.228391 128 128 255 0.625000 -0.286646 0.726092
1.621702 0.933966 -0.254225 128 128 255 0.629113 -0.311832 0.712023
1.606813 0.852979 -0.278226 128 128 255 0.631358 -0.335692 0.699070
1.585820 0.770954 -0.300314 128 128 255 0.631615 -0.358153 0.687597
1.559064 0.688317 -0.320418 128 128 255 0.629166 -0.378892 0.678668
1.526884 0.605463 -0.338485 128 128 255 0.619957 -0.396120 0.677305
1.489616 0.522751 -0.354470 128 128 255 0.337393 -0.280893 0.898479
1.447586 0.440509 -0.368337 128 128 255 -0.653693 0.451876 -0.607036
1.401111 0.359039 -0.380058 128 128 255 -0.640323 0.465966 -0.610625
1.350497 0.278613 -0.389613 128 128 255 -0.633129 0.482276 -0.605440
1.296041 0.199481 -0.396984 128 128 255 -0.626928 0.498631 -0.598605
1.238025 0.121874 -0.402158 128 128 255 -0.620756 0.514654 -0.591433
1.176723 0.046002 -0.405127 128 128 255 -0.614313 0.530254 -0.584337
1.112396 -0.027939 -0.405884 128 128 255 -0.607485 0.545419 -0.577478
1.045298 -0.099767 -0.404422 128 128 255 -0.600219 0.560161 -0.570926
0.975674 -0.169310 -0.400740 128 128 255 -0.592486 0.574505 -0.564716
0.903763 -0.236406 -0.394835 128 128 255 -0.584263 0.588477 -0.558866
0.829801 -0.300898 -0.386706 128 128 255 -0.575531 0.602100 -0.553390
0.754020 -0.362635 -0.376356 128 128 255 -0.566267 0.615397 -0.548296
0.676652 -0.421470 -0.363788 128 128 255 -0.556447 0.628388 -0.543595
0.597932 -0.477260 -0.349010 128 128 255 -0.546042 0.641089 -0.539299
0.518098 -0.529860 -0.332031 128 128 255 -0.535017 0.653510 -0.535426
0.437396 -0.579129 -0.312867 128 128 255 -0.523333 0.665659 -0.531997
0.356078 -0.624926 -0.291539 128 128 255 -0.510945 0.677533 -0.529041
0.274411 -0.667112 -0.268077 128 128 255 -0.497800 0.689127 -0.526592
0.192673 -0.705549 -0.242519 128 128 255 -0.483841 0.700423 -0.524696
0.111156 -0.740102 -0.214913 128 128 255 -0.469001 0.711396 -0.523406
0.030171 -0.770639 -0.185322 128 128 255 -0.453209 0.722007 -0.522788
-0.049954 -0.797036 -0.153823 128 128 255 -0.436386 0.732202 -0.522922
-0.128871 -0.819177 -0.120512 128 128 255 -0.418444 0.741909 -0.523904
-0.206215 -0.836959 -0.085504 128 128 255 -0.399294 0.751033 -0.525847
-0.281599 -0.850295 -0.048936 128 128 255 -0.378838 0.759448 -0.528886
-0.354621 -0.859117 -0.010971 128 128 255 -0.356980 0.766996 -0.533181
-0.424865 -0.863384 0.028202 128 128 255 -0.333626 0.773473 -0.538918
-0.491902 -0.863084 0.068365 128 128 255 -0.308691 0.778623 -0.546312
-0.555297 -0.858243 0.109272 128 128 255 -0.282111 0.782121 -0.555607
-0.614619 -0.848928 0.150645 128 128 255 -0.253860 0.783567 -0.567079
-0.669441 -0.835252 0.192178 128 128 255 -0.223964 0.782463 -0.581027
-0.719359 -0.817383 0.233538 128 128 255 -0.192539 0.778208 -0.597763
-0.763995 -0.795544 0.274366 128 128 255 -0.159832 0.770085 -0.617594
-0.803011 -0.770018 0.314283 128 128 255 -0.126263 0.757266 -0.640786
-0.836125 -0.741150 0.352894 128 128 255 -0.092498 0.738833 -0.667511
-0.863119 -0.709343 0.389801 128 128 255 -0.059508 0.713836 -0.697780
-0.883853 -0.675060 0.424603 128 128 255 -0.028627 0.681400 -0.731351
-0.898273 -0.638816 0.456912 128 128 255 -0.001572 0.640884 -0.767636
-0.906425 -0.601167 0.486362 128 128 255 0.019610 0.592101 -0.805625
-0.908456 -0.562705 0.512619 128 128 255 0.032684 0.535559 -0.843865
-0.904619 -0.524041 0.535392 128 128 255 0.035507 0.472643 -0.880538
-0.895271 -0.485793 0.554442 128 128 255 0.026366 0.405666 -0.913641
-0.880868 -0.448566 0.569591 128 128 255 0.004339 0.337691 -0.941247
-0.861956 -0.412941 0.580729 128 128 255 -0.030481 0.272148 -0.961773
-0.839156 -0.379455 0.587816 128 128 255 -0.076955 0.212322 -0.974165
-0.813152 -0.348588 0.590885 128 128 255 -0.133079 0.160899 -0.977958
-0.784668 -0.320753 0.590039 128 128 255 -0.196318 0.119653 -0.973212
-0.754451 -0.296281 0.585449 128 128 255 -0.263975 0.089369 -0.960380
-0.723253 -0.275420 0.577346 128 128 255 -0.333518 0.069935 -0.940146
-0.691806 -0.258329 0.566012 128 128 255 -0.402810 0.060552 -0.913278
-0.660810 -0.245077 0.551774 128 128 255 -0.470235 0.059979 -0.880501
-0.630917 -0.235648 0.534991 128 128 255 -0.534721 0.066755 -0.842388
-0.602716 -0.229946 0.516043 128 128 255 -0.595694 0.079380 -0.799279
-0.576726 -0.227802 0.495324 128 128 255 -0.652988 0.096427 -0.751204
-0.553392 -0.228981 0.473227 128 128 255 -0.706726 0.116601 -0.697813
-0.533076 -0.233194 0.450142 128 128 255 -0.757182 0.138739 -0.638301
-0.516063 -0.240109 0.426445 128 128 255 -0.804619 0.161776 -0.571329
-0.502559 -0.249357 0.402493 128 128 255 -0.849083 0.184654 -0.494935
-0.492694 -0.260542 0.378621 128 128 255 -0.890097 0.206188 -0.406465
-0.486530 -0.273251 0.355136 128 128 255 -0.926199 0.224874 -0.302634
-0.484063 -0.287061 0.332319 128 128 255 -0.954294 0.238643 -0.179925
-0.485231 -0.301543 0.310418 128 128 255 -0.968950 0.244661 -0.035734
-0.489920 -0.316267 0.289658 128 128 255 -0.962263 0.239442 0.129293
-0.497968 -0.330811 0.270230 128 128 255 -0.925614 0.219756 0.308132
-0.509173 -0.344757 0.252300 128 128 255 -0.854272 0.184524 0.485974
-0.523295 -0.357697 0.236008 128 128 255 -0.752482 0.136504 0.644312
-0.540062 -0.369235 0.221470 128 128 255 -0.633389 0.081714 0.769507
-0.559174 -0.378987 0.208777 128 128 255 -0.512593 0.026605 0.858219
-0.580305 -0.386581 0.198000 128 128 255 -0.401572 -0.024372 0.915503
-0.603104 -0.391659 0.189191 128 128 255 -0.305799 -0.069209 0.949577
-0.627200 -0.393875 0.182381 128 128 255 -0.226311 -0.107578 0.968096
-0.652202 -0.392899 0.177585 128 128 255 -0.161869 -0.139949 0.976838
-0.677697 -0.388415 0.174802 128 128 255 -0.110438 -0.167040 0.979745
-0.703256 -0.380123 0.174013 128 128 255 -0.069933 -0.189552 0.979377
-0.728431 -0.367739 0.175184 128 128 255 -0.038511 -0.208075 0.977354
-0.752756 -0.350998 0.178264 128 128 255 -0.014641 -0.223067 0.974693
-0.775748 -0.329655 0.183188 128 128 255 0.002912 -0.234866 0.972023
-0.796911 -0.303492 0.189874 128 128 255 0.015136 -0.243709 0.969730
-0.815732 -0.272315 0.198221 128 128 255 0.022825 -0.249749 0.968042
-0.831688 -0.235964 0.208113 128 128 255 0.026620 -0.253072 0.967081
-0.844248 -0.194315 0.219414 128 128 255 0.027054 -0.253713 0.966901
-0.852875 -0.147288 0.231970 128 128 255 0.024580 -0.251666 0.967502
-0.857032 -0.094850 0.245608 128 128 255 0.019603 -0.246894 0.968844
-0.856189 -0.037026 0.260132 128 128 255 0.012498 -0.239347 0.970854
-0.849833 0.026098 0.275328 128 128 255 0.003636 -0.228969 0.973427
-0.837472 0.094364 0.290962 128 128 255 -0.006605 -0.215716 0.976434
-0.818648 0.167539 0.306781 128 128 255 -0.017818 -0.199570 0.979721
-0.792950 0.245304 0.322513 128 128 255 -0.029563 -0.180561 0.983119
-0.760024 0.327254 0.337871 128 128 255 -0.041355 -0.158781 0.986447
-0.719591 0.412891 0.352556 128 128 255 -0.052666 -0.134404 0.989526
-0.671455 0.501624 0.366261 128 128 255 -0.062926 -0.107706 0.992189
-0.615519 0.592768 0.378674 128 128 255 -0.071537 -0.079067 0.994299
-0.551799 0.685551 0.389486 128 128 255 -0.077890 -0.048980 0.995758
-0.480433 0.779120 0.398397 128 128 255 -0.081392 -0.018041 0.996519
-0.401687 0.872552 0.405120 128 128 255 -0.081486 0.013068 0.996589
-0.315964 0.964870 0.409394 128 128 255 -0.077685 0.043602 0.996024
-0.223803 1.055057 0.410989 128 128 255 -0.069592 0.072783 0.994917
-0.125874 1.142085 0.409708 128 128 255 -0.056923 0.099834 0.993374
-0.022968 1.224930 0.405404 128 128 255 -0.039520 0.124009 0.991494
0.084010 1.302602 0.397975 128 128 255 -0.017365 0.144617 0.989335
0.194066 1.374165 0.387373 128 128 255 0.009416 0.161050 0.986901
0.306134 1.438767 0.373606 128 128 255 0.040544 0.172800 0.984122
0.419106 1.495653 0.356738 128 128 255 0.075590 0.179481 0.980853
0.531849 1.544190 0.336885 128 128 255 0.113975 0.180847 0.976885
0.643243 1.583877 0.314216 128 128 255 0.154987 0.176808 0.971966
0.752197 1.614353 0.288944 128 128 255 0.197801 0.167439 0.965836
0.857682 1.635405 0.261322 128 128 255 0.241518 0.152992 0.958260
0.958742 1.646959 0.231633 128 128 255 0.269037 0.135596 0.953537
0.936452 1.663364 0.235907 128 128 255 0.289935 0.128297 0.948408
1.034545 1.667721 0.204860 128 128 255 0.315248 0.107616 0.942888
1.126643 1.662708 0.172338 128 128 255 0.355602 0.082040 0.931030
1.212091 1.648624 0.138671 128 128 255 0.393710 0.053719 0.917664
1.290357 1.625866 0.104193 128 128 255 0.429042 0.023360 0.902982
1.361026 1.594919 0.069230 128 128 255 0.461228 -0.008354 0.887242
1.423804 1.556332 0.034097 128 128 255 0.490055 -0.040800 0.870736
1.478503 1.510705 -0.000906 128 128 255 0.515445 -0.073436 0.853770
1.525040 1.458669 -0.035501 128 128 255 0.537430 -0.105812 0.836644
1.563421 1.400874 -0.069429 128 128 255 0.556126 -0.137570 0.819633
1.593731 1.337972 -0.102456 128 128 255 0.571697 -0.168440 0.802988
1.616123 1.270611 -0.134373 128 128 255 0.584320 -0.198231 0.786940
1.630806 1.199420 -0.164994 128 128 255 0.594164 -0.226805 0.771705
1.638034 1.125005 -0.194156 128 128 255 0.601352 -0.254066 0.757513
1.638095 1.047942 -0.221718 128 128 255 0.605904 -0.279936 0.744658
1.631302 0.968776 -0.247562 128 128 255 0.607643 -0.304313 0.733597
1.617985 0.888015 -0.271584 128 128 255 0.605954 -0.326990 0.725188
1.598483 0.806130 -0.293701 128 128 255 0.599025 -0.347418 0.721436
1.573141 0.723557 -0.313842 128 128 255 0.580535 -0.363656 0.728514
1.542301 0.640698 -0.331951 128 128 255 0.511355 -0.362780 0.779042
1.506302 0.557918 -0.347982 128 128 255 -0.899751 0.436154 -0.014777
1.465475 0.475552 -0.361898 128 128 255 -0.706294 0.458370 -0.539486
1.420141 0.393907 -0.373671 128 128 255 -0.670281 0.469072 -0.575060
1.370612 0.313259 -0.383278 128 128 255 -0.653781 0.483560 -0.582013
1.317186 0.233864 -0.390703 128 128 255 -0.642657 0.498854 -0.581495
1.260150 0.155954 -0.395931 128 128 255 -0.633509 0.514191 -0.578164
1.199783 0.079745 -0.398955 128 128 255 -0.625119 0.529314 -0.573632
1.136348 0.005433 -0.399765 128 128 255 -0.616953 0.544126 -0.568591
1.070105 -0.066796 -0.398358 128 128 255 -0.608739 0.558597 -0.563388
