ply
format ascii 1.0
element vertex 696
property float x
property float y
property float z
property uchar red
property uchar green
property uchar blue
property float nx
property float ny
property float nz
end_header
0.228056 0.418573 -0.045234 128 128 255 -0.372029 0.909002 0.187908
0.223789 0.411499 -0.020216 128 128 255 -0.369991 0.907468 0.199018
0.219371 0.404034 0.004899 128 128 255 -0.368270 0.905724 0.209858
0.214797 0.396173 0.030134 128 128 255 -0.366848 0.903785 0.220443
0.210064 0.387908 0.055512 128 128 255 -0.365710 0.901663 0.230782
0.205166 0.379230 0.081057 128 128 255 -0.364850 0.899366 0.240887
0.200098 0.370127 0.106792 128 128 255 -0.364266 0.896899 0.250764
0.194853 0.360588 0.132742 128 128 255 -0.363960 0.894267 0.260422
0.189424 0.350597 0.158933 128 128 255 -0.363940 0.891472 0.269864
0.183803 0.340138 0.185390 128 128 255 -0.364215 0.888513 0.279092
0.177982 0.329192 0.212143 128 128 255 -0.364801 0.885389 0.288109
0.171951 0.317737 0.239218 128 128 255 -0.365716 0.882097 0.296912
0.165699 0.305752 0.266646 128 128 255 -0.366983 0.878633 0.305497
0.159215 0.293211 0.294458 128 128 255 -0.368629 0.874989 0.313858
0.152487 0.280084 0.322685 128 128 255 -0.370686 0.871159 0.321986
0.145499 0.266342 0.351361 128 128 255 -0.373191 0.867131 0.329867
0.138239 0.251950 0.380521 128 128 255 -0.376188 0.862894 0.337486
0.130688 0.236871 0.410204 128 128 255 -0.379725 0.858433 0.344821
0.122830 0.221063 0.440446 128 128 255 -0.383859 0.853732 0.351845
0.114644 0.204482 0.471291 128 128 255 -0.388653 0.848769 0.358526
0.106110 0.187078 0.502779 128 128 255 -0.394180 0.843520 0.364824
0.097205 0.168797 0.534958 128 128 255 -0.400524 0.837956 0.370690
0.087902 0.149579 0.567875 128 128 255 -0.407776 0.832043 0.376064
0.078176 0.129359 0.601581 128 128 255 -0.416041 0.825738 0.380875
0.067995 0.108066 0.636129 128 128 255 -0.425438 0.818993 0.385037
0.057326 0.085621 0.671576 128 128 255 -0.436095 0.811747 0.388444
0.046134 0.061937 0.707981 128 128 255 -0.448157 0.803926 0.390970
0.034378 0.036920 0.745409 128 128 255 -0.461780 0.795444 0.392463
0.022016 0.010463 0.783926 128 128 255 -0.477130 0.786194 0.392742
0.009000 -0.017548 0.823601 128 128 255 -0.494381 0.776045 0.391589
-0.004723 -0.047241 0.864510 128 128 255 -0.513706 0.764842 0.388746
-0.019210 -0.078757 0.906730 128 128 255 -0.535266 0.752399 0.383910
-0.034525 -0.112252 0.950343 128 128 255 -0.559194 0.738496 0.376731
-0.050737 -0.147898 0.995433 128 128 255 -0.585572 0.722879 0.366812
-0.067923 -0.185887 1.042089 128 128 255 -0.614396 0.705267 0.353718
-0.086167 -0.226430 1.090400 128 128 255 -0.645537 0.685358 0.336996
-0.105564 -0.269761 1.140461 128 128 255 -0.678693 0.662863 0.316209
-0.126215 -0.316141 1.192364 128 128 255 -0.713350 0.637540 0.290987
-0.148235 -0.365857 1.246199 128 128 255 -0.748750 0.609258 0.261110
-0.171747 -0.419229 1.302056 128 128 255 -0.783895 0.578070 0.226590
-0.196889 -0.476610 1.360016 128 128 255 -0.817616 0.544289 0.187760
-0.223810 -0.538389 1.420149 128 128 255 -0.848683 0.508544 0.145325
-0.252673 -0.604998 1.482506 128 128 255 -0.875988 0.471777 0.100361
-0.283657 -0.676908 1.547116 128 128 255 -0.898705 0.435188 0.054228
-0.316952 -0.754635 1.613970 128 128 255 -0.916434 0.400096 0.008424
-0.352763 -0.838737 1.683010 128 128 255 -0.929229 0.367787 -0.035596
-0.391304 -0.929813 1.754109 128 128 255 -0.937537 0.339355 -0.076572
-0.432797 -1.028498 1.827052 128 128 255 -0.942072 0.315612 -0.113533
-0.477465 -1.135448 1.901501 128 128 255 -0.943663 0.297044 -0.145828
-0.525520 -1.251321 1.976957 128 128 255 -0.943121 0.283833 -0.173093
-0.577152 -1.376751 2.052716 128 128 255 -0.941156 0.275907 -0.195195
-0.632503 -1.512292 2.127805 128 128 255 -0.938327 0.273004 -0.212160
-0.691643 -1.658360 2.200914 128 128 255 -0.935036 0.274729 -0.224123
-0.754524 -1.815130 2.270309 128 128 255 -0.931543 0.280604 -0.231277
-0.820929 -1.982413 2.333750 128 128 255 -0.927986 0.290097 -0.233849
-0.890402 -2.159482 2.388390 128 128 255 -0.924411 0.302658 -0.232083
-0.962164 -2.344864 2.430707 128 128 255 -0.920800 0.317725 -0.226227
-1.035022 -2.536093 2.456473 128 128 255 -0.917093 0.334740 -0.216539
-1.107271 -2.729452 2.460789 128 128 255 -0.913213 0.353158 -0.203279
-1.176626 -2.919742 2.438267 128 128 255 -0.909073 0.372457 -0.186714
-1.240193 -3.100159 2.383373 128 128 255 -0.904598 0.392142 -0.167114
-1.294540 -3.262379 2.291006 128 128 255 -0.899726 0.411753 -0.144749
-1.335897 -3.396957 2.157277 128 128 255 -0.894415 0.430870 -0.119886
-1.360514 -3.494122 1.980426 128 128 255 -0.888641 0.449121 -0.092775
-1.365151 -3.544953 1.761691 128 128 255 -0.882401 0.466174 -0.063648
-1.347632 -3.542769 1.505850 128 128 255 -0.875703 0.481741 -0.032705
-1.307322 -3.484404 1.221195 128 128 255 -0.868569 0.495568 -0.000111
-1.245370 -3.371006 0.918796 128 128 255 -0.861023 0.507428 0.034005
-1.164628 -3.208044 0.611162 128 128 255 -0.853093 0.517102 0.069551
-1.069244 -3.004501 0.310613 128 128 255 -0.844804 0.524377 0.106468
-0.964047 -2.771480 0.027804 128 128 255 -0.836172 0.529029 0.144725
-0.853894 -2.520627 -0.229270 128 128 255 -0.827203 0.530814 0.184315
-0.743139 -2.262772 -0.455649 128 128 255 -0.817886 0.529458 0.225248
-0.635303 -2.007007 -0.649229 128 128 255 -0.808184 0.524648 0.267551
-0.532958 -1.760278 -0.810230 128 128 255 -0.798026 0.516018 0.311256
-0.437765 -1.527379 -0.940524 128 128 255 -0.787298 0.503136 0.356392
-0.350617 -1.311210 -1.042990 128 128 255 -0.775828 0.485496 0.402970
-0.271808 -1.113155 -1.120984 128 128 255 -0.763371 0.462501 0.450951
-0.201212 -0.933477 -1.177952 128 128 255 -0.749595 0.433461 0.500219
-0.138426 -0.771671 -1.217185 128 128 255 -0.734058 0.397599 0.550521
-0.082887 -0.626748 -1.241677 128 128 255 -0.716201 0.354076 0.601403
-0.033955 -0.497453 -1.254063 128 128 255 -0.695339 0.302053 0.652125
0.009029 -0.382413 -1.256610 128 128 255 -0.670681 0.240803 0.701571
0.046707 -0.280240 -1.251231 128 128 255 -0.641387 0.169879 0.748174
0.079680 -0.189595 -1.239523 128 128 255 -0.606683 0.089353 0.789906
0.108502 -0.109226 -1.222804 128 128 255 -0.566037 0.000069 0.824380
0.133669 -0.037984 -1.202154 128 128 255 -0.519374 -0.096155 0.849120
0.155627 0.025168 -1.178453 128 128 255 -0.467277 -0.196510 0.861996
0.174766 0.081157 -1.152416 128 128 255 -0.411053 -0.297456 0.861717
0.191431 0.130807 -1.124619 128 128 255 -0.352624 -0.395251 0.848194
0.205922 0.174846 -1.095527 128 128 255 -0.294215 -0.486580 0.822604
0.218503 0.213914 -1.065511 128 128 255 -0.237973 -0.569065 0.787105
0.229402 0.248572 -1.034868 128 128 255 -0.185653 -0.641459 0.744354
0.238818 0.279316 -1.003835 128 128 255 -0.138466 -0.703566 0.697009
0.246925 0.306577 -0.972598 128 128 255 -0.097085 -0.755956 0.647383
0.253873 0.330734 -0.941305 128 128 255 -0.061759 -0.799649 0.597283
0.259794 0.352121 -0.910069 128 128 255 -0.032471 -0.835853 0.547992
0.264801 0.371028 -0.878979 128 128 255 -0.009077 -0.865780 0.500342
0.268994 0.387712 -0.848102 128 128 255 -0.001255 -0.877779 0.479063
0.253568 0.388766 -0.844865 128 128 255 0.061466 -0.908792 0.412698
0.258800 0.403504 -0.813479 128 128 255 0.063738 -0.915272 0.397762
0.263281 0.416439 -0.782537 128 128 255 0.071146 -0.930653 0.358919
0.267088 0.427750 -0.752042 128 128 255 0.073157 -0.943753 0.322457
0.270286 0.437595 -0.721993 128 128 255 0.068943 -0.955075 0.288235
0.272934 0.446110 -0.692383 128 128 255 0.056877 -0.964982 0.256077
0.275082 0.453418 -0.663201 128 128 255 0.033827 -0.973594 0.225764
0.276777 0.459624 -0.634432 128 128 255 -0.006460 -0.980385 0.196986
0.278057 0.464823 -0.606062 128 128 255 -0.077580 -0.982534 0.169138
0.278957 0.469098 -0.578071 128 128 255 -0.212925 -0.966921 0.140449
0.279507 0.472523 -0.550442 128 128 255 -0.499001 -0.860428 0.103256
0.279735 0.475162 -0.523153 128 128 255 -0.947177 -0.319243 0.030660
0.279664 0.477073 -0.496185 128 128 255 -0.905024 0.424200 -0.031406
0.279315 0.478306 -0.469516 128 128 255 -0.712001 0.701208 -0.036903
0.278706 0.478906 -0.443124 128 128 255 -0.598504 0.800701 -0.025880
0.277854 0.478913 -0.416988 128 128 255 -0.532127 0.846594 -0.010963
0.276772 0.478360 -0.391087 128 128 255 -0.489972 0.871725 0.004875
0.275472 0.477280 -0.365398 128 128 255 -0.461266 0.887020 0.020746
0.273966 0.475698 -0.339899 128 128 255 -0.440637 0.896949 0.036336
0.272262 0.473637 -0.314570 128 128 255 -0.425187 0.903638 0.051529
0.270367 0.471118 -0.289387 128 128 255 -0.413227 0.908212 0.066285
0.268290 0.468157 -0.264331 128 128 255 -0.403723 0.911324 0.080600
0.266034 0.464769 -0.239377 128 128 255 -0.396007 0.913373 0.094484
0.263605 0.460966 -0.214507 128 128 255 -0.389632 0.914622 0.107953
0.261006 0.456757 -0.189696 128 128 255 -0.384290 0.915245 0.121029
0.258238 0.452150 -0.164924 128 128 255 -0.379762 0.915367 0.133732
0.255305 0.447151 -0.140169 128 128 255 -0.375892 0.915076 0.146083
0.252206 0.441763 -0.115408 128 128 255 -0.372565 0.914439 0.158102
0.248942 0.435987 -0.090620 128 128 255 -0.369696 0.913504 0.169807
0.245512 0.429825 -0.065781 128 128 255 -0.367223 0.912309 0.181217
0.241913 0.423272 -0.040869 128 128 255 -0.365098 0.910883 0.192345
0.238145 0.416327 -0.015861 128 128 255 -0.363287 0.909247 0.203208
0.234204 0.408984 0.009268 128 128 255 -0.361765 0.907419 0.213817
0.230086 0.401235 0.034541 128 128 255 -0.360515 0.905412 0.224184
0.225786 0.393072 0.059983 128 128 255 -0.359527 0.903235 0.234320
0.221300 0.384484 0.085620 128 128 255 -0.358795 0.900898 0.244232
0.216620 0.375459 0.111479 128 128 255 -0.358318 0.898404 0.253927
0.211741 0.365982 0.137587 128 128 255 -0.358100 0.895756 0.263412
0.206653 0.356037 0.163971 128 128 255 -0.358148 0.892956 0.272689
0.201349 0.345605 0.190662 128 128 255 -0.358473 0.890004 0.281761
0.195818 0.334665 0.217689 128 128 255 -0.359089 0.886900 0.290627
0.190050 0.323195 0.245085 128 128 255 -0.360016 0.883638 0.299287
0.184032 0.311168 0.272884 128 128 255 -0.361274 0.880216 0.307735
0.177751 0.298556 0.301119 128 128 255 -0.362890 0.876628 0.315966
0.171193 0.285328 0.329829 128 128 255 -0.364896 0.872866 0.323969
0.164342 0.271449 0.359051 128 128 255 -0.367325 0.868922 0.331733
0.157180 0.256880 0.388827 128 128 255 -0.370220 0.864785 0.339241
0.149688 0.241580 0.419200 128 128 255 -0.373626 0.860442 0.346472
0.141844 0.225502 0.450215 128 128 255 -0.377597 0.855878 0.353402
0.133626 0.208596 0.481922 128 128 255 -0.382191 0.851076 0.360000
0.125007 0.190804 0.514372 128 128 255 -0.387478 0.846013 0.366226
0.115961 0.172066 0.547620 128 128 255 -0.393534 0.840666 0.372037
0.106455 0.152313 0.581724 128 128 255 -0.400445 0.835004 0.377376
0.096457 0.131471 0.616747 128 128 255 -0.408308 0.828991 0.382176
0.085928 0.109456 0.652757 128 128 255 -0.417231 0.822585 0.386357
0.074827 0.086177 0.689824 128 128 255 -0.427332 0.815736 0.389824
0.063110 0.061533 0.728026 128 128 255 -0.438743 0.808380 0.392462
0.050725 0.035411 0.767444 128 128 255 -0.451606 0.800445 0.394132
0.037618 0.007687 0.808167 128 128 255 -0.466073 0.791841 0.394671
0.023725 -0.021777 0.850290 128 128 255 -0.482300 0.782459 0.393884
0.008978 -0.053136 0.893913 128 128 255 -0.500445 0.772171 0.391545
-0.006698 -0.086559 0.939146 128 128 255 -0.520657 0.760822 0.387385
-0.023389 -0.122240 0.986106 128 128 255 -0.543061 0.748231 0.381097
-0.041190 -0.160390 1.034917 128 128 255 -0.567742 0.734189 0.372338
-0.060207 -0.201250 1.085714 128 128 255 -0.594715 0.718463 0.360729
-0.080558 -0.245088 1.138640 128 128 255 -0.623893 0.700804 0.345876
-0.102377 -0.292205 1.193846 128 128 255 -0.655055 0.680967 0.327395
-0.125811 -0.342938 1.251493 128 128 255 -0.687800 0.658737 0.304954
-0.151029 -0.397669 1.311751 128 128 255 -0.721528 0.633979 0.278331
-0.178218 -0.456826 1.374796 128 128 255 -0.755431 0.606692 0.247486
-0.207589 -0.520893 1.440810 128 128 255 -0.788530 0.577068 0.212634
-0.239380 -0.590414 1.509979 128 128 255 -0.819754 0.545549 0.174297
-0.273858 -0.666002 1.582485 128 128 255 -0.848069 0.512840 0.133319
-0.311320 -0.748348 1.658503 128 128 255 -0.872619 0.479882 0.090822
-0.352103 -0.838228 1.738189 128 128 255 -0.892853 0.447771 0.048103
-0.396578 -0.936511 1.821669 128 128 255 -0.908592 0.417634 0.006491
-0.445159 -1.044162 1.909020 128 128 255 -0.920018 0.390502 -0.032786
-0.498300 -1.162251 2.000240 128 128 255 -0.927598 0.367207 -0.068713
-0.556494 -1.291947 2.095217 128 128 255 -0.931967 0.348324 -0.100534
-0.620265 -1.434504 2.193677 128 128 255 -0.933818 0.334156 -0.127764
-0.690155 -1.591242 2.295119 128 128 255 -0.933803 0.324761 -0.150143
-0.766704 -1.763489 2.398726 128 128 255 -0.932477 0.319999 -0.167594
-0.850406 -1.952506 2.503250 128 128 255 -0.930274 0.319576 -0.180169
-0.941651 -2.159352 2.606868 128 128 255 -0.927504 0.323097 -0.188004
-1.040632 -2.384682 2.707000 128 128 255 -0.924363 0.330095 -0.191286
-1.147219 -2.628461 2.800104 128 128 255 -0.920960 0.340062 -0.190238
-1.260777 -2.889557 2.881456 128 128 255 -0.917334 0.352472 -0.185099
-1.379937 -3.165219 2.944960 128 128 255 -0.913479 0.366792 -0.176124
-1.502332 -3.450454 2.983062 128 128 255 -0.909362 0.382496 -0.163576
-1.624318 -3.737371 2.986870 128 128 255 -0.904939 0.399076 -0.147731
-1.740780 -4.014671 2.946644 128 128 255 -0.900166 0.416045 -0.128868
-1.845117 -4.267556 2.852806 128 128 255 -0.895010 0.432955 -0.107271
-1.929585 -4.478395 2.697514 128 128 255 -0.889449 0.449395 -0.083213
-1.986103 -4.628477 2.476693 128 128 255 -0.883474 0.465006 -0.056952
-2.007522 -4.700839 2.192014 128 128 255 -0.877087 0.479473 -0.028712
-1.989109 -4.683676 1.852113 128 128 255 -0.870297 0.492526 0.001325
-1.929802 -4.573304 1.472305 128 128 255 -0.863115 0.503926 0.033026
-1.832700 -4.375486 1.072539 128 128 255 -0.855554 0.513450 0.066306
-1.704560 -4.104488 0.674095 128 128 255 -0.847622 0.520877 0.101115
-1.554441 -3.780162 0.296128 128 128 255 -0.839322 0.525976 0.137432
-1.392018 -3.424175 -0.046862 128 128 255 -0.830651 0.528493 0.175256
-1.226123 -3.056639 -0.346073 128 128 255 -0.821591 0.528144 0.214598
-1.063829 -2.693943 -0.598069 128 128 255 -0.812106 0.524610 0.255478
-0.910136 -2.347920 -0.803616 128 128 255 -0.802129 0.517526 0.297920
-0.768102 -2.026041 -0.966251 128 128 255 -0.791557 0.506468 0.341948
-0.639207 -1.732177 -1.090987 128 128 255 -0.780232 0.490944 0.387572
-0.523783 -1.467535 -1.183345 128 128 255 -0.767931 0.470381 0.434768
-0.421406 -1.231531 -1.248719 128 128 255 -0.754348 0.444117 0.483445
-0.331203 -1.022492 -1.292023 128 128 255 -0.739074 0.411397 0.533406
-0.252084 -0.838177 -1.317541 128 128 255 -0.721585 0.371398 0.584277
-0.182883 -0.676121 -1.328892 128 128 255 -0.701229 0.323263 0.635435
-0.122454 -0.533859 -1.329070 128 128 255 -0.677242 0.266201 0.685916
-0.069725 -0.409053 -1.320519 128 128 255 -0.648782 0.199622 0.734325
-0.023719 -0.299556 -1.305206 128 128 255 -0.615028 0.123356 0.778796
0.016433 -0.203441 -1.284708 128 128 255 -0.575335 0.037904 0.817039
0.051497 -0.119003 -1.260279 128 128 255 -0.529440 -0.055325 0.846542
0.082139 -0.044749 -1.232911 128 128 255 -0.477683 -0.153912 0.864945
0.108938 0.020621 -1.203389 128 128 255 -0.421135 -0.254567 0.870541
0.132391 0.078234 -1.172329 128 128 255 -0.361548 -0.353563 0.862714
0.152930 0.129065 -1.140214 128 128 255 -0.301112 -0.447353 0.842144
0.170923 0.173956 -1.107421 128 128 255 -0.242068 -0.533150 0.810650
0.186690 0.213633 -1.074244 128 128 255 -0.186349 -0.609261 0.770763
0.200503 0.248723 -1.040910 128 128 255 -0.135361 -0.675096 0.725206
0.212599 0.279770 -1.007593 128 128 255 -0.089931 -0.730954 0.676476
0.223182 0.307243 -0.974426 128 128 255 -0.050397 -0.777706 0.626605
0.232428 0.331548 -0.941506 128 128 255 -0.016745 -0.816503 0.577098
0.240489 0.353039 -0.908907 128 128 255 0.011236 -0.848565 0.528973
0.247497 0.372022 -0.876682 128 128 255 0.033827 -0.875048 0.482853
0.253568 0.388766 -0.844865 128 128 255 0.042008 -0.885560 0.462622
0.238702 0.389475 -0.840810 128 128 255 0.101235 -0.912908 0.395411
0.245631 0.404258 -0.808764 128 128 255 0.104516 -0.918513 0.381327
0.251709 0.417238 -0.777294 128 128 255 0.113067 -0.932063 0.344202
0.257022 0.428599 -0.746385 128 128 255 0.117245 -0.943655 0.309467
0.261645 0.438498 -0.716019 128 128 255 0.116575 -0.953771 0.277003
0.265644 0.447075 -0.686175 128 128 255 0.110036 -0.962827 0.246692
0.269076 0.454453 -0.656830 128 128 255 0.095634 -0.971155 0.218432
0.271993 0.460738 -0.627958 128 128 255 0.069404 -0.978906 0.192160
0.274439 0.466026 -0.599536 128 128 255 0.022843 -0.985544 0.167871
0.276453 0.470398 -0.571536 128 128 255 -0.064891 -0.987217 0.145572
0.278069 0.473928 -0.543933 128 128 255 -0.255514 -0.958765 0.124426
0.279319 0.476681 -0.516701 128 128 255 -0.720709 -0.687230 0.091069
0.280228 0.478713 -0.489814 128 128 255 -0.963348 0.268026 0.011110
0.280820 0.480074 -0.463246 128 128 255 -0.722566 0.691142 -0.014851
0.281117 0.480809 -0.436972 128 128 255 -0.587217 0.809368 -0.009951
0.281137 0.480955 -0.410965 128 128 255 -0.515629 0.856810 0.002119
0.280895 0.480548 -0.385202 128 128 255 -0.472965 0.880932 0.016205
0.280405 0.479617 -0.359657 128 128 255 -0.445085 0.894957 0.030830
0.279681 0.478188 -0.334306 128 128 255 -0.425613 0.903763 0.045459
0.278731 0.476283 -0.309125 128 128 255 -0.411320 0.909522 0.059873
0.277566 0.473921 -0.284090 128 128 255 -0.400426 0.913338 0.073976
0.276194 0.471120 -0.259178 128 128 255 -0.391866 0.915830 0.087730
0.274620 0.467892 -0.234364 128 128 255 -0.384977 0.917369 0.101123
0.272849 0.464249 -0.209625 128 128 255 -0.379323 0.918195 0.114159
0.270887 0.460201 -0.184938 128 128 255 -0.374609 0.918465 0.126846
0.268736 0.455752 -0.160279 128 128 255 -0.370631 0.918290 0.139198
0.266399 0.450910 -0.135626 128 128 255 -0.367242 0.917749 0.151230
0.263876 0.445676 -0.110953 128 128 255 -0.364336 0.916899 0.162957
0.261169 0.440050 -0.086238 128 128 255 -0.361837 0.915784 0.174393
0.258275 0.434033 -0.061455 128 128 255 -0.359689 0.914436 0.185554
0.255196 0.427622 -0.036582 128 128 255 -0.357849 0.912881 0.196451
0.251927 0.420811 -0.011591 128 128 255 -0.356289 0.911136 0.207098
0.248466 0.413595 0.013541 128 128 255 -0.354986 0.909217 0.217506
0.244809 0.405965 0.038842 128 128 255 -0.353927 0.907136 0.227684
0.240951 0.397911 0.064338 128 128 255 -0.353105 0.904900 0.237641
0.236887 0.389422 0.090057 128 128 255 -0.352515 0.902515 0.247384
0.232610 0.380483 0.116028 128 128 255 -0.352159 0.899987 0.256920
0.228112 0.371079 0.142280 128 128 255 -0.352039 0.897317 0.266253
0.223385 0.361191 0.168845 128 128 255 -0.352166 0.894506 0.275386
0.218419 0.350798 0.195755 128 128 255 -0.352550 0.891555 0.284320
0.213203 0.339879 0.223043 128 128 255 -0.353206 0.888462 0.293056
0.207725 0.328408 0.250746 128 128 255 -0.354152 0.885223 0.301591
0.201971 0.316355 0.278900 128 128 255 -0.355411 0.881835 0.309920
0.195927 0.303690 0.307546 128 128 255 -0.357006 0.878293 0.318037
0.189575 0.290378 0.336723 128 128 255 -0.358970 0.874590 0.325934
0.182899 0.276381 0.366478 128 128 255 -0.361334 0.870718 0.333597
0.175877 0.261655 0.396856 128 128 255 -0.364139 0.866669 0.341011
0.168487 0.246155 0.427908 128 128 255 -0.367427 0.862429 0.348156
0.160705 0.229828 0.459687 128 128 255 -0.371250 0.857987 0.355009
0.152503 0.212618 0.492249 128 128 255 -0.375663 0.853327 0.361539
0.143852 0.194460 0.525655 128 128 255 -0.380731 0.848430 0.367711
0.134719 0.175287 0.559972 128 128 255 -0.386526 0.843273 0.373481
0.125067 0.155019 0.595269 128 128 255 -0.393126 0.837832 0.378799
0.114855 0.133573 0.631622 128 128 255 -0.400623 0.832077 0.383601
0.104038 0.110852 0.669113 128 128 255 -0.409117 0.825969 0.387813
0.092566 0.086751 0.707831 128 128 255 -0.418717 0.819465 0.391347
0.080384 0.061153 0.747871 128 128 255 -0.429544 0.812514 0.394097
0.067429 0.033928 0.789338 128 128 255 -0.441729 0.805052 0.395938
0.053633 0.004928 0.832345 128 128 255 -0.455410 0.797003 0.396722
0.038916 -0.026010 0.877015 128 128 255 -0.470731 0.788277 0.396273
0.023193 -0.059069 0.923481 128 128 255 -0.487837 0.778764 0.394388
0.006365 -0.094456 0.971891 128 128 255 -0.506866 0.768336 0.390829
-0.011677 -0.132403 1.022405 128 128 255 -0.527936 0.756841 0.385325
-0.031058 -0.173171 1.075196 128 128 255 -0.551133 0.744104 0.377573
-0.051918 -0.217059 1.130458 128 128 255 -0.576484 0.729932 0.367241
-0.074418 -0.264401 1.188399 128 128 255 -0.603936 0.714113 0.353983
-0.098738 -0.315580 1.249248 128 128 255 -0.633321 0.696439 0.337458
-0.125084 -0.371032 1.313258 128 128 255 -0.664326 0.676720 0.317366
-0.153693 -0.431255 1.380701 128 128 255 -0.696468 0.654824 0.293492
-0.184835 -0.496818 1.451879 128 128 255 -0.729083 0.630718 0.265768
-0.218819 -0.568375 1.527118 128 128 255 -0.761348 0.604517 0.234327
-0.256001 -0.646677 1.606770 128 128 255 -0.792330 0.576532 0.199561
-0.296792 -0.732590 1.691217 128 128 255 -0.821085 0.547294 0.162139
-0.341664 -0.827112 1.780865 128 128 255 -0.846772 0.517543 0.122989
-0.391163 -0.931396 1.876143 128 128 255 -0.868764 0.488182 0.083228
-0.445920 -1.046772 1.977494 128 128 255 -0.886730 0.460185 0.044055
-0.506661 -1.174777 2.085362 128 128 255 -0.900651 0.434493 0.006633
-0.574224 -1.317178 2.200171 128 128 255 -0.910790 0.411918 -0.028020
-0.649567 -1.476003 2.322295 128 128 255 -0.917606 0.393074 -0.059093
-0.733782 -1.653558 2.452001 128 128 255 -0.921660 0.378345 -0.086006
-0.828099 -1.852442 2.589379 128 128 255 -0.923529 0.367890 -0.108403
-0.933876 -2.075529 2.734226 128 128 255 -0.923737 0.361672 -0.126109
-1.052572 -2.325907 2.885882 128 128 255 -0.922724 0.359491 -0.139095
-1.185684 -2.606747 3.042997 128 128 255 -0.920826 0.361030 -0.147434
-1.334623 -2.921043 3.203203 128 128 255 -0.918283 0.365889 -0.151265
-1.500499 -3.271158 3.362679 128 128 255 -0.915249 0.373611 -0.150778
-1.683776 -3.658093 3.515594 128 128 255 -0.911810 0.383707 -0.146190
-1.883737 -4.080370 3.653465 128 128 255 -0.908004 0.395671 -0.137743
-2.097747 -4.532465 3.764530 128 128 255 -0.903839 0.408993 -0.125699
-2.320316 -5.002831 3.833388 128 128 255 -0.899306 0.423171 -0.110339
-2.542133 -5.471852 3.841335 128 128 255 -0.894396 0.437718 -0.091966
-2.749434 -5.910509 3.767993 128 128 255 -0.889104 0.452182 -0.070892
-2.924352 -6.281095 3.594778 128 128 255 -0.883432 0.466153 -0.047432
-3.046929 -6.541453 3.310154 128 128 255 -0.877391 0.479278 -0.021877
-3.099039 -6.653250 2.915348 128 128 255 -0.870991 0.491267 0.005540
-3.069351 -6.592454 2.427909 128 128 255 -0.864239 0.501886 0.034664
-2.957261 -6.357653 1.880387 128 128 255 -0.857131 0.510928 0.065423
-2.773623 -5.971636 1.313631 128 128 255 -0.849654 0.518189 0.097814
-2.537725 -5.475027 0.767366 128 128 255 -0.841793 0.523446 0.131864
-2.272063 -4.915269 0.272295 128 128 255 -0.833528 0.526440 0.167609
-1.997399 -4.336194 -0.153502 128 128 255 -0.824831 0.526874 0.205080
-1.729771 -3.771692 -0.503869 128 128 255 -0.815663 0.524415 0.244299
-1.479680 -3.243976 -0.781411 128 128 255 -0.805964 0.518688 0.285281
-1.252739 -2.764951 -0.993837 128 128 255 -0.795636 0.509267 0.328040
-1.050939 -2.338863 -1.150985 128 128 255 -0.784540 0.495666 0.372575
-0.873920 -1.964991 -1.262866 128 128 255 -0.772471 0.477327 0.418864
-0.719989 -1.639797 -1.338608 128 128 255 -0.759148 0.453608 0.466835
-0.586833 -1.358417 -1.386021 128 128 255 -0.744192 0.423777 0.516324
-0.471958 -1.115606 -1.411531 128 128 255 -0.727113 0.387024 0.567027
-0.372945 -0.906269 -1.420284 128 128 255 -0.707292 0.342488 0.618417
-0.287576 -0.725732 -1.416338 128 128 255 -0.683992 0.289326 0.669660
-0.213885 -0.569851 -1.402854 128 128 255 -0.656378 0.226842 0.719521
-0.150166 -0.435025 -1.382279 128 128 255 -0.623597 0.154665 0.766294
-0.094954 -0.318171 -1.356495 128 128 255 -0.584912 0.073001 0.807805
-0.047009 -0.216664 -1.326945 128 128 255 -0.539901 -0.017117 0.841554
-0.005276 -0.128285 -1.294734 128 128 255 -0.488683 -0.113654 0.865027
0.031131 -0.051160 -1.260704 128 128 255 -0.432089 -0.213612 0.876167
0.062963 0.016293 -1.225497 128 128 255 -0.371690 -0.313359 0.873872
0.090850 0.075410 -1.189599 128 128 255 -0.309605 -0.409193 0.858316
0.115329 0.127320 -1.153375 128 128 255 -0.248142 -0.497978 0.830929
0.136851 0.172978 -1.117102 128 128 255 -0.189405 -0.577588 0.794052
0.155800 0.213196 -1.080984 128 128 255 -0.135004 -0.647031 0.750416
0.172505 0.248665 -1.045169 128 128 255 -0.085950 -0.706307 0.702668
0.187243 0.279973 -1.009767 128 128 255 -0.042703 -0.756108 0.653052
0.200253 0.307626 -0.974852 128 128 255 -0.005300 -0.797506 0.603288
0.211739 0.332055 -0.940475 128 128 255 0.026483 -0.831710 0.554578
0.221878 0.353633 -0.906667 128 128 255 0.053003 -0.859905 0.507695
0.230822 0.372680 -0.873443 128 128 255 0.074640 -0.883168 0.463080
0.238702 0.389475 -0.840810 128 128 255 0.083062 -0.892295 0.443745
0.224372 0.389862 -0.835998 128 128 255 0.138425 -0.916081 0.376343
0.232931 0.404686 -0.803394 128 128 255 0.142529 -0.920851 0.362931
0.240539 0.417708 -0.771488 128 128 255 0.151887 -0.932624 0.327326
0.247293 0.429115 -0.740245 128 128 255 0.157737 -0.942683 0.294053
0.253278 0.439068 -0.709633 128 128 255 0.159865 -0.951461 0.262993
0.258566 0.447707 -0.679616 128 128 255 0.157704 -0.959350 0.234044
0.263224 0.455155 -0.650161 128 128 255 0.150094 -0.966729 0.207139
0.267307 0.461519 -0.621232 128 128 255 0.134720 -0.973973 0.182284
0.270864 0.466895 -0.592798 128 128 255 0.106715 -0.981391 0.159639
0.273940 0.471364 -0.564824 128 128 255 0.054552 -0.988690 0.139701
0.276573 0.475000 -0.537278 128 128 255 -0.055316 -0.990759 0.123842
0.278798 0.477866 -0.510129 128 128 255 -0.355028 -0.927787 0.114749
0.280643 0.480019 -0.483346 128 128 255 -0.991963 -0.104508 0.071322
0.282135 0.481507 -0.456898 128 128 255 -0.743062 0.669171 0.008278
0.283299 0.482376 -0.430757 128 128 255 -0.572479 0.819908 0.004308
0.284153 0.482661 -0.404895 128 128 255 -0.494921 0.868835 0.013366
0.284717 0.482398 -0.379282 128 128 255 -0.452537 0.891370 0.025875
0.285005 0.481615 -0.353893 128 128 255 -0.426248 0.903745 0.039461
0.285033 0.480338 -0.328699 128 128 255 -0.408513 0.911194 0.053317
0.284811 0.478588 -0.303675 128 128 255 -0.395807 0.915878 0.067110
0.284351 0.476384 -0.278796 128 128 255 -0.386289 0.918841 0.080693
0.283660 0.473741 -0.254034 128 128 255 -0.378908 0.920648 0.093999
0.282747 0.470673 -0.229366 128 128 255 -0.373024 0.921631 0.106998
0.281618 0.467191 -0.204766 128 128 255 -0.368231 0.921999 0.119682
0.280277 0.463303 -0.180209 128 128 255 -0.364255 0.921890 0.132051
0.278729 0.459014 -0.155670 128 128 255 -0.360912 0.921398 0.144114
0.276976 0.454329 -0.131125 128 128 255 -0.358073 0.920589 0.155882
0.275020 0.449250 -0.106547 128 128 255 -0.355645 0.919514 0.167364
0.272862 0.443778 -0.081912 128 128 255 -0.353563 0.918207 0.178575
0.270502 0.437909 -0.057193 128 128 255 -0.351779 0.916696 0.189525
0.267938 0.431642 -0.032365 128 128 255 -0.350259 0.915002 0.200227
0.265169 0.424970 -0.007401 128 128 255 -0.348976 0.913140 0.210690
0.262191 0.417885 0.017726 128 128 255 -0.347918 0.911123 0.220925
0.259000 0.410380 0.043045 128 128 255 -0.347071 0.908960 0.230941
0.255591 0.402442 0.068585 128 128 255 -0.346431 0.906657 0.240744
0.251959 0.394059 0.094374 128 128 255 -0.345998 0.904220 0.250343
0.248097 0.385215 0.120446 128 128 255 -0.345775 0.901651 0.259741
0.243995 0.375892 0.146830 128 128 255 -0.345767 0.898952 0.268943
0.239645 0.366072 0.173563 128 128 255 -0.345984 0.896124 0.277951
0.235037 0.355731 0.200678 128 128 255 -0.346437 0.893166 0.286767
0.230158 0.344845 0.228214 128 128 255 -0.347141 0.890077 0.295390
0.224995 0.333385 0.256208 128 128 255 -0.348116 0.886854 0.303817
0.219533 0.321322 0.284704 128 128 255 -0.349384 0.883492 0.312045
0.213755 0.308619 0.313744 128 128 255 -0.350968 0.879988 0.320066
0.207644 0.295240 0.343376 128 128 255 -0.352899 0.876335 0.327872
0.201178 0.281142 0.373648 128 128 255 -0.355208 0.872525 0.335450
0.194336 0.266279 0.404615 128 128 255 -0.357933 0.868552 0.342786
0.187091 0.250598 0.436334 128 128 255 -0.361116 0.864403 0.349861
0.179415 0.234043 0.468864 128 128 255 -0.364804 0.860068 0.356652
0.171279 0.216549 0.502273 128 128 255 -0.369052 0.855533 0.363130
0.162647 0.198047 0.536630 128 128 255 -0.373920 0.850782 0.369261
0.153480 0.178458 0.572014 128 128 255 -0.379475 0.845795 0.375006
0.143737 0.157696 0.608507 128 128 255 -0.385793 0.840550 0.380315
0.133370 0.135663 0.646199 128 128 255 -0.392957 0.835021 0.385130
0.122325 0.112253 0.685190 128 128 255 -0.401060 0.829176 0.389382
0.110543 0.087343 0.725586 128 128 255 -0.410206 0.822977 0.392989
0.097958 0.060800 0.767506 128 128 255 -0.420506 0.816379 0.395854
0.084494 0.032472 0.811078 128 128 255 -0.432081 0.809328 0.397862
0.070068 0.002188 0.856445 128 128 255 -0.445058 0.801761 0.398877
0.054584 -0.030244 0.903762 128 128 255 -0.459572 0.793598 0.398742
0.037935 -0.065040 0.953202 128 128 255 -0.475756 0.784749 0.397272
0.019999 -0.102446 1.004957 128 128 255 -0.493738 0.775104 0.394254
0.000637 -0.142743 1.059239 128 128 255 -0.513633 0.764534 0.389447
-0.020310 -0.186249 1.116283 128 128 255 -0.535523 0.752892 0.382580
-0.043022 -0.233328 1.176352 128 128 255 -0.559448 0.740014 0.373359
-0.067708 -0.284398 1.239741 128 128 255 -0.585377 0.725719 0.361477
-0.094609 -0.339941 1.306778 128 128 255 -0.613182 0.709828 0.346630
-0.124001 -0.400514 1.377833 128 128 255 -0.642617 0.692171 0.328545
-0.156207 -0.466760 1.453321 128 128 255 -0.673288 0.672624 0.307018
-0.191603 -0.539431 1.533710 128 128 255 -0.704643 0.651134 0.281961
-0.230627 -0.619403 1.619528 128 128 255 -0.735983 0.627765 0.253456
-0.273795 -0.707704 1.711373 128 128 255 -0.766496 0.602735 0.221797
-0.321716 -0.805547 1.809920 128 128 255 -0.795327 0.576447 0.187522
-0.375109 -0.914363 1.915934 128 128 255 -0.821670 0.549486 0.151402
-0.434830 -1.035852 2.030277 128 128 255 -0.844871 0.522595 0.114402
-0.501900 -1.172039 2.153923 128 128 255 -0.864499 0.496608 0.077596
-0.577541 -1.325344 2.287967 128 128 255 -0.880394 0.472373 0.042067
-0.663221 -1.498670 2.433630 128 128 255 -0.892654 0.450656 0.008813
-0.760707 -1.695504 2.592254 128 128 255 -0.901583 0.432080 -0.021331
-0.872128 -1.920036 2.765295 128 128 255 -0.907617 0.417078 -0.047723
-1.000046 -2.177303 2.954276 128 128 255 -0.911245 0.405885 -0.069925
-1.147536 -2.473327 3.160709 128 128 255 -0.912947 0.398547 -0.087681
-1.318258 -2.815254 3.385936 128 128 255 -0.913147 0.394950 -0.100879
-1.516503 -3.211427 3.630862 128 128 255 -0.912192 0.394854 -0.109524
-1.747170 -3.671319 3.895485 128 128 255 -0.910345 0.397926 -0.113697
-2.015590 -4.205146 4.178141 128 128 255 -0.907791 0.403765 -0.113535
-2.327051 -4.822888 4.474289 128 128 255 -0.904650 0.411924 -0.109214
-2.685772 -5.532220 4.774704 128 128 255 -0.900993 0.421927 -0.100939
-3.093000 -6.334680 5.062961 128 128 255 -0.896859 0.433281 -0.088946
-3.543804 -7.219330 5.312434 128 128 255 -0.892271 0.445475 -0.073516
-4.022468 -8.153714 5.483800 128 128 255 -0.887253 0.457994 -0.054989
-4.497332 -9.073901 5.525452 128 128 255 -0.881843 0.470331 -0.033785
-4.918004 -9.879483 5.380691 128 128 255 -0.876097 0.482022 -0.010388
-5.220172 -10.443776 5.004890 128 128 255 -0.870077 0.492695 0.014719
-5.342246 -10.647262 4.389454 128 128 255 -0.863820 0.502113 0.041204
-5.249931 -10.425992 3.578794 128 128 255 -0.857310 0.510157 0.068997
-4.953817 -9.805223 2.663623 128 128 255 -0.850486 0.516737 0.098271
-4.505648 -8.890581 1.749769 128 128 255 -0.843273 0.521705 0.129284
-3.975788 -7.822611 0.922937 128 128 255 -0.835609 0.524818 0.162246
-3.428611 -6.728267 0.230630 128 128 255 -0.827446 0.525756 0.197265
-2.909072 -5.695078 -0.315419 128 128 255 -0.818741 0.524149 0.234373
-2.441441 -4.769361 -0.726534 128 128 255 -0.809442 0.519587 0.273558
-2.034383 -3.966725 -1.024357 128 128 255 -0.799465 0.511625 0.314795
-1.687102 -3.284389 -1.232392 128 128 255 -0.788689 0.499769 0.358050
-1.394106 -2.710619 -1.371788 128 128 255 -0.776932 0.483467 0.403282
-1.148199 -2.230588 -1.459898 128 128 255 -0.763937 0.462091 0.450414
-0.942090 -1.829487 -1.510253 128 128 255 -0.749356 0.434926 0.499304
-0.769141 -1.493942 -1.533098 128 128 255 -0.732731 0.401177 0.549693
-0.623623 -1.212477 -1.536060 128 128 255 -0.713478 0.359981 0.601135
-0.500740 -0.975520 -1.524767 128 128 255 -0.690885 0.310466 0.652908
-0.396538 -0.775213 -1.503349 128 128 255 -0.664131 0.251846 0.703920
-0.307789 -0.605153 -1.474832 128 128 255 -0.632343 0.183592 0.752620
-0.231865 -0.460144 -1.441429 128 128 255 -0.594714 0.105654 0.796965
-0.166629 -0.335968 -1.404759 128 128 255 -0.550685 0.018726 0.834503
-0.110339 -0.229197 -1.366007 128 128 255 -0.500171 -0.075534 0.862626
-0.061573 -0.137035 -1.326035 128 128 255 -0.443774 -0.174446 0.878996
-0.019165 -0.057197 -1.285471 128 128 255 -0.382866 -0.274530 0.882070
0.017842 0.012195 -1.244770 128 128 255 -0.319466 -0.372013 0.871520
0.050243 0.072692 -1.204257 128 128 255 -0.255919 -0.463471 0.848351
0.078695 0.125576 -1.164162 128 128 255 -0.194482 -0.546366 0.814654
0.103747 0.171918 -1.124645 128 128 255 -0.136975 -0.619300 0.773114
0.125858 0.212612 -1.085812 128 128 255 -0.084611 -0.681951 0.726487
0.145415 0.248408 -1.047732 128 128 255 -0.038000 -0.734803 0.677215
0.162745 0.279939 -1.010443 128 128 255 0.002736 -0.778830 0.627229
0.178124 0.307742 -0.973962 128 128 255 0.037797 -0.815215 0.577924
0.191788 0.332274 -0.938291 128 128 255 0.067572 -0.845163 0.530220
0.203940 0.353924 -0.903421 128 128 255 0.092516 -0.869790 0.484671
0.214751 0.373024 -0.869331 128 128 255 0.113079 -0.890079 0.441558
0.224372 0.389862 -0.835998 128 128 255 0.121626 -0.897926 0.423008
0.210556 0.389949 -0.830483 128 128 255 0.172909 -0.918349 0.356003
0.220677 0.404809 -0.797419 128 128 255 0.177658 -0.922333 0.343132
0.229751 0.417871 -0.765160 128 128 255 0.187524 -0.932423 0.308904
0.237883 0.429323 -0.733658 128 128 255 0.194603 -0.940985 0.276907
0.245169 0.439328 -0.702864 128 128 255 0.198865 -0.948387 0.247013
0.251690 0.448028 -0.672731 128 128 255 0.200070 -0.954967 0.219110
0.257516 0.455546 -0.643215 128 128 255 0.197638 -0.961063 0.193126
0.262711 0.461990 -0.614273 128 128 255 0.190366 -0.967048 0.169054
0.267330 0.467454 -0.585864 128 128 255 0.175762 -0.973393 0.147019
0.271420 0.472020 -0.557948 128 128 255 0.148159 -0.980717 0.127447
0.275024 0.475761 -0.530486 128 128 255 0.092173 -0.989467 0.111621
0.278179 0.478740 -0.503444 128 128 255 -0.050187 -0.993301 0.104089
0.280919 0.481013 -0.476785 128 128 255 -0.638982 -0.759805 0.119992
0.283273 0.482628 -0.450476 128 128 255 -0.788756 0.613635 0.036292
0.285266 0.483629 -0.424484 128 128 255 -0.551386 0.834089 0.016425
0.286921 0.484054 -0.398778 128 128 255 -0.467675 0.883618 0.022330
0.288258 0.483934 -0.373328 128 128 255 -0.427282 0.903494 0.033593
0.289295 0.483298 -0.348104 128 128 255 -0.403899 0.913623 0.046453
0.290047 0.482171 -0.323077 128 128 255 -0.388788 0.919385 0.059785
0.290528 0.480575 -0.298218 128 128 255 -0.378276 0.922798 0.073156
0.290748 0.478527 -0.273501 128 128 255 -0.370560 0.924783 0.086379
0.290718 0.476043 -0.248898 128 128 255 -0.364662 0.925823 0.099367
0.290447 0.473135 -0.224382 128 128 255 -0.360012 0.926191 0.112079
0.289942 0.469813 -0.199927 128 128 255 -0.356247 0.926060 0.124500
0.289207 0.466084 -0.175506 128 128 255 -0.353140 0.925540 0.136629
0.288249 0.461955 -0.151093 128 128 255 -0.350538 0.924705 0.148469
0.287070 0.457429 -0.126661 128 128 255 -0.348331 0.923610 0.160029
0.285672 0.452507 -0.102185 128 128 255 -0.346449 0.922292 0.171318
0.284057 0.447189 -0.077636 128 128 255 -0.344839 0.920780 0.182347
0.282224 0.441471 -0.052989 128 128 255 -0.343464 0.919094 0.193127
0.280174 0.435351 -0.028214 128 128 255 -0.342299 0.917252 0.203669
0.277903 0.428820 -0.003285 128 128 255 -0.341327 0.915264 0.213981
0.275409 0.421872 0.021829 128 128 255 -0.340537 0.913141 0.224073
0.272688 0.414496 0.047157 128 128 255 -0.339925 0.910888 0.233953
0.269735 0.406680 0.072729 128 128 255 -0.339489 0.908511 0.243628
0.266543 0.398410 0.098579 128 128 255 -0.339231 0.906014 0.253104
0.263106 0.389668 0.124739 128 128 255 -0.339155 0.903398 0.262386
0.259413 0.380436 0.151245 128 128 255 -0.339271 0.900664 0.271477
0.255456 0.370692 0.178132 128 128 255 -0.339589 0.897812 0.280380
0.251224 0.360413 0.205439 128 128 255 -0.340122 0.894841 0.289097
0.246702 0.349571 0.233208 128 128 255 -0.340885 0.891749 0.297624
0.241877 0.338136 0.261480 128 128 255 -0.341899 0.888534 0.305961
0.236733 0.326075 0.290302 128 128 255 -0.343184 0.885191 0.314104
0.231251 0.313350 0.319722 128 128 255 -0.344765 0.881717 0.322044
0.225411 0.299920 0.349793 128 128 255 -0.346672 0.878104 0.329775
0.219191 0.285738 0.380568 128 128 255 -0.348935 0.874348 0.337285
0.212565 0.270755 0.412110 128 128 255 -0.351590 0.870439 0.344558
0.205505 0.254912 0.444481 128 128 255 -0.354679 0.866370 0.351577
0.197980 0.238147 0.477752 128 128 255 -0.358246 0.862129 0.358320
0.189955 0.220391 0.511997 128 128 255 -0.362343 0.857705 0.364759
0.181391 0.201564 0.547298 128 128 255 -0.367028 0.853083 0.370864
0.172244 0.181581 0.583746 128 128 255 -0.372363 0.848246 0.376595
0.162465 0.160343 0.621436 128 128 255 -0.378421 0.843175 0.381907
0.152000 0.137743 0.660475 128 128 255 -0.385280 0.837846 0.386746
0.140787 0.113659 0.700980 128 128 255 -0.393028 0.832233 0.391046
0.128757 0.087954 0.743081 128 128 255 -0.401760 0.826303 0.394732
0.115832 0.060473 0.786918 128 128 255 -0.411581 0.820015 0.397713
0.101923 0.031044 0.832650 128 128 255 -0.422604 0.813326 0.399885
0.086930 -0.000531 0.880451 128 128 255 -0.434947 0.806178 0.401122
0.070739 -0.034475 0.930516 128 128 255 -0.448736 0.798505 0.401281
0.053220 -0.071044 0.983062 128 128 255 -0.464096 0.790228 0.400193
0.034223 -0.110528 1.038334 128 128 255 -0.481147 0.781254 0.397667
0.013578 -0.153261 1.096606 128 128 255 -0.499999 0.771473 0.393485
-0.008914 -0.199628 1.158187 128 128 255 -0.520734 0.760759 0.387405
-0.033481 -0.250073 1.223429 128 128 255 -0.543396 0.748970 0.379162
-0.060389 -0.305112 1.292732 128 128 255 -0.567976 0.735952 0.368482
-0.089948 -0.365346 1.366550 128 128 255 -0.594376 0.721546 0.355090
-0.122524 -0.431481 1.445407 128 128 255 -0.622400 0.705603 0.338737
-0.158547 -0.504345 1.529904 128 128 255 -0.651723 0.688004 0.319231
-0.198526 -0.584920 1.620737 128 128 255 -0.681883 0.668684 0.296474
-0.243069 -0.674376 1.718715 128 128 255 -0.712281 0.647674 0.270508
-0.292905 -0.774112 1.824782 128 128 255 -0.742206 0.625124 0.241558
-0.348915 -0.885812 1.940047 128 128 255 -0.770887 0.601340 0.210057
-0.412168 -1.011523 2.065817 128 128 255 -0.797564 0.576788 0.176657
-0.483974 -1.153743 2.203644 128 128 255 -0.821576 0.552081 0.142192
-0.565947 -1.315546 2.355377 128 128 255 -0.842440 0.527932 0.107622
-0.660093 -1.500744 2.523237 128 128 255 -0.859890 0.505095 0.073949
-0.768929 -1.714108 2.709902 128 128 255 -0.873896 0.484284 0.042136
-0.895633 -1.961653 2.918617 128 128 255 -0.884630 0.466111 0.013024
-1.044262 -2.251034 3.153338 128 128 255 -0.892415 0.451037 -0.012705
-1.220038 -2.592081 3.418903 128 128 255 -0.897650 0.439352 -0.034546
-1.429741 -2.997522 3.721236 128 128 255 -0.900760 0.431172 -0.052169
-1.682252 -3.483980 4.067588 128 128 255 -0.902139 0.426463 -0.065379
-1.989281 -4.073297 4.466767 128 128 255 -0.902125 0.425064 -0.074098
-2.366335 -4.794285 4.929296 128 128 255 -0.900987 0.426719 -0.078319
-2.833925 -5.684875 5.467288 128 128 255 -0.898918 0.431104 -0.078079
-3.418889 -6.794401 6.093598 128 128 255 -0.896044 0.437853 -0.073422
-4.155283 -8.184952 6.819293 128 128 255 -0.892428 0.446575 -0.064375
-5.083305 -9.928820 7.647439 128 128 255 -0.888079 0.456864 -0.050912
-6.242352 -12.094745 8.559646 128 128 255 -0.882961 0.468289 -0.032950
-7.650116 -14.707937 9.490359 128 128 255 -0.877017 0.480346 -0.010403
-9.255716 -17.662268 10.287771 128 128 255 -0.870271 0.492300 0.016437
-10.865383 -20.584127 10.682873 128 128 255 0.863092 -0.502959 -0.045879
-12.095916 -22.753977 10.339226 128 128 255 -0.856496 0.510858 0.073751
-12.494625 -23.341875 9.062511 128 128 255 -0.851363 0.515671 0.096257
-11.860025 -22.005838 7.043596 128 128 255 0.846958 -0.518913 -0.115723
-10.434011 -19.229675 4.794473 128 128 255 -0.841966 0.521760 0.137328
-8.690575 -15.909200 2.789949 128 128 255 -0.835930 0.524000 0.163235
-7.011398 -12.748986 1.242559 128 128 255 -0.828917 0.524925 0.193262
-5.575974 -10.070106 0.148428 128 128 255 -0.821053 0.523874 0.226778
-4.419120 -7.925731 -0.585440 128 128 255 -0.812397 0.520279 0.263289
-3.510529 -6.251543 -1.060629 128 128 255 -0.802939 0.513614 0.302473
-2.802404 -4.953876 -1.358736 128 128 255 -0.792606 0.503349 0.344115
-2.249443 -3.945829 -1.538128 128 128 255 -0.781255 0.488921 0.388067
-1.814670 -3.157253 -1.638551 128 128 255 -0.768665 0.469709 0.434198
-1.469670 -2.534636 -1.686548 128 128 255 -0.754520 0.445014 0.482351
-1.193140 -2.038082 -1.699765 128 128 255 -0.738396 0.414053 0.532289
-0.969232 -1.638045 -1.689957 128 128 255 -0.719744 0.375968 0.583624
-0.786142 -1.312608 -1.665002 128 128 255 -0.697881 0.329867 0.635728
-0.635029 -1.045413 -1.630211 128 128 255 -0.672003 0.274901 0.687635
-0.509221 -0.824153 -1.589190 128 128 255 -0.641228 0.210407 0.737940
-0.403634 -0.639479 -1.544395 128 128 255 -0.604695 0.136117 0.784740
-0.314358 -0.484224 -1.497509 128 128 255 -0.561726 0.052421 0.825661
-0.238357 -0.352836 -1.449681 128 128 255 -0.512058 -0.039379 0.858048
-0.173249 -0.240976 -1.401692 128 128 255 -0.456068 -0.136940 0.879346
-0.117155 -0.145220 -1.354072 128 128 255 -0.394918 -0.236988 0.887624
-0.068572 -0.062845 -1.307172 128 128 255 -0.330501 -0.335748 0.882067
-0.026292 0.008334 -1.261218 128 128 255 -0.265169 -0.429565 0.863226
0.010662 0.070082 -1.216348 128 128 255 -0.201309 -0.515531 0.832888
0.043090 0.123839 -1.172640 128 128 255 -0.140947 -0.591837 0.793639
0.071648 0.170784 -1.130128 128 128 255 -0.085512 -0.657817 0.748307
0.096879 0.211889 -1.088815 128 128 255 -0.035787 -0.713727 0.699509
0.119236 0.247964 -1.048684 128 128 255 0.007991 -0.760417 0.649386
0.139097 0.279681 -1.009704 128 128 255 0.045982 -0.799032 0.599528
0.156780 0.307608 -0.971834 128 128 255 0.078573 -0.830789 0.551013
0.172555 0.332223 -0.935028 128 128 255 0.106261 -0.856841 0.504511
0.186650 0.353930 -0.899236 128 128 255 0.129563 -0.878214 0.460383
0.199261 0.373073 -0.864405 128 128 255 0.148964 -0.895786 0.418781
0.210556 0.389949 -0.830483 128 128 255 0.157530 -0.902460 0.400937
0.197230 0.389754 -0.824315 128 128 255 0.204653 -0.919785 0.334831
0.208849 0.404646 -0.790881 128 128 255 0.209886 -0.923039 0.322407
0.219325 0.417746 -0.758351 128 128 255 0.220008 -0.931564 0.289456
0.228776 0.429242 -0.726658 128 128 255 0.227935 -0.938706 0.258606
0.237305 0.439300 -0.695742 128 128 255 0.233765 -0.944766 0.229719
0.245002 0.448061 -0.665546 128 128 255 0.237478 -0.950016 0.202668
0.251945 0.455649 -0.636015 128 128 255 0.238882 -0.954715 0.177357
0.258202 0.462172 -0.607098 128 128 255 0.237493 -0.959147 0.153736
0.263833 0.467724 -0.578748 128 128 255 0.232270 -0.963676 0.131834
0.268892 0.472387 -0.550918 128 128 255 0.220895 -0.968862 0.111857
0.273424 0.476233 -0.523567 128 128 255 0.197534 -0.975733 0.094472
0.277470 0.479324 -0.496653 128 128 255 0.142995 -0.986320 0.082004
0.281066 0.481717 -0.470137 128 128 255 -0.055239 -0.994645 0.087352
0.284245 0.483458 -0.443983 128 128 255 -0.922299 0.376135 0.088805
0.287034 0.484591 -0.418154 128 128 255 -0.516228 0.856086 0.025016
0.289458 0.485152 -0.392618 128 128 255 -0.429410 0.902673 0.028076
0.291539 0.485174 -0.367341 128 128 255 -0.394927 0.917891 0.038831
0.293296 0.484685 -0.342291 128 128 255 -0.376765 0.924877 0.051488
0.294747 0.483708 -0.317438 128 128 255 -0.365669 0.928496 0.064662
0.295905 0.482265 -0.292753 128 128 255 -0.358228 0.930380 0.077879
0.296784 0.480372 -0.268205 128 128 255 -0.352898 0.931231 0.090943
0.297396 0.478045 -0.243766 128 128 255 -0.348890 0.931401 0.103769
0.297748 0.475296 -0.219408 128 128 255 -0.345760 0.931086 0.116319
0.297850 0.472133 -0.195104 128 128 255 -0.343242 0.930404 0.128582
0.297708 0.468565 -0.170825 128 128 255 -0.341166 0.929435 0.140555
0.297327 0.464596 -0.146543 128 128 255 -0.339427 0.928230 0.152244
0.296710 0.460228 -0.122232 128 128 255 -0.337953 0.926824 0.163658
0.295862 0.455464 -0.097863 128 128 255 -0.336695 0.925246 0.174807
0.294782 0.450301 -0.073407 128 128 255 -0.335620 0.923512 0.185702
0.293473 0.444736 -0.048838 128 128 255 -0.334705 0.921639 0.196353
0.291933 0.438765 -0.024124 128 128 255 -0.333939 0.919636 0.206770
0.290160 0.432379 0.000763 128 128 255 -0.333313 0.917512 0.216964
0.288151 0.425571 0.025855 128 128 255 -0.332825 0.915273 0.226943
0.285903 0.418329 0.051182 128 128 255 -0.332472 0.912923 0.236715
0.283410 0.410639 0.076778 128 128 255 -0.332260 0.910465 0.246286
0.280665 0.402487 0.102677 128 128 255 -0.332195 0.907900 0.255663
0.277662 0.393854 0.128915 128 128 255 -0.332285 0.905229 0.264851
0.274390 0.384720 0.155529 128 128 255 -0.332539 0.902454 0.273852
0.270840 0.375062 0.182559 128 128 255 -0.332970 0.899572 0.282669
0.266999 0.364853 0.210045 128 128 255 -0.333594 0.896581 0.291304
0.262854 0.354066 0.238033 128 128 255 -0.334427 0.893480 0.299754
0.258389 0.342668 0.266568 128 128 255 -0.335489 0.890266 0.308017
0.253587 0.330622 0.295702 128 128 255 -0.336801 0.886934 0.316090
0.248427 0.317888 0.325487 128 128 255 -0.338389 0.883481 0.323966
0.242888 0.304421 0.355980 128 128 255 -0.340280 0.879902 0.331636
0.236946 0.290172 0.387244 128 128 255 -0.342506 0.876189 0.339091
0.230572 0.275085 0.419345 128 128 255 -0.345101 0.872336 0.346316
0.223736 0.259099 0.452355 128 128 255 -0.348106 0.868336 0.353293
0.216403 0.242144 0.486352 128 128 255 -0.351563 0.864177 0.360001
0.208534 0.224144 0.521423 128 128 255 -0.355523 0.859851 0.366416
0.200086 0.205012 0.557660 128 128 255 -0.360039 0.855343 0.372506
0.191010 0.184654 0.595166 128 128 255 -0.365172 0.850639 0.378236
0.181251 0.162961 0.634052 128 128 255 -0.370990 0.845722 0.383562
0.170746 0.139811 0.674443 128 128 255 -0.377568 0.840572 0.388434
0.159425 0.115070 0.716477 128 128 255 -0.384989 0.835164 0.392790
0.147210 0.088583 0.760304 128 128 255 -0.393342 0.829471 0.396560
0.134009 0.060174 0.806095 128 128 255 -0.402726 0.823459 0.399660
0.119721 0.029647 0.854039 128 128 255 -0.413246 0.817086 0.401992
0.104227 -0.003226 0.904347 128 128 255 -0.425015 0.810306 0.403443
0.087392 -0.038703 0.957259 128 128 255 -0.438150 0.803061 0.403879
0.069063 -0.077079 1.013044 128 128 255 -0.452768 0.795282 0.403147
0.049059 -0.118699 1.072008 128 128 255 -0.468985 0.786889 0.401073
0.027173 -0.163957 1.134499 128 128 255 -0.486904 0.777786 0.397458
0.003163 -0.213315 1.200917 128 128 255 -0.506609 0.767866 0.392083
-0.023255 -0.267310 1.271720 128 128 255 -0.528151 0.757004 0.384710
-0.052414 -0.326574 1.347438 128 128 255 -0.551529 0.745066 0.375090
-0.084710 -0.391855 1.428685 128 128 255 -0.576677 0.731912 0.362973
-0.120612 -0.464038 1.516183 128 128 255 -0.603433 0.717407 0.348132
-0.160684 -0.544186 1.610776 128 128 255 -0.631531 0.701438 0.330382
-0.205607 -0.633574 1.713468 128 128 255 -0.660579 0.683937 0.309622
-0.256207 -0.733754 1.825451 128 128 255 -0.690060 0.664905 0.285866
-0.313497 -0.846620 1.948162 128 128 255 -0.719347 0.644446 0.259285
-0.378731 -0.974513 2.083341 128 128 255 -0.747744 0.622793 0.230234
-0.453473 -1.120346 2.233115 128 128 255 -0.774542 0.600316 0.199264
-0.539698 -1.287791 2.400117 128 128 255 -0.799090 0.577523 0.167101
-0.639928 -1.481524 2.587635 128 128 255 -0.820870 0.555025 0.134608
-0.757422 -1.707584 2.799830 128 128 255 -0.839547 0.533489 0.102710
-0.896459 -1.973875 3.042047 128 128 255 -0.854990 0.513576 0.072325
-1.062746 -2.290916 3.321249 128 128 255 -0.867263 0.495876 0.044290
-1.264030 -2.672965 3.646680 128 128 255 -0.876583 0.480864 0.019316
-1.511054 -3.139745 4.030857 128 128 255 -0.883263 0.468873 -0.002037
