ply
format ascii 1.0
element vertex 692
property float x
property float y
property float z
property uchar red
property uchar green
property uchar blue
property float nx
property float ny
property float nz
end_header
0.402502 37.867859 -41.689602 128 128 255 0.999420 -0.032353 -0.010604
-0.241873 -6.302189 -8.644504 128 128 255 0.999904 -0.013669 -0.002206
0.088770 1.412247 -2.536170 128 128 255 0.998174 -0.056426 0.021554
0.185082 2.189689 1.510436 128 128 255 -0.999525 0.029126 -0.010096
0.315408 -4.177642 18.432425 128 128 255 -0.999515 0.030126 0.007849
6.053956 188.317902 34.032093 128 128 255 -0.999890 0.013967 0.005075
0.019639 0.157866 -4.366447 128 128 255 -0.999490 0.027416 0.016383
0.146627 2.083803 -0.420771 128 128 255 -0.999829 -0.006717 -0.017220
0.242971 1.342117 5.971233 128 128 255 -0.999890 0.014538 0.002913
0.502650 27.605087 -20.401670 128 128 255 0.999503 -0.029751 -0.010462
-0.135634 -3.491287 -7.194303 128 128 255 0.999867 -0.016038 -0.003088
0.104022 1.632493 -2.045189 128 128 255 0.990077 -0.140039 -0.011728
0.197096 2.137290 2.245694 128 128 255 0.994021 0.108127 -0.015186
0.355321 -12.977659 34.182739 128 128 255 0.999430 -0.032514 -0.009049
-1.485507 -42.888176 -19.940794 128 128 255 -0.999947 0.009953 0.002641
0.044845 0.655529 -3.761291 128 128 255 0.998938 -0.032078 -0.033075
0.158301 2.153001 0.108318 128 128 255 -0.999903 0.003062 -0.013569
0.260350 0.673220 7.949769 128 128 255 -0.999789 0.020064 0.004464
0.656329 27.665552 -12.124213 128 128 255 -0.999622 0.025739 0.009628
-0.069449 -1.843846 -6.130855 128 128 255 -0.999797 0.019457 0.005285
0.117884 1.808616 -1.561832 128 128 255 -0.987483 -0.146833 -0.057601
0.209709 2.024281 3.107069 128 128 255 0.999991 0.004267 -0.000426
0.492250 -94.425041 167.294632 128 128 255 0.999391 -0.033443 -0.009977
-0.554419 -15.144924 -12.026370 128 128 255 -0.999988 0.004800 -0.000611
0.065756 1.035784 -3.208915 128 128 255 0.980609 -0.013740 -0.195495
0.095270 0.565839 5.062882 128 128 255 -0.999929 0.011240 0.003904
0.010841 -9.492029 19.915422 128 128 255 0.999773 -0.015404 -0.014741
0.083793 -5.998275 -13.773614 128 128 255 -0.999477 0.030678 0.010238
0.129290 2.916533 -7.752600 128 128 255 -0.999031 0.032688 0.029481
0.109869 1.910137 0.910265 128 128 255 -0.998761 0.044016 0.023238
0.062291 -3.005986 12.296921 128 128 255 0.999523 -0.029451 -0.009283
-0.038863 -20.138517 9.695729 128 128 255 0.999598 -0.027442 -0.007070
0.129523 1.901233 -11.978860 128 128 255 -0.999788 0.014423 0.014722
0.120265 2.679010 -2.802957 128 128 255 -0.999286 0.024218 0.028993
0.089517 -0.013712 6.499149 128 128 255 -0.999466 0.028941 0.015157
-0.011480 -12.654860 21.819912 128 128 255 0.999806 -0.015902 -0.011586
0.104998 -2.804662 -14.825331 128 128 255 -0.999500 0.029454 0.011515
0.127729 2.960659 -6.554281 128 128 255 -0.999295 0.023581 0.029223
0.106021 1.577630 2.092507 128 128 255 -0.999986 -0.000055 0.005250
0.050179 -4.441908 14.455213 128 128 255 0.999585 -0.024969 -0.014383
-0.003661 -16.915001 -0.389810 128 128 255 -0.999533 0.029593 0.007683
0.130643 2.408259 -10.676835 128 128 255 -0.999915 -0.001488 0.012951
0.117449 2.495781 -1.696639 128 128 255 0.999270 -0.027388 -0.026614
0.082842 -0.712531 8.060545 128 128 255 0.999183 -0.035588 0.019165
-0.034168 -16.242411 22.260630 128 128 255 0.999778 -0.019134 -0.008816
0.117789 -0.645878 -14.527269 128 128 255 -0.999552 0.027060 0.012771
0.125800 2.935590 -5.393082 128 128 255 -0.999334 0.020842 0.029948
0.101731 1.186810 3.329285 128 128 255 -0.999667 0.022898 0.011869
0.035327 -6.279093 16.795496 128 128 255 0.999668 -0.019917 -0.016369
0.039247 -11.938836 -8.481180 128 128 255 -0.999490 0.030717 0.008668
0.130560 2.716257 -9.386570 128 128 255 0.646484 -0.730074 -0.221473
0.114366 2.271068 -0.582558 128 128 255 0.999229 -0.031239 -0.023788
0.074981 -1.566469 9.774521 128 128 255 0.999158 -0.037061 0.017594
-0.049530 -19.405304 19.613831 128 128 255 0.999706 -0.023116 -0.007324
0.125048 0.771535 -13.586281 128 128 255 -0.999634 0.023199 0.013900
0.123574 2.855075 -4.260549 128 128 255 -0.999317 0.021206 0.030271
0.096900 0.725702 4.638619 128 128 255 -0.999549 0.026945 0.013223
0.017181 -8.637088 19.200144 128 128 255 0.999752 -0.016008 -0.015503
0.075027 -7.235634 -13.006382 128 128 255 -0.999476 0.030843 0.009850
0.129683 2.885649 -8.132974 128 128 255 -0.998782 0.038858 0.030416
0.110986 2.002858 0.551922 128 128 255 -0.999011 0.038426 0.022351
0.065586 -2.625444 11.668749 128 128 255 0.999506 -0.030727 -0.006649
-0.045434 -20.479071 12.625969 128 128 255 0.999623 -0.026564 -0.006997
0.128834 1.689839 -12.376911 128 128 255 -0.999746 0.017098 0.014660
0.121087 2.727430 -3.146590 128 128 255 -0.999292 0.023347 0.029501
0.091391 0.177539 6.041241 128 128 255 -0.999480 0.028637 0.014839
-0.004312 -11.610054 21.325314 128 128 255 0.999802 -0.015370 -0.012602
0.099467 -3.671839 -14.687974 128 128 255 -0.999490 0.029951 0.011117
0.128257 2.955198 -6.921874 128 128 255 -0.999254 0.025418 0.029089
0.107258 1.686610 1.720547 128 128 255 -0.971781 -0.224514 -0.072357
0.054202 -3.958554 13.763773 128 128 255 -0.999563 0.026451 0.013185
-0.016313 -18.210199 2.686434 128 128 255 0.999551 -0.029037 -0.007442
0.130449 2.275807 -11.081617 128 128 255 -0.999886 0.005515 0.014078
0.118350 2.557057 -2.040242 128 128 255 0.999276 -0.026354 -0.027450
0.085027 -0.480968 7.560967 128 128 255 0.999496 -0.030380 -0.009166
-0.027429 -15.117014 22.369377 128 128 255 0.999793 -0.017963 -0.009554
0.114532 -1.223120 -14.713638 128 128 255 -0.999533 0.027941 0.012389
0.126433 2.949821 -5.749949 128 128 255 -0.999332 0.021280 0.029722
0.103115 1.314979 2.938584 128 128 255 -0.999731 0.020305 0.011250
0.040266 -5.658939 16.053919 128 128 255 0.999640 -0.021475 -0.016059
0.026205 -13.530836 -6.340711 128 128 255 -0.999501 0.030476 0.008335
0.130686 2.637810 -9.783732 128 128 255 -0.998089 -0.061741 -0.002457
0.115353 2.345319 -0.929881 128 128 255 0.999249 -0.029915 -0.024637
0.077566 -1.282173 9.224557 128 128 255 0.997770 -0.043690 0.050467
-0.046256 -18.558397 20.871389 128 128 255 0.999731 -0.021898 -0.007646
0.123246 0.394812 -13.919624 128 128 255 -0.999606 0.024584 0.013573
0.124294 2.885407 -4.609544 128 128 255 -0.999324 0.020851 0.030263
0.098464 0.877227 4.223319 128 128 255 -0.999578 0.026069 0.012797
0.023187 -7.842442 18.461206 128 128 255 0.999727 -0.016947 -0.016059
0.065126 -8.589206 -11.963449 128 128 255 -0.999477 0.030911 0.009470
0.130023 2.845246 -8.517503 128 128 255 -0.998222 0.049840 0.032705
0.112069 2.090973 0.196856 128 128 255 -0.999125 0.035310 0.022416
0.068691 -2.271127 11.060084 128 128 255 0.999481 -0.032074 -0.002942
-0.049435 -20.477797 15.247997 128 128 255 0.999648 -0.025589 -0.006998
0.127940 1.446859 -12.767365 128 128 255 -0.999708 0.019326 0.014492
0.121886 2.771756 -3.490961 128 128 255 -0.999299 0.022556 0.029881
0.093183 0.358226 5.594589 128 128 255 -0.999498 0.028253 0.014331
0.002669 -10.620279 20.731926 128 128 255 0.999792 -0.015163 -0.013611
0.093028 -4.647863 -14.394377 128 128 255 -0.999482 0.030341 0.010720
0.128748 2.942584 -7.293269 128 128 255 -0.999185 0.027990 0.029098
0.108456 1.790279 1.353331 128 128 255 -0.997321 0.066726 0.029984
0.057980 -3.510389 13.091599 128 128 255 0.999544 -0.027847 -0.011676
-0.027634 -19.263155 5.864936 128 128 255 0.999571 -0.028381 -0.007243
0.130125 2.122061 -11.486485 128 128 255 -0.999842 0.010231 0.014561
0.119226 2.614368 -2.383465 128 128 255 -0.999280 0.025364 0.028208
0.087106 -0.263058 7.075233 128 128 255 -0.999466 0.029368 0.014335
-0.020324 -13.992439 22.236162 128 128 255 0.999803 -0.016916 -0.010412
0.110669 -1.880044 -14.823859 128 128 255 -0.999516 0.028695 0.011998
0.127036 2.958409 -6.109864 128 128 255 -0.999322 0.022060 0.029484
0.104450 1.436811 2.554288 128 128 255 -0.999825 0.015742 0.010073
0.044901 -5.085284 15.324800 128 128 255 0.999614 -0.023065 -0.015471
0.012724 -15.106866 -3.849313 128 128 255 -0.999514 0.030138 0.008024
0.130726 2.544652 -10.184105 128 128 255 -0.999791 -0.018249 0.009218
0.116312 2.415483 -1.275634 128 128 255 0.999261 -0.028728 -0.025530
0.080016 -1.015834 8.691175 128 128 255 0.990962 -0.056481 0.121674
-0.041473 -17.568201 21.717415 128 128 255 0.999754 -0.020649 -0.008092
0.121063 -0.035815 -14.220092 128 128 255 -0.999580 0.025793 0.013222
0.124988 2.911027 -4.960648 128 128 255 -0.999331 0.020699 0.030164
0.099969 1.020969 3.816330 128 128 255 -0.999613 0.024917 0.012398
0.028854 -7.105678 17.711740 128 128 255 0.999701 -0.018163 -0.016366
0.054103 -10.047602 -10.607347 128 128 255 -0.999482 0.030882 0.009100
0.130305 2.794351 -8.906154 128 128 255 0.996292 -0.076448 -0.039463
0.113121 2.174643 -0.155356 128 128 255 0.999187 -0.033191 -0.022902
0.071620 -1.940752 10.470410 128 128 255 -0.984789 0.154563 0.079376
0.221965 1.240838 7.804628 128 128 255 -0.999994 -0.003452 0.000855
0.333845 16.441683 -17.062893 128 128 255 0.999593 -0.026805 -0.009746
-0.218361 -5.814345 -13.385818 128 128 255 0.999919 -0.012466 -0.002598
0.113780 2.200017 -3.476783 128 128 255 0.998672 -0.051397 0.003632
0.189386 2.420830 2.396733 128 128 255 0.999828 0.018069 0.004303
0.347441 -38.020298 106.959892 128 128 255 -0.999598 0.026989 0.008634
1.190685 36.337387 10.258335 128 128 255 0.999621 -0.026117 -0.008715
0.055048 1.134757 -6.022938 128 128 255 0.999484 -0.014054 -0.028868
0.159856 2.610925 -0.520785 128 128 255 0.999556 -0.004345 -0.029485
0.234092 0.299632 10.950103 128 128 255 -0.999870 0.015641 0.004025
0.383106 15.775803 -11.409043 128 128 255 0.999666 -0.024155 -0.009146
-0.095878 -2.521343 -10.493280 128 128 255 0.999871 -0.015344 -0.004846
0.126167 2.363262 -2.801130 128 128 255 0.998742 -0.049806 -0.005829
0.198530 2.229043 3.600023 128 128 255 -0.999979 -0.005515 -0.003273
0.213054 47.042248 -96.283371 128 128 255 0.999551 -0.028445 -0.009370
-15.074378 -436.546967 -293.552673 128 128 255 0.999997 -0.002509 0.000729
0.076983 1.575669 -5.169142 128 128 255 -0.990603 -0.048815 0.127761
0.168888 2.606729 0.249794 128 128 255 0.999241 0.034861 -0.017388
0.248707 -1.451651 16.133022 128 128 255 -0.999788 0.019768 0.005802
0.457256 16.671209 -7.180357 128 128 255 0.999748 -0.020966 -0.008072
-0.027942 -0.786758 -8.681588 128 128 255 0.999810 -0.017665 -0.008181
0.137268 2.481432 -2.132216 128 128 255 0.998755 -0.047843 -0.014100
0.208143 1.925725 5.094480 128 128 255 -0.999994 0.003140 -0.001109
0.282102 21.702745 -33.293449 128 128 255 0.999543 -0.028598 -0.009794
-0.718643 -19.942284 -23.671432 128 128 255 0.999965 -0.008370 -0.000878
0.094717 1.898362 -4.402653 128 128 255 0.997119 -0.066839 0.035849
0.177746 2.560876 1.099818 128 128 255 0.999257 0.038508 -0.001438
0.268734 -5.417419 26.768341 128 128 255 -0.999700 0.023404 0.007233
0.592229 19.740410 -2.730222 128 128 255 0.999808 -0.018371 -0.006817
0.015920 0.267289 -7.363260 128 128 255 0.999736 -0.018734 -0.013332
0.147450 2.560933 -1.453538 128 128 255 0.998929 -0.040266 -0.022811
0.218523 1.444407 7.055241 128 128 255 -0.999956 0.009352 0.001228
0.321120 17.049089 -19.505661 128 128 255 0.999576 -0.027422 -0.009829
-0.279889 -7.512614 -14.739425 128 128 255 0.999931 -0.011526 -0.002081
0.109599 2.138605 -3.690565 128 128 255 0.998590 -0.052539 0.007570
0.186608 2.463774 2.065683 128 128 255 0.999730 0.022873 0.004028
0.310325 -20.259415 63.759914 128 128 255 -0.999619 0.026294 0.008347
0.936336 29.111858 5.125391 128 128 255 0.999775 -0.020099 -0.006772
0.047067 0.965186 -6.312901 128 128 255 0.999595 -0.016528 -0.023187
0.156990 2.604612 -0.748094 128 128 255 0.999429 -0.016541 -0.029480
0.230128 0.650053 9.825479 128 128 255 -0.999892 0.014264 0.003406
0.366023 15.807261 -12.919662 128 128 255 0.999642 -0.025069 -0.009388
-0.125554 -3.304372 -11.227574 128 128 255 0.999887 -0.014488 -0.004047
0.122481 2.317835 -3.009304 128 128 255 0.998736 -0.050154 -0.003172
0.195653 2.298410 3.201107 128 128 255 -0.999953 -0.008931 -0.003793
0.106532 102.736687 -230.918091 128 128 255 -0.999562 0.028128 0.009173
4.026946 118.397713 64.138756 128 128 255 0.999980 0.005352 0.003363
0.070708 1.453715 -5.422857 128 128 255 0.998116 0.004803 -0.061159
0.166111 2.612185 0.003531 128 128 255 0.999423 0.025109 -0.022859
0.243796 -0.772912 14.187803 128 128 255 -0.999814 0.018534 0.005287
0.430182 16.219151 -8.441995 128 128 255 0.999723 -0.021961 -0.008447
-0.045617 -1.228370 -9.174767 128 128 255 0.999830 -0.017037 -0.007003
0.133936 2.449118 -2.340090 128 128 255 0.998745 -0.048741 -0.011512
0.205093 2.034937 4.591089 128 128 255 -0.999998 0.000782 -0.001824
0.268268 25.003420 -41.906353 128 128 255 0.999541 -0.028694 -0.009700
-1.090230 -30.627386 -30.879112 128 128 255 0.999974 -0.007219 -0.000573
0.089569 1.808351 -4.633410 128 128 255 0.993850 -0.087208 0.068244
0.175005 2.580027 0.825580 128 128 255 0.999138 0.041161 -0.005317
0.261560 -3.755418 22.413980 128 128 255 -0.999727 0.022340 0.006825
0.539457 18.441576 -4.247127 128 128 255 0.999794 -0.019001 -0.007188
0.004022 -0.011665 -7.736558 128 128 255 0.999761 -0.018606 -0.011447
0.144370 2.540164 -1.666203 128 128 255 0.998842 -0.043720 -0.020076
0.215196 1.618937 6.381112 128 128 255 -0.999971 0.007607 0.000510
0.309007 17.941666 -22.540344 128 128 255 0.999561 -0.027924 -0.009865
-0.362858 -9.829852 -16.503424 128 128 255 0.999943 -0.010576 -0.001640
0.105227 2.071375 -3.907283 128 128 255 0.998435 -0.054465 0.012652
0.183847 2.500231 1.750749 128 128 255 0.999603 0.027973 0.003235
0.291803 -12.676802 45.091114 128 128 255 -0.999643 0.025497 0.008033
0.782835 24.828741 1.852683 128 128 255 0.999810 -0.018411 -0.006395
0.038380 0.775918 -6.617990 128 128 255 0.999656 -0.017853 -0.019195
0.154084 2.594846 -0.970990 128 128 255 0.999255 -0.026431 -0.028139
0.226357 0.943342 8.845927 128 128 255 -0.999914 0.012829 0.002757
0.350719 15.988085 -14.617382 128 128 255 0.999618 -0.025907 -0.009579
-0.161699 -4.272531 -12.089274 128 128 255 0.999902 -0.013593 -0.003341
0.118658 2.267829 -3.218624 128 128 255 0.998720 -0.050579 -0.000326
0.192815 2.358494 2.826301 128 128 255 0.999910 0.012770 0.004164
0.695468 -227.591843 564.000549 128 128 255 -0.999577 0.027687 0.008947
1.883960 56.291348 23.663721 128 128 255 -0.934684 -0.333533 -0.122969
0.063980 1.319089 -5.686110 128 128 255 0.999143 -0.007732 -0.040668
0.163314 2.613845 -0.236009 128 128 255 0.999560 0.012305 -0.027007
0.239252 -0.229708 12.579320 128 128 255 -0.999840 0.017258 0.004740
0.407140 15.930186 -9.731957 128 128 255 0.999698 -0.022965 -0.008787
-0.066049 -1.748089 -9.724096 128 128 255 0.999849 -0.016318 -0.005961
0.130507 2.412956 -2.547514 128 128 255 0.998743 -0.049323 -0.008962
0.202107 2.129804 4.125379 128 128 255 -0.999995 -0.001852 -0.002510
0.250697 30.706837 -56.255135 128 128 255 0.999543 -0.028661 -0.009571
-1.982309 -56.424664 -47.854927 128 128 255 0.999984 -0.005737 -0.000196
0.084117 1.709635 -4.870186 128 128 255 0.943794 -0.210306 0.255000
0.172259 2.594635 0.561171 128 128 255 0.999111 0.040861 -0.010339
0.255367 -2.543415 19.157549 128 128 255 -0.999755 0.021215 0.006384
0.497786 17.490358 -5.612839 128 128 255 0.999775 -0.019819 -0.007586
-0.009295 -0.330442 -8.139645 128 128 255 0.999785 -0.018275 -0.009847
0.141222 2.515915 -1.876826 128 128 255 0.998788 -0.046049 -0.017350
0.211970 1.769284 5.769970 128 128 255 -0.999984 0.005712 -0.000218
0.297119 19.238594 -26.468319 128 128 255 0.999551 -0.028305 -0.009858
-0.481109 -13.167712 -18.938175 128 128 255 0.999953 -0.009610 -0.001267
0.100644 1.997801 -4.127568 128 128 255 0.998125 -0.057876 0.019908
0.181098 2.530796 1.450121 128 128 255 0.999451 0.033081 0.001723
0.279653 -8.500188 34.643921 128 128 255 0.997715 0.065028 0.018341
0.200051 -0.393754 -8.326615 128 128 255 -0.997804 -0.062156 0.022883
0.112653 2.413061 -6.470114 128 128 255 -0.999660 0.020461 0.016165
0.066888 0.790530 1.667421 128 128 255 -0.999728 0.021934 0.007868
0.073172 -1.932234 7.375303 128 128 255 -0.999693 0.022678 0.009940
0.176011 -3.083491 0.205527 128 128 255 0.999654 -0.025572 -0.006086
0.152456 2.213045 -9.814123 128 128 255 0.998165 -0.056847 -0.020875
0.080106 1.673221 -1.642321 128 128 255 -0.999646 0.024019 0.011459
0.062847 -0.634384 5.355739 128 128 255 0.999653 -0.021266 -0.015563
0.117992 -3.467474 6.645256 128 128 255 0.999841 -0.016649 -0.006451
0.193913 0.476087 -9.755074 128 128 255 -0.999781 0.018404 0.009985
0.103250 2.305418 -5.321200 128 128 255 -0.999727 0.018149 0.014722
0.064581 0.487537 2.590129 128 128 255 -0.999597 0.026634 0.009826
0.079759 -2.341548 7.693690 128 128 255 0.999759 -0.019435 -0.010172
0.190158 -2.444809 -2.627702 128 128 255 -0.999615 0.026864 0.006994
0.139165 2.393290 -8.960356 128 128 255 -0.999116 0.037564 0.018892
0.075176 1.427337 -0.601002 128 128 255 -0.999562 0.027318 0.011359
0.064426 -1.010035 6.075081 128 128 255 0.999456 -0.032911 -0.001964
0.134736 -3.597445 5.344729 128 128 255 0.999798 -0.019326 -0.005591
0.183423 1.203661 -10.437470 128 128 255 -0.999953 0.003170 0.009205
0.095039 2.151545 -4.179200 128 128 255 -0.999743 0.018338 0.013364
0.063059 0.168161 3.475758 128 128 255 -0.999550 0.027804 0.011229
0.088464 -2.739446 7.782925 128 128 255 0.999815 -0.016693 -0.009561
0.198811 -1.608779 -5.392601 128 128 255 -0.999607 0.026855 0.008051
0.126882 2.458359 -7.936198 128 128 255 -0.999453 0.027855 0.017814
0.071074 1.162824 0.404264 128 128 255 -0.999383 0.032809 0.012502
0.067241 -1.401433 6.712745 128 128 255 0.999604 -0.026940 -0.008109
0.152898 -3.535266 3.463338 128 128 255 0.999735 -0.022368 -0.005428
0.170490 1.754049 -10.475656 128 128 255 -0.987857 -0.154750 -0.013780
0.087926 1.962318 -3.060282 128 128 255 -0.999719 0.020263 0.012290
0.062366 -0.167970 4.320912 128 128 255 -0.999464 0.028789 0.015589
0.099571 -3.102921 7.562664 128 128 255 0.999847 -0.015374 -0.008289
0.200787 -0.681136 -7.731190 128 128 255 -0.999643 0.025142 0.009086
0.115826 2.434839 -6.824051 128 128 255 -0.999626 0.021753 0.016591
0.067760 0.881256 1.373771 128 128 255 -0.999871 0.015169 0.005371
0.071511 -1.805288 7.240097 128 128 255 -0.999673 0.023684 0.009689
0.170838 -3.231101 1.042444 128 128 255 0.999672 -0.024947 -0.005862
0.156716 2.129100 -10.027134 128 128 255 0.997283 -0.070139 -0.022529
0.081813 1.745344 -1.972782 128 128 255 -0.999667 0.023068 0.011592
0.062579 -0.521241 5.119119 128 128 255 0.999658 -0.023397 -0.011663
0.113239 -3.397300 6.937338 128 128 255 0.999848 -0.016059 -0.006842
0.196373 0.218491 -9.393526 128 128 255 -0.999737 0.020720 0.009866
0.106037 2.344385 -5.678060 128 128 255 -0.999712 0.018573 0.015172
0.065214 0.583311 2.307645 128 128 255 -0.999620 0.025885 0.009422
0.077502 -2.214932 7.616145 128 128 255 0.999739 -0.020425 -0.010192
0.186265 -2.667962 -1.738232 128 128 255 -0.999624 0.026590 0.006689
0.143199 2.351028 -9.248297 128 128 255 -0.998939 0.041828 0.019295
0.076615 1.505743 -0.920310 128 128 255 0.999592 -0.026237 -0.011325
0.063813 -0.891679 5.859516 128 128 255 -0.998941 0.044411 -0.012062
0.129333 -3.574928 5.809409 128 128 255 0.999814 -0.018408 -0.005784
0.187026 0.996058 -10.301150 128 128 255 -0.999903 0.009946 0.009760
0.097465 2.203517 -4.531710 128 128 255 -0.999742 0.018052 0.013762
0.063446 0.269051 3.205029 128 128 255 -0.999562 0.027570 0.010722
0.085518 -2.618362 7.784240 128 128 255 0.999800 -0.017435 -0.009836
0.196813 -1.883656 -4.564533 128 128 255 -0.999605 0.027015 0.007717
0.130569 2.448800 -8.266681 128 128 255 -0.999373 0.030400 0.018148
0.072262 1.246793 0.096130 128 128 255 -0.999468 0.030398 0.011833
0.066223 -1.278426 6.525102 128 128 255 0.999579 -0.028099 -0.007191
0.147193 -3.578532 4.109314 128 128 255 0.999756 -0.021442 -0.005407
0.174659 1.602641 -10.523627 128 128 255 -0.999209 -0.039596 0.003670
0.090022 2.024313 -3.404444 128 128 255 -0.999730 0.019534 0.012585
0.062489 -0.061834 4.063271 128 128 255 -0.999515 0.028216 0.013199
0.095854 -2.995636 7.669685 128 128 255 0.999840 -0.015580 -0.008730
0.200900 -0.971424 -7.069294 128 128 255 -0.999626 0.025896 0.008778
0.119121 2.450209 -7.174877 128 128 255 -0.999583 0.023326 0.016997
0.068706 0.970409 1.076697 128 128 255 -0.782745 -0.582278 -0.219686
0.070015 -1.678938 7.090432 128 128 255 -0.999652 0.024681 0.009342
0.165423 -3.353349 1.843650 128 128 255 0.999690 -0.024230 -0.005675
0.161004 2.030365 -10.208561 128 128 255 0.994824 -0.098125 -0.026411
0.083609 1.815300 -2.306635 128 128 255 -0.999686 0.022145 0.011766
0.062410 -0.409757 4.876975 128 128 255 0.999698 -0.023434 -0.007429
0.108723 -3.315959 7.180830 128 128 255 0.999851 -0.015633 -0.007273
0.198355 -0.051214 -8.958171 128 128 255 -0.999700 0.022500 0.009673
0.108941 2.378528 -6.034984 128 128 255 -0.999692 0.019257 0.015623
0.065922 0.677516 2.021659 128 128 255 -0.999655 0.024722 0.008921
0.075441 -2.087775 7.518704 128 128 255 0.999719 -0.021437 -0.010130
0.181896 -2.869379 -0.853593 128 128 255 -0.999636 0.026198 0.006402
0.147320 2.296821 -9.516970 128 128 255 0.998686 -0.047252 -0.019826
0.078135 1.582295 -1.243096 128 128 255 -0.999618 0.025218 0.011355
0.063312 -0.774905 5.636806 128 128 255 0.999294 -0.003921 -0.037365
0.124106 -3.535643 6.218437 128 128 255 0.999828 -0.017555 -0.006046
0.190341 0.771679 -10.098286 128 128 255 -0.999845 0.014512 0.009976
0.100000 2.251824 -4.886123 128 128 255 -0.999738 0.017961 0.014184
0.063910 0.368340 2.930551 128 128 255 -0.999576 0.027238 0.010299
0.082795 -2.494839 7.758461 128 128 255 0.999782 -0.018288 -0.010036
0.194181 -2.146005 -3.704926 128 128 255 -0.999607 0.027030 0.007387
0.134370 2.429995 -8.586775 128 128 255 -0.999274 0.033322 0.018474
0.073525 1.329089 -0.215460 128 128 255 -0.999518 0.028822 0.011523
0.065338 -1.156765 6.327885 128 128 255 0.999546 -0.029578 -0.005760
0.141529 -3.599588 4.699862 128 128 255 0.999775 -0.020490 -0.005448
0.178708 1.433824 -10.519760 128 128 255 -0.999904 -0.011652 0.007513
0.092217 2.083456 -3.751481 128 128 255 -0.999738 0.018913 0.012916
0.062696 0.042659 3.801369 128 128 255 -0.999535 0.028014 0.012078
0.092382 -2.882963 7.740726 128 128 255 0.999831 -0.015977 -0.009136
0.200363 -1.261068 -6.346812 128 128 255 -0.999615 0.026439 0.008456
0.122539 2.458578 -7.521237 128 128 255 -0.999532 0.025183 0.017379
0.069726 1.057977 0.776199 128 128 255 -0.999048 0.040849 0.015296
0.068676 -1.553423 6.927673 128 128 255 0.999631 -0.025677 -0.008883
0.159842 -3.450299 2.602170 128 128 255 0.999710 -0.023433 -0.005533
0.165294 1.916027 -10.353915 128 128 255 0.999770 0.021189 0.003238
-0.054871 -1.705997 -13.369667 128 128 255 0.995813 -0.090432 0.013385
0.135181 2.784990 -3.376221 128 128 255 0.998977 -0.045224 -0.000019
0.183904 2.061952 4.571422 128 128 255 -0.999970 -0.005759 -0.005201
0.357598 34.432110 -67.511360 128 128 255 -0.999721 0.020461 0.011812
5.383711 170.285919 147.684418 128 128 255 0.999647 -0.024637 -0.009926
0.096303 2.179801 -6.321358 128 128 255 0.925402 0.240831 -0.292629
0.165913 2.765453 0.382483 128 128 255 0.995631 0.092086 0.015487
0.195610 -3.433552 21.772068 128 128 255 -0.999795 0.017199 0.010655
0.417848 15.925901 -7.078393 128 128 255 0.999975 0.005551 -0.004293
0.006669 0.007437 -10.878511 128 128 255 0.999765 -0.016198 -0.014419
0.143520 2.847852 -2.552099 128 128 255 0.999504 -0.031010 -0.005489
0.188663 1.596771 6.481439 128 128 255 -0.999987 0.005125 -0.000487
0.326481 20.487259 -31.192488 128 128 255 0.999724 -0.020744 -0.011063
-0.738068 -22.580055 -35.703598 128 128 255 0.999772 -0.019564 -0.008596
0.110627 2.446239 -5.361110 128 128 255 0.995358 -0.086000 0.043199
0.171689 2.641124 1.435636 128 128 255 0.997829 0.063571 0.017224
0.182355 -10.014895 39.085297 128 128 255 -0.999764 0.018005 0.012137
0.509945 18.095030 -2.215110 128 128 255 -0.205384 0.953389 0.221058
0.045023 1.007587 -9.131402 128 128 255 0.999691 -0.013577 -0.020827
0.150978 2.869887 -1.716933 128 128 255 0.999969 -0.002585 -0.007476
0.192879 0.884231 9.036686 128 128 255 -0.999927 0.011561 0.003612
0.334106 16.729185 -19.475676 128 128 255 0.999764 -0.019168 -0.010231
-0.233702 -7.004419 -19.691214 128 128 255 0.999809 -0.017519 -0.008657
0.122397 2.631620 -4.475748 128 128 255 0.998158 -0.059233 0.013080
0.177160 2.451603 2.639387 128 128 255 0.999428 0.031485 0.012354
0.064810 -48.088661 134.321198 128 128 255 -0.999742 0.018981 0.012475
0.729250 24.447729 5.953407 128 128 255 -0.998886 0.044682 0.015208
0.071522 1.645939 -7.773008 128 128 255 0.999387 -0.003961 -0.034790
0.157769 2.852415 -0.848582 128 128 255 0.998758 0.049800 -0.001608
0.196015 -0.278411 12.755139 128 128 255 -0.999860 0.015128 0.007141
0.357742 15.504074 -13.107946 128 128 255 0.999856 -0.014400 -0.008974
-0.082522 -2.502545 -14.412331 128 128 255 0.999806 -0.016916 -0.010090
0.132369 2.756492 -3.633094 128 128 255 0.998824 -0.048438 0.002264
0.182352 2.172630 4.066494 128 128 255 -0.999922 -0.010429 -0.006805
0.402659 49.122559 -104.292519 128 128 255 -0.999725 0.020157 0.012027
1.896822 60.738735 42.347172 128 128 255 0.999571 -0.027273 -0.010668
0.091165 2.075692 -6.641241 128 128 255 0.992954 0.058109 -0.103274
0.164049 2.793185 0.078238 128 128 255 0.995686 0.091969 0.012287
0.196561 -2.395217 18.903143 128 128 255 -0.999808 0.016877 0.009965
0.399439 15.627657 -8.439301 128 128 255 0.999978 -0.002371 -0.006150
-0.009100 -0.421584 -11.545724 128 128 255 0.999778 -0.016501 -0.013084
0.141039 2.832871 -2.808045 128 128 255 0.999330 -0.036375 -0.004080
0.187231 1.761809 5.834674 128 128 255 -0.999996 0.002323 -0.001879
0.329088 22.831089 -37.612946 128 128 255 0.999720 -0.020806 -0.011300
-1.275042 -39.370121 -52.155113 128 128 255 0.999746 -0.020715 -0.008853
0.106500 2.373502 -5.649311 128 128 255 0.990867 -0.113398 0.072962
0.169931 2.685871 1.095301 128 128 255 0.997049 0.074665 0.017847
0.189144 -7.138911 31.639652 128 128 255 -0.999773 0.017762 0.011804
0.474134 17.170509 -3.873199 128 128 255 0.997200 0.073873 0.011615
0.034734 0.746556 -9.621023 128 128 255 0.999722 -0.014775 -0.018391
0.148743 2.867268 -1.978603 128 128 255 0.999878 -0.013730 -0.007413
0.191651 1.140832 8.151435 128 128 255 -0.999948 0.009929 0.002400
0.329806 17.506601 -22.227503 128 128 255 0.999746 -0.019922 -0.010510
-0.320215 -9.640451 -22.540199 128 128 255 0.999803 -0.017938 -0.008494
0.118965 2.581316 -4.744626 128 128 255 0.997771 -0.064084 0.018607
0.175492 2.518598 2.245947 128 128 255 0.999089 0.040294 0.014084
0.138153 -25.227859 77.471420 128 128 255 -0.999748 0.018640 0.012478
0.634686 21.627941 2.662477 128 128 255 -0.998109 0.058600 0.018572
0.064198 1.475204 -8.164820 128 128 255 0.999546 -0.008417 -0.028916
0.155722 2.862128 -1.123053 128 128 255 0.999496 0.031408 -0.004625
0.195216 0.151051 11.424902 128 128 255 -0.999880 0.014260 0.006111
0.348778 15.718780 -14.804860 128 128 255 0.999822 -0.016350 -0.009450
-0.116817 -3.505686 -15.661817 128 128 255 0.999810 -0.017026 -0.009493
0.129433 2.723361 -3.891640 128 128 255 0.998660 -0.051512 0.004926
0.180771 2.270849 3.593816 128 128 255 -0.999838 -0.015892 -0.008476
0.567960 99.601501 -229.418671 128 128 255 -0.999729 0.019804 0.012217
1.211158 39.298092 21.344019 128 128 255 0.999460 -0.030748 -0.011626
0.085619 1.959107 -6.974362 128 128 255 0.997762 0.020990 -0.063486
0.162147 2.816326 -0.217396 128 128 255 0.996362 0.084842 0.008037
0.196848 -1.578773 16.591871 128 128 255 -0.999822 0.016472 0.009180
0.384009 15.458418 -9.812064 128 128 255 0.999945 -0.007520 -0.007356
-0.027544 -0.933011 -12.298334 128 128 255 0.999789 -0.016688 -0.011961
0.138465 2.813875 -3.063565 128 128 255 0.999166 -0.040762 -0.002409
0.185756 1.907126 5.239445 128 128 255 -0.999994 -0.000966 -0.003333
0.336267 26.426094 -47.077526 128 128 255 0.999719 -0.020721 -0.011534
-3.276522 -102.214256 -112.722710 128 128 255 0.999711 -0.022211 -0.009246
0.102101 2.292219 -5.945797 128 128 255 0.962219 -0.208662 0.174914
0.168143 2.724904 0.767691 128 128 255 0.996265 0.084545 0.017549
0.193063 -5.152205 26.403412 128 128 255 -0.999782 0.017523 0.011356
0.445615 16.495417 -5.369463 128 128 255 0.999691 0.024852 0.000221
0.023114 0.444879 -10.154128 128 128 255 0.999744 -0.015579 -0.016401
0.146440 2.860867 -2.237773 128 128 255 0.999721 -0.022608 -0.006794
0.190344 1.363217 7.355081 128 128 255 -0.999967 0.007986 0.001135
0.327098 18.579725 -25.637157 128 128 255 0.999733 -0.020422 -0.010766
-0.450265 -13.642100 -26.710546 128 128 255 0.999792 -0.018533 -0.008460
0.115344 2.524748 -5.018424 128 128 255 0.997122 -0.071030 0.026517
0.173798 2.577944 1.871250 128 128 255 0.998614 0.050235 0.015684
0.166318 -15.888685 54.030418 128 128 255 -0.999755 0.018334 0.012389
0.568308 19.707062 0.184526 128 128 255 -0.995316 0.092939 0.026621
0.056120 1.281543 -8.581592 128 128 255 0.999632 -0.011308 -0.024676
0.153623 2.867952 -1.392735 128 128 255 0.999873 0.014574 -0.006513
0.194244 0.513275 10.267018 128 128 255 -0.999900 0.013189 0.005021
0.341311 16.071438 -16.717730 128 128 255 0.999792 -0.017841 -0.009838
-0.160536 -4.802633 -17.202578 128 128 255 0.999811 -0.017190 -0.009035
0.126360 2.685312 -4.152557 128 128 255 0.998470 -0.054701 0.008108
0.179163 2.358091 3.149334 128 128 255 0.999700 0.022269 0.010203
-1.241360 -438.952881 1100.026978 128 128 255 -0.999735 0.019430 0.012368
0.918386 30.222210 12.148698 128 128 255 -0.999286 0.035523 0.012893
0.079608 1.828290 -7.322789 128 128 255 0.997908 0.030309 -0.057099
0.032088 -0.046741 0.848933 128 128 255 0.999587 -0.028353 -0.004628
0.110911 -0.108495 3.132948 128 128 255 0.999843 -0.016831 -0.005543
0.231682 0.251339 0.457591 128 128 255 -0.999699 0.023927 0.005380
0.128196 0.717718 -7.776398 128 128 255 -0.999304 0.034357 0.014506
0.015701 0.088282 -1.286082 128 128 255 0.999686 -0.023840 -0.007704
0.071110 -0.118607 2.540733 128 128 255 -0.998280 0.054944 -0.020457
0.176725 0.015858 2.649755 128 128 255 0.999874 -0.015514 -0.003482
0.234342 0.696440 -5.541480 128 128 255 0.998266 -0.057224 -0.013831
0.026147 0.324892 -4.309566 128 128 255 -0.999847 0.015533 0.007988
0.039755 -0.072449 1.338786 128 128 255 0.999664 -0.024761 -0.007709
0.124734 -0.092905 3.174509 128 128 255 0.999877 -0.014817 -0.005066
0.244237 0.352088 -0.681184 128 128 255 -0.999729 0.022390 0.006353
0.094148 0.641302 -7.362246 128 128 255 -0.999516 0.027964 0.013610
0.018802 0.038288 -0.549965 128 128 255 -0.999610 0.026577 0.008524
0.082220 -0.121663 2.785935 128 128 255 0.999712 -0.023407 -0.005265
0.193858 0.071244 2.211261 128 128 255 0.999825 -0.018348 -0.003605
0.209336 0.753962 -6.781454 128 128 255 0.998734 -0.048236 -0.014253
0.018559 0.241226 -3.311840 128 128 255 -0.999833 0.016855 0.007122
0.048319 -0.092410 1.766994 128 128 255 0.999651 -0.024863 -0.008871
0.139455 -0.070223 3.136170 128 128 255 0.999898 -0.013560 -0.004480
0.251507 0.462185 -2.043889 128 128 255 -0.999938 0.009057 0.006475
0.065827 0.547221 -6.603073 128 128 255 -0.999686 0.021956 0.012053
0.023667 -0.003316 0.104518 128 128 255 0.999577 -0.027726 -0.008749
0.094104 -0.119585 2.975543 128 128 255 -0.999780 0.020127 0.005823
0.210952 0.139842 1.592541 128 128 255 0.999762 -0.021416 -0.004167
0.176190 0.767313 -7.570469 128 128 255 0.999001 -0.042224 -0.014662
0.015228 0.168192 -2.380552 128 128 255 -0.999782 0.019645 0.007016
0.057687 -0.107056 2.137731 128 128 255 0.999687 -0.023028 -0.009794
0.155067 -0.039339 3.002727 128 128 255 0.999902 -0.013479 -0.003910
0.250845 0.573017 -3.561958 128 128 255 0.968552 -0.247175 -0.028505
0.044370 0.448178 -5.650669 128 128 255 -0.999795 0.017511 0.010147
0.029913 -0.037504 0.683551 128 128 255 0.999529 0.019803 0.023453
0.106799 -0.112032 3.105633 128 128 255 0.999830 -0.017555 -0.005654
0.227084 0.222709 0.762310 128 128 255 -0.999708 0.023627 0.005064
0.139505 0.735547 -7.811349 128 128 255 -0.999234 0.036287 0.014639
0.015177 0.105664 -1.531882 128 128 255 0.999710 -0.022874 -0.007483
0.067815 -0.116643 2.453642 128 128 255 0.999768 -0.012533 -0.017514
0.171491 0.001115 2.754135 128 128 255 0.999884 -0.014823 -0.003532
0.239972 0.671108 -5.094064 128 128 255 0.997953 -0.062433 -0.013878
0.029539 0.352874 -4.627592 128 128 255 -0.999843 0.015582 0.008413
0.037274 -0.065111 1.193591 128 128 255 0.999689 -0.023966 -0.006942
0.120349 -0.098457 3.169569 128 128 255 0.999868 -0.015379 -0.005230
0.240789 0.319552 -0.302315 128 128 255 -0.999707 0.023430 0.006076
0.104204 0.667585 -7.535020 128 128 255 -0.999454 0.029954 0.013965
0.017629 0.052858 -0.769423 128 128 255 -0.999633 0.025805 0.008263
0.078691 -0.121254 2.715670 128 128 255 0.999677 -0.024994 -0.004547
0.188514 0.052710 2.365129 128 128 255 0.999842 -0.017398 -0.003519
0.218139 0.740496 -6.437116 128 128 255 0.998629 -0.050419 -0.014091
0.020408 0.266078 -3.615610 128 128 255 -0.999842 0.016237 0.007306
0.045571 -0.086801 1.640419 128 128 255 0.999649 -0.025076 -0.008608
0.134789 -0.078083 3.157446 128 128 255 0.999893 -0.013843 -0.004668
0.249974 0.427435 -1.599807 128 128 255 -0.999848 0.016107 0.006679
0.073901 0.577473 -6.866111 128 128 255 -0.999640 0.023711 0.012594
0.021994 0.008759 -0.090217 128 128 255 -0.999573 0.027824 0.008953
0.090331 -0.120796 2.922836 128 128 255 0.999762 -0.021019 -0.005778
0.205697 0.117058 1.805791 128 128 255 0.999782 -0.020501 -0.003949
0.187095 0.768173 -7.382253 128 128 255 0.998924 -0.044024 -0.014568
0.015868 0.189709 -2.661170 128 128 255 -0.999801 0.018688 0.006976
0.054697 -0.103061 2.028633 128 128 255 0.999672 -0.023810 -0.009435
0.150129 -0.049879 3.055425 128 128 255 0.999902 -0.013356 -0.004075
0.252055 0.539270 -3.081233 128 128 255 -0.995430 -0.095475 -0.001776
0.050289 0.478837 -5.958736 128 128 255 -0.999768 0.018652 0.010746
0.027845 -0.027634 0.511529 128 128 255 0.997989 0.046497 0.043071
0.102770 -0.114990 3.071971 128 128 255 0.999816 -0.018314 -0.005742
0.222257 0.195444 1.044285 128 128 255 -0.999722 0.023108 0.004761
0.150958 0.749853 -7.795778 128 128 255 -0.999163 0.038173 0.014708
0.014893 0.123985 -1.786031 128 128 255 0.999734 -0.021876 -0.007293
0.064592 -0.114200 2.361376 128 128 255 0.999740 -0.019386 -0.012013
0.166317 -0.012555 2.845026 128 128 255 0.999892 -0.014254 -0.003617
0.244528 0.642990 -4.628511 128 128 255 0.997351 -0.071328 -0.014236
0.033481 0.381696 -4.946947 128 128 255 -0.999834 0.015887 0.008901
0.034882 -0.057204 1.042318 128 128 255 0.999739 -0.022152 -0.005526
0.116050 -0.103356 3.157332 128 128 255 0.999857 -0.016003 -0.005381
0.236909 0.288110 0.053783 128 128 255 -0.999698 0.023898 0.005770
0.114756 0.691740 -7.669790 128 128 255 -0.999388 0.031948 0.014251
0.016639 0.068265 -0.996919 128 128 255 -0.999656 0.024958 0.008004
0.075235 -0.120357 2.640136 128 128 255 0.999609 -0.027847 -0.002687
0.183188 0.035407 2.502609 128 128 255 0.999858 -0.016501 -0.003477
0.226037 0.722946 -6.053876 128 128 255 0.998497 -0.053006 -0.013943
0.022699 0.291945 -3.925099 128 128 255 -0.999847 0.015793 0.007566
0.042904 -0.080670 1.508209 128 128 255 0.999651 -0.025099 -0.008283
0.130211 -0.085190 3.170097 128 128 255 0.999887 -0.014228 -0.004851
0.247757 0.393103 -1.173961 128 128 255 -0.999780 0.019898 0.006608
0.082631 0.606933 -7.106360 128 128 255 -0.999587 0.025581 0.013087
0.020463 0.021575 -0.292416 128 128 255 -0.999586 0.027379 0.008813
0.086635 -0.121493 2.864558 128 128 255 0.999742 -0.021993 -0.005646
0.200386 0.095634 1.999539 128 128 255 0.999802 -0.019539 -0.003770
0.197503 0.764521 -7.141849 128 128 255 0.998844 -0.045857 -0.014440
0.016851 0.212257 -2.949531 128 128 255 -0.999817 0.017800 0.006999
0.051781 -0.098574 1.914205 128 128 255 0.999661 -0.024384 -0.009166
0.145274 -0.059542 3.097722 128 128 255 0.999902 -0.013370 -0.004254
0.252331 0.504771 -2.607400 128 128 255 -0.999908 -0.012542 0.005097
0.056870 0.509671 -6.257056 128 128 255 -0.999735 0.020020 0.011345
0.025890 -0.017108 0.332676 128 128 255 0.999718 -0.023143 -0.005392
0.098822 -0.117389 3.032188 128 128 255 0.999801 -0.019107 -0.005802
0.217250 0.169570 1.304077 128 128 255 -0.999739 0.022422 0.004477
0.162412 0.760274 -7.727399 128 128 255 0.999091 -0.040015 -0.014719
0.014869 0.143271 -2.048522 128 128 255 -0.999757 0.020866 0.007140
0.061441 -0.111279 2.263923 128 128 255 -0.999611 0.027520 -0.004627
0.159512 1.016168 7.567830 128 128 255 -0.999922 0.011731 0.004308
0.445799 28.732952 -42.919209 128 128 255 -0.998214 0.059676 0.002557
-0.349653 -13.614846 -31.143202 128 128 255 0.999316 -0.033550 -0.015579
0.122697 2.836418 -5.900905 128 128 255 -0.889723 -0.384086 0.246720
0.158196 2.478594 1.906133 128 128 255 0.976572 0.203149 0.070973
0.075252 -11.629018 39.063225 128 128 255 -0.999569 0.016523 0.024276
0.553959 22.733828 -0.934486 128 128 255 -0.999101 0.040733 0.011781
0.076979 1.719289 -10.105526 128 128 255 0.999580 -0.011901 -0.026421
0.148349 2.969727 -1.712078 128 128 255 -0.996374 0.084794 0.007047
0.156311 0.106694 10.355062 128 128 255 -0.999728 0.020926 0.010264
0.402189 21.779530 -25.103233 128 128 255 -0.999216 0.038614 0.008729
-0.103652 -4.446123 -20.224463 128 128 255 0.999429 -0.029429 -0.016610
0.130589 2.951987 -4.888500 128 128 255 0.913953 -0.382281 0.136205
0.159781 2.187633 3.274063 128 128 255 0.999237 0.034810 0.017727
-0.140000 -37.987270 97.481735 128 128 255 -0.999623 0.010323 0.025462
0.862418 34.013577 13.560284 128 128 255 -0.999119 0.039896 0.013059
0.095582 2.233643 -8.616263 128 128 255 0.999361 0.000254 -0.035740
0.152025 2.880936 -0.711842 128 128 255 -0.993254 0.114583 0.017818
0.149131 -1.313343 14.308554 128 128 255 -0.999624 0.022837 0.015173
0.403896 19.463207 -16.204668 128 128 255 -0.999205 0.038756 0.009342
-0.009939 -1.104042 -15.506340 128 128 255 0.999526 -0.024975 -0.018025
0.137077 3.010308 -3.920411 128 128 255 0.416940 -0.890313 0.183039
0.160500 1.789139 4.882592 128 128 255 -0.999989 -0.001011 -0.004516
1.184303 117.978539 -238.948044 128 128 255 -0.999672 0.000565 0.025616
10.635994 409.935822 404.172791 128 128 255 0.999182 -0.037850 -0.014239
0.109308 2.568429 -7.351586 128 128 255 0.997902 0.031327 -0.056662
0.155093 2.744655 0.353280 128 128 255 -0.979244 0.197494 0.045583
0.133709 -3.764712 20.580832 128 128 255 -0.999567 0.021849 0.019710
0.435560 19.307070 -9.845385 128 128 255 -0.999143 0.040101 0.010206
0.039358 0.555032 -12.657406 128 128 255 0.999588 -0.020209 -0.020390
0.142498 3.020941 -2.970059 128 128 255 -0.999556 0.029731 0.001807
0.160005 1.233133 6.853417 128 128 255 -0.999913 0.012887 0.002956
0.481034 33.365768 -53.661373 128 128 255 -0.984681 0.171088 -0.033651
-0.533805 -20.602098 -38.858368 128 128 255 0.999281 -0.034707 -0.015276
0.119886 2.786517 -6.229042 128 128 255 -0.974020 -0.178126 0.139845
0.157559 2.552004 1.517729 128 128 255 0.823893 0.540225 0.171339
0.097021 -8.812160 32.594887 128 128 255 -0.999561 0.018145 0.023438
0.512424 21.358530 -3.418560 128 128 255 -0.999104 0.040750 0.011384
0.069770 1.506706 -10.633460 128 128 255 0.999596 -0.014301 -0.024552
0.147076 2.988410 -2.013738 128 128 255 -0.997037 0.076773 0.004716
0.157620 0.429890 9.395886 128 128 255 -0.999769 0.019678 0.008657
0.408890 23.187956 -29.101068 128 128 255 -0.999164 0.040027 0.008311
-0.152628 -6.242249 -22.506681 128 128 255 0.999394 -0.030758 -0.016270
0.128310 2.922864 -5.196573 128 128 255 0.826251 -0.518271 0.220689
0.159371 2.287764 2.828016 128 128 255 0.998052 0.057022 0.025309
-0.026062 -24.204897 67.188583 128 128 255 -0.999602 0.012376 0.025351
0.717669 28.608076 7.174709 128 128 255 -0.999108 0.040286 0.012668
0.090442 2.097325 -9.049303 128 128 255 0.999473 -0.004550 -0.032141
0.150952 2.913292 -1.027816 128 128 255 -0.994530 0.103540 0.013757
0.151962 -0.796208 12.908249 128 128 255 -0.999652 0.022566 0.013685
0.400145 19.907408 -18.536070 128 128 255 -0.999221 0.038391 0.009155
-0.032134 -1.879310 -16.684006 128 128 255 0.999499 -0.026381 -0.017515
0.135190 2.997643 -4.217797 128 128 255 0.900663 -0.422415 0.101837
0.160386 1.926783 4.351516 128 128 255 0.999938 0.008128 0.007624
-15.144745 -1817.229614 3954.201416 128 128 255 -0.999668 0.004751 0.025309
2.047319 79.312408 61.940063 128 128 255 -0.999158 0.038611 0.013889
0.105447 2.479230 -7.725801 128 128 255 0.998696 0.017715 -0.047885
0.154204 2.792463 0.013886 128 128 255 -0.987048 0.157102 0.032492
0.139849 -2.836562 18.260834 128 128 255 -0.999579 0.022456 0.018355
0.422203 19.154324 -11.717454 128 128 255 -0.999162 0.039721 0.009896
0.026759 0.141710 -13.425073 128 128 255 0.999573 -0.021748 -0.019511
0.140915 3.022388 -3.264552 128 128 255 -0.999858 -0.015564 0.006507
0.160320 1.426847 6.192825 128 128 255 -0.999953 0.009608 0.000915
0.542422 41.063225 -70.990295 128 128 255 0.997715 0.053626 -0.041102
-0.901951 -34.669384 -53.915550 128 128 255 0.999247 -0.035786 -0.014967
0.116870 2.728844 -6.565747 128 128 255 -0.990492 -0.098389 0.096151
0.156860 2.618589 1.143227 128 128 255 -0.691179 0.694417 0.200144
0.112390 -6.764082 27.807877 128 128 255 -0.999557 0.019563 0.022421
0.481281 20.407234 -5.577173 128 128 255 -0.999113 0.040658 0.010998
0.061655 1.260553 -11.202467 128 128 255 0.999602 -0.016364 -0.022996
0.145736 3.003018 -2.312565 128 128 255 -0.997713 0.067539 0.002803
0.158625 0.713707 8.527172 128 128 255 -0.999812 0.018069 0.006990
0.420738 25.148540 -34.206409 128 128 255 -0.999013 0.043811 0.007275
-0.220470 -8.760904 -25.554514 128 128 255 0.999359 -0.032047 -0.015952
0.125884 2.887872 -5.509761 128 128 255 0.217306 -0.869416 0.443728
0.158885 2.378695 2.402249 128 128 255 0.994779 0.094887 0.037558
0.033297 -16.906240 50.967522 128 128 255 -0.999585 0.014318 0.025011
0.626903 25.295942 2.883609 128 128 255 -0.999102 0.040558 0.012270
0.084768 1.941399 -9.506911 128 128 255 0.999538 -0.008297 -0.029248
0.149818 2.941275 -1.338458 128 128 255 -0.995466 0.094542 0.010434
0.154204 -0.353593 11.676672 128 128 255 -0.999684 0.022010 0.012167
0.399169 20.576780 -21.195641 128 128 255 -0.999229 0.038220 0.008986
-0.059627 -2.855753 -18.083286 128 128 255 0.999469 -0.027766 -0.017075
0.133194 2.980200 -4.517615 128 128 255 0.930757 -0.351455 0.100854
0.160169 2.051260 3.850572 128 128 255 0.999778 0.017675 0.011443
-0.580066 -90.509705 211.853851 128 128 255 -0.999649 0.007555 0.025377
1.218960 47.554768 28.449608 128 128 255 -0.999138 0.039260 0.013523
0.101247 2.377523 -8.115503 128 128 255 0.999104 0.008310 -0.041502
0.153259 2.835202 -0.317138 128 128 255 -0.990767 0.133349 0.024467
0.144638 -2.074969 16.311796 128 128 255 -0.999597 0.022794 0.016947
0.412185 19.183294 -13.653641 128 128 255 -0.999182 0.039291 0.009622
0.011987 -0.353231 -14.287030 128 128 255 0.999554 -0.023224 -0.018773
0.139245 3.019615 -3.559159 128 128 255 -0.987724 -0.153468 0.029131
0.160482 1.600468 5.578749 128 128 255 -0.999984 0.005512 -0.001340
0.665528 56.045532 -104.058388 128 128 255 0.999542 0.011096 -0.028153
-2.001658 -76.903351 -98.104584 128 128 255 0.999216 -0.036775 -0.014648
0.113626 2.662569 -6.912344 128 128 255 -0.995606 -0.058449 0.073160
0.156100 2.678874 0.781092 128 128 255 -0.945366 0.315407 0.082472
0.123647 -5.212233 24.110079 128 128 255 0.944883 0.309598 0.106512
0.260984 0.948184 3.485844 128 128 255 0.998329 -0.057720 -0.002767
-0.135355 -10.746317 -4.740375 128 128 255 -0.999558 0.027533 0.011210
-0.036468 -1.153030 -2.764133 128 128 255 -0.999754 0.021447 0.005721
0.100462 0.962113 0.099914 128 128 255 -0.999881 0.015425 0.000741
0.207350 1.464753 2.348698 128 128 255 -0.999850 0.017293 0.001179
0.254816 -3.858894 3.410630 128 128 255 0.999206 -0.038173 -0.011365
-0.139426 -3.873257 -4.904716 128 128 255 -0.999914 0.012597 0.003598
0.050693 0.360850 -0.942990 128 128 255 0.999841 -0.016940 -0.005632
0.159309 1.399369 1.336140 128 128 255 0.999945 -0.010458 0.000072
0.276263 0.505218 3.813183 128 128 255 0.999502 -0.030773 -0.007011
-0.204629 -9.606917 -6.214545 128 128 255 -0.999721 0.021625 0.009541
-0.012597 -0.678731 -2.266057 128 128 255 -0.999945 0.010453 -0.000484
0.114284 1.093493 0.389941 128 128 255 -0.999914 0.013106 0.000435
0.223092 1.402805 2.681427 128 128 255 -0.999654 0.026250 0.001874
0.176910 -6.587300 1.798561 128 128 255 0.999249 -0.036818 -0.012040
-0.104283 -2.793452 -4.175791 128 128 255 -0.999866 0.015892 0.003961
0.066655 0.574785 -0.608744 128 128 255 0.999883 -0.013816 -0.006499
0.173277 1.450718 1.630166 128 128 255 0.999941 -0.010894 -0.000127
0.287588 -0.213434 4.060258 128 128 255 0.999350 -0.035021 -0.008518
-0.211585 -7.668192 -6.383394 128 128 255 -0.999844 0.016055 0.007297
0.008701 -0.294477 -1.821220 128 128 255 -0.999943 0.010616 -0.000546
0.127880 1.206406 0.675422 128 128 255 -0.999931 0.011723 0.000082
0.239394 1.274277 3.026752 128 128 255 0.999700 0.023895 -0.005308
0.045275 -9.355092 -0.946347 128 128 255 -0.999354 0.033807 0.012164
-0.072548 -1.965935 -3.515860 128 128 255 0.999783 -0.020147 -0.005281
0.081711 0.758525 -0.293266 128 128 255 -0.998882 0.045106 -0.014165
0.187665 1.477780 1.933343 128 128 255 0.999923 -0.012423 -0.000470
0.288953 -1.363884 4.102181 128 128 255 0.999249 -0.037471 -0.009907
-0.186316 -5.795171 -5.871787 128 128 255 -0.999909 0.012477 0.005106
0.027927 0.022215 -1.419294 128 128 255 0.999864 -0.016121 -0.003445
0.141413 1.301725 0.959790 128 128 255 0.999941 -0.010870 0.000102
0.255925 1.046580 3.378025 128 128 255 0.999763 -0.021176 -0.005110
-0.099119 -10.747167 -3.976077 128 128 255 -0.999506 0.029223 0.011564
-0.044485 -1.323224 -2.931287 128 128 255 -0.999733 0.022280 0.006148
0.096100 0.917305 0.008408 128 128 255 0.999863 -0.016567 -0.000678
0.202594 1.473835 2.248263 128 128 255 0.999876 -0.015728 -0.000982
0.268474 -3.149286 3.690600 128 128 255 0.999206 -0.038260 -0.011069
-0.150770 -4.271926 -5.139434 128 128 255 -0.999920 0.012065 0.003756
0.045512 0.287238 -1.051425 128 128 255 0.999837 -0.017254 -0.005343
0.155039 1.379175 1.246296 128 128 255 0.999945 -0.010474 0.000104
0.271770 0.666529 3.716576 128 128 255 0.999557 -0.029031 -0.006540
-0.190969 -10.103157 -5.920757 128 128 255 -0.999673 0.023493 0.010139
-0.019705 -0.815015 -2.414418 128 128 255 -0.999891 0.014624 0.001965
0.110027 1.054767 0.300586 128 128 255 -0.999906 0.013688 0.000559
0.218140 1.428023 2.576693 128 128 255 -0.999747 0.022414 0.001664
0.207180 -5.685332 2.426727 128 128 255 0.999229 -0.037415 -0.011882
-0.114872 -3.097978 -4.395662 128 128 255 -0.999885 0.014669 0.003715
0.061810 0.511918 -0.710213 128 128 255 0.999865 -0.015237 -0.006124
0.168903 1.437150 1.538070 128 128 255 0.999943 -0.010666 -0.000050
0.284770 0.047283 3.997842 128 128 255 0.999393 -0.033907 -0.008057
-0.214281 -8.289902 -6.433159 128 128 255 -0.999812 0.017648 0.008024
0.002335 -0.405600 -1.954226 128 128 255 -0.999961 0.008632 -0.001752
0.123674 1.173266 0.587100 128 128 255 -0.999927 0.012086 0.000177
0.234287 1.322940 2.918477 128 128 255 -0.997404 0.071999 0.000926
0.090549 -8.572768 -0.000334 128 128 255 0.999316 -0.034917 -0.012195
-0.081996 -2.200160 -3.712468 128 128 255 -0.999810 0.018864 0.004822
0.077121 0.704383 -0.389479 128 128 255 0.999913 -0.000308 -0.013198
0.183147 1.472319 1.838107 128 128 255 0.999930 -0.011797 -0.000347
0.290164 -0.948781 4.122985 128 128 255 0.999274 -0.036892 -0.009495
-0.196002 -6.343795 -6.069822 128 128 255 -0.999895 0.013282 0.005731
0.022155 -0.069902 -1.540002 128 128 255 0.999886 -0.014908 -0.002426
0.137211 1.274018 0.871458 128 128 255 0.999939 -0.011087 0.000065
0.250809 1.130540 3.269156 128 128 255 0.999841 -0.017168 -0.004746
-0.057326 -10.537514 -3.096957 128 128 255 -0.999456 0.030798 0.011836
-0.052819 -1.506267 -3.104980 128 128 255 -0.999736 0.022172 0.006107
0.091693 0.870452 -0.084008 128 128 255 0.999834 -0.018235 -0.000335
0.197897 1.478930 2.149141 128 128 255 0.999895 -0.014454 -0.000803
0.278200 -2.515465 3.888517 128 128 255 0.999213 -0.038190 -0.010740
-0.162125 -4.704632 -5.373992 128 128 255 -0.999922 0.011833 0.004046
0.040207 0.209763 -1.162419 128 128 255 0.999838 -0.017286 -0.004940
0.150791 1.357118 1.156961 128 128 255 0.999944 -0.010544 0.000121
0.267021 0.805174 3.614822 128 128 255 0.999616 -0.027035 -0.006075
-0.170372 -10.487075 -5.481923 128 128 255 -0.999622 0.025346 0.010668
