ply
format ascii 1.0
element vertex 676
property float x
property float y
property float z
property uchar red
property uchar green
property uchar blue
property float nx
property float ny
property float nz
end_header
-45.142700 1.242174 42.699062 128 128 255 -0.025238 -0.999681 0.000013
-45.139172 1.241995 57.930637 128 128 255 0.025237 0.999681 0.000003
45.341873 -1.042132 76.454155 128 128 255 -0.025236 -0.999682 0.000008
-45.141262 1.242101 36.638882 128 128 255 0.025235 0.999682 -0.000006
45.339497 -1.042012 62.151966 128 128 255 -0.025231 -0.999682 0.000013
-45.142811 1.242179 75.149460 128 128 255 -0.025243 -0.999681 0.000018
-45.139496 1.242012 29.305445 128 128 255 0.025234 0.999682 0.000002
45.341263 -1.042101 65.762390 128 128 255 -0.025248 -0.999681 0.000016
-45.141876 1.242132 73.767250 128 128 255 0.025227 0.999682 -0.000005
45.339172 -1.041995 20.328316 128 128 255 0.025232 0.999682 -0.000004
45.342701 -1.042174 68.699081 128 128 255 -0.025241 -0.999681 -0.000009
-45.139996 1.242037 71.748177 128 128 255 0.025234 0.999682 -0.000005
45.340611 -1.042068 6.672513 128 128 255 -0.025229 -0.999682 0.000012
-45.142372 1.242157 71.552750 128 128 255 0.025251 0.999681 -0.000007
45.339058 -1.041990 68.256248 128 128 255 0.025241 0.999681 -0.000006
45.342373 -1.042157 20.434666 128 128 255 -0.025235 -0.999682 -0.000006
-45.140610 1.242068 73.987709 128 128 255 0.025233 0.999682 -0.000010
45.339996 -1.042037 65.693420 128 128 255 -0.025239 -0.999681 0.000008
-45.142700 1.242174 29.211735 128 128 255 -0.025233 -0.999682 0.000011
-45.139172 1.241995 75.122429 128 128 255 0.025240 0.999681 0.000004
45.341873 -1.042132 62.016941 128 128 255 -0.025232 -0.999682 0.000007
-45.141262 1.242101 36.835014 128 128 255 0.025238 0.999681 -0.000008
45.339497 -1.042012 76.285950 128 128 255 -0.025237 -0.999681 0.000011
-45.142811 1.242179 58.034195 128 128 255 -0.025242 -0.999681 0.000016
-45.139496 1.242012 42.977688 128 128 255 0.025235 0.999682 0.000002
45.341263 -1.042101 77.009834 128 128 255 -0.025242 -0.999681 0.000011
-45.141876 1.242132 53.906376 128 128 255 0.025231 0.999682 -0.000005
45.339172 -1.041995 48.090401 128 128 255 -0.025230 -0.999682 0.000007
-45.142700 1.242174 77.253990 128 128 255 -0.025236 -0.999682 0.000018
-45.139996 1.242037 48.887482 128 128 255 0.025235 0.999682 -0.000000
45.340611 -1.042068 53.361080 128 128 255 -0.025237 -0.999681 0.000014
-45.142372 1.242157 77.434021 128 128 255 0.025231 0.999682 -0.000004
45.339058 -1.041990 42.142357 128 128 255 0.025234 0.999682 -0.000005
45.342373 -1.042157 57.886871 128 128 255 -0.025239 -0.999681 -0.000007
-45.140610 1.242068 77.020569 128 128 255 0.025231 0.999682 -0.000007
45.339996 -1.042037 36.185181 128 128 255 -0.025234 -0.999682 0.000010
-45.142700 1.242174 62.307110 128 128 255 0.025246 0.999681 -0.000003
45.339172 -1.041995 75.122429 128 128 255 0.025241 0.999681 -0.000006
45.341873 -1.042132 28.921568 128 128 255 -0.025234 -0.999682 -0.000004
-45.141262 1.242101 66.343254 128 128 255 0.025238 0.999681 -0.000010
45.339497 -1.042012 73.253098 128 128 255 -0.025243 -0.999681 0.000007
-45.142811 1.242179 20.581991 128 128 255 -0.025235 -0.999682 0.000013
-45.139496 1.242012 69.091576 128 128 255 0.025240 0.999681 0.000002
45.341263 -1.042101 71.128571 128 128 255 -0.025234 -0.999682 0.000007
-45.141876 1.242132 7.217811 128 128 255 0.025239 0.999681 -0.000006
45.339172 -1.041995 70.951096 128 128 255 -0.025219 -0.999682 0.000012
-45.142700 1.242174 68.699081 128 128 255 -0.025247 -0.999681 0.000018
-45.139996 1.242037 21.125399 128 128 255 0.025234 0.999682 -0.000000
45.340611 -1.042068 73.221954 128 128 255 -0.025245 -0.999681 0.000016
-45.142372 1.242157 66.186569 128 128 255 0.025227 0.999682 -0.000004
45.339058 -1.041990 28.470112 128 128 255 0.025232 0.999682 -0.000005
45.342373 -1.042157 75.002136 128 128 255 -0.025240 -0.999681 -0.000007
-45.140610 1.242068 62.886585 128 128 255 0.025233 0.999682 -0.000006
45.339996 -1.042037 35.989048 128 128 255 -0.025232 -0.999682 0.000012
-45.142700 1.242174 76.744324 128 128 255 0.025240 0.999681 -0.000003
45.339172 -1.041995 57.930637 128 128 255 0.025237 0.999681 -0.000006
45.341873 -1.042132 42.408897 128 128 255 -0.025236 -0.999682 -0.000004
-45.141262 1.242101 77.953110 128 128 255 0.025233 0.999682 -0.000008
45.339497 -1.042012 53.016842 128 128 255 -0.025238 -0.999681 0.000007
-45.142811 1.242179 48.562008 128 128 255 0.025242 0.999681 0.000000
45.339497 -1.042012 77.684937 128 128 255 0.025241 0.999681 -0.000005
45.341263 -1.042101 47.990501 128 128 255 -0.025234 -0.999682 -0.000002
-45.141876 1.242132 54.296757 128 128 255 0.025241 0.999681 -0.000008
45.339172 -1.041995 76.506195 128 128 255 -0.025240 -0.999681 0.000005
-45.142700 1.242174 42.699062 128 128 255 -0.025238 -0.999681 0.000015
-45.139996 1.242037 58.727718 128 128 255 0.025238 0.999681 -0.000000
45.340611 -1.042068 75.908859 128 128 255 -0.025239 -0.999681 0.000009
-45.142372 1.242157 37.063065 128 128 255 0.025234 0.999682 -0.000004
45.339058 -1.041990 61.316635 128 128 255 -0.025224 -0.999682 0.000003
-45.142372 1.242157 75.002136 128 128 255 -0.025244 -0.999681 0.000018
-45.140610 1.242068 30.040062 128 128 255 0.025234 0.999682 -0.000002
45.339996 -1.042037 65.112556 128 128 255 -0.025237 -0.999681 0.000015
-45.142700 1.242174 74.057419 128 128 255 0.025227 0.999682 -0.000002
45.339172 -1.041995 20.328316 128 128 255 0.025232 0.999682 -0.000005
45.341873 -1.042132 68.408920 128 128 255 -0.025240 -0.999681 -0.000005
-45.141262 1.242101 72.398010 128 128 255 0.025227 0.999682 -0.000006
45.339497 -1.042012 5.937896 128 128 255 -0.025230 -0.999682 0.000009
-45.142811 1.242179 71.700081 128 128 255 0.025256 0.999681 0.000000
45.339497 -1.042012 69.091576 128 128 255 0.025240 0.999681 -0.000005
45.341263 -1.042101 20.010483 128 128 255 -0.025234 -0.999682 -0.000002
-45.141876 1.242132 74.533012 128 128 255 0.025241 0.999681 -0.000009
45.339172 -1.041995 64.896339 128 128 255 -0.025242 -0.999681 0.000004
-45.142700 1.242174 29.211735 128 128 255 -0.025233 -0.999682 0.000013
-45.139996 1.242037 75.919510 128 128 255 0.025240 0.999681 -0.000000
45.340611 -1.042068 61.471645 128 128 255 -0.025236 -0.999682 0.000008
-45.142372 1.242157 37.259197 128 128 255 0.025240 0.999681 -0.000005
45.339058 -1.041990 75.450615 128 128 255 -0.025231 -0.999682 0.000002
-45.142372 1.242157 57.886871 128 128 255 -0.025242 -0.999681 0.000016
-45.140610 1.242068 43.712307 128 128 255 0.025236 0.999682 -0.000002
45.339996 -1.042037 76.360001 128 128 255 -0.025240 -0.999681 0.000010
-45.142700 1.242174 54.196545 128 128 255 0.025230 0.999682 -0.000002
45.339172 -1.041995 48.090401 128 128 255 -0.025230 -0.999682 -0.000003
-45.141876 1.242132 76.963829 128 128 255 -0.025238 -0.999681 0.000014
-45.141262 1.242101 49.537315 128 128 255 0.025234 0.999682 -0.000004
45.339497 -1.042012 52.626461 128 128 255 -0.025232 -0.999682 0.000011
-45.142811 1.242179 77.581345 128 128 255 0.025234 0.999682 0.000000
45.339497 -1.042012 42.977688 128 128 255 0.025235 0.999682 -0.000004
45.341263 -1.042101 57.462688 128 128 255 -0.025238 -0.999681 -0.000002
-45.141876 1.242132 77.565865 128 128 255 0.025229 0.999682 -0.000006
45.339172 -1.041995 35.388100 128 128 255 -0.025236 -0.999682 0.000005
-45.142700 1.242174 62.307110 128 128 255 0.025247 0.999681 0.000003
45.339996 -1.042037 75.919510 128 128 255 0.025241 0.999681 -0.000003
45.340611 -1.042068 28.376270 128 128 255 -0.025234 -0.999682 0.000000
-45.142372 1.242157 66.767441 128 128 255 0.025247 0.999681 -0.000007
45.339058 -1.041990 72.417763 128 128 255 -0.025242 -0.999681 0.000001
-45.142372 1.242157 20.434666 128 128 255 -0.025234 -0.999682 0.000012
-45.140610 1.242068 69.826195 128 128 255 0.025241 0.999681 -0.000003
45.339996 -1.042037 70.478737 128 128 255 -0.025241 -0.999681 0.000006
-45.142700 1.242174 7.507978 128 128 255 0.025237 0.999681 -0.000002
45.339172 -1.041995 70.951096 128 128 255 -0.025206 -0.999682 -0.000006
-45.141876 1.242132 68.408920 128 128 255 -0.025247 -0.999681 0.000014
-45.141262 1.242101 21.775230 128 128 255 0.025235 0.999682 -0.000004
45.339497 -1.042012 72.487335 128 128 255 -0.025234 -0.999682 0.000012
-45.142811 1.242179 66.333893 128 128 255 0.025228 0.999682 0.000000
45.339497 -1.042012 29.305445 128 128 255 0.025233 0.999682 -0.000004
45.341263 -1.042101 74.577957 128 128 255 -0.025239 -0.999681 -0.000002
-45.141876 1.242132 63.431881 128 128 255 0.025228 0.999682 -0.000006
45.339172 -1.041995 35.191967 128 128 255 -0.025231 -0.999682 0.000006
-45.142700 1.242174 76.744324 128 128 255 0.025242 0.999681 0.000003
45.339996 -1.042037 58.727718 128 128 255 0.025238 0.999681 -0.000003
45.340611 -1.042068 41.863598 128 128 255 -0.025235 -0.999682 0.000001
-45.142372 1.242157 78.377296 128 128 255 0.025235 0.999682 -0.000006
45.339058 -1.041990 52.181511 128 128 255 -0.025240 -0.999681 0.000001
-45.142372 1.242157 48.414684 128 128 255 0.025241 0.999681 0.000005
45.340611 -1.042068 78.419556 128 128 255 0.025237 0.999681 -0.000000
45.339058 -1.041990 72.539795 128 128 255 0.050466 0.998726 0.000000
45.340736 -1.042074 44.553989 128 128 255 -0.025234 -0.999682 -0.000005
-45.139843 1.242029 49.278606 128 128 255 0.025232 0.999682 -0.000061
45.339531 -1.042014 73.140091 128 128 255 0.025219 0.999682 0.000044
-45.140900 1.242083 38.836956 128 128 255 -0.025237 -0.999681 0.000006
-45.139114 1.241993 53.153332 128 128 255 0.025237 0.999682 0.000002
45.340481 -1.042062 72.998062 128 128 255 -0.025176 -0.999683 0.000197
-45.140171 1.242046 32.016247 128 128 255 0.025234 0.999682 -0.000023
45.339279 -1.042001 57.575378 128 128 255 0.025244 0.999681 0.000007
-45.140957 1.242086 71.994354 128 128 255 -0.025239 -0.999681 0.000007
-45.139278 1.242001 23.950781 128 128 255 0.025234 0.999682 0.000001
45.340172 -1.042046 61.909519 128 128 255 0.025222 0.999682 0.000015
-45.140484 1.242062 70.089005 128 128 255 0.025213 0.999682 -0.000015
45.339115 -1.041993 14.872044 128 128 255 0.025234 0.999682 -0.000002
45.340900 -1.042083 65.412415 128 128 255 -0.025239 -0.999681 -0.000006
-45.139534 1.242014 67.315102 128 128 255 0.025230 0.999682 -0.000014
45.339844 -1.042029 1.448123 128 128 255 0.025257 0.999681 0.000031
-45.140736 1.242074 68.019791 128 128 255 -0.025188 -0.999683 -0.000033
45.339058 -1.041990 63.793285 128 128 255 0.025238 0.999681 -0.000003
45.340736 -1.042074 16.120466 128 128 255 -0.025235 -0.999682 -0.000004
-45.139843 1.242029 69.736839 128 128 255 0.025119 0.999684 -0.000252
45.339531 -1.042014 61.474461 128 128 255 -0.025260 -0.999681 0.000064
-45.140900 1.242083 24.989862 128 128 255 -0.025235 -0.999682 0.000005
-45.139114 1.241993 70.651711 128 128 255 0.025239 0.999681 0.000002
45.340481 -1.042062 58.419720 128 128 255 -0.025201 -0.999682 0.000033
-45.140171 1.242046 32.025341 128 128 255 0.025245 0.999681 -0.000041
45.339279 -1.042001 72.139656 128 128 255 0.025239 0.999681 0.000008
-45.140957 1.242086 54.499527 128 128 255 -0.025239 -0.999681 0.000007
-45.139278 1.242001 37.806450 128 128 255 0.025235 0.999682 0.000001
45.340172 -1.042046 73.558342 128 128 255 0.025218 0.999682 0.000033
-45.140484 1.242062 49.648170 128 128 255 0.025222 0.999682 -0.000017
45.339115 -1.041993 43.295464 128 128 255 0.025248 0.999681 -0.000001
-45.140900 1.242083 74.157135 128 128 255 -0.025236 -0.999682 0.000007
-45.139534 1.242014 43.862160 128 128 255 0.025235 0.999682 -0.000000
45.339844 -1.042029 49.260506 128 128 255 0.025234 0.999682 0.000017
-45.140736 1.242074 73.859901 128 128 255 0.025214 0.999682 -0.000019
45.339058 -1.041990 37.212551 128 128 255 0.025235 0.999682 -0.000003
45.340736 -1.042074 54.394794 128 128 255 -0.025237 -0.999681 -0.000005
-45.139843 1.242029 72.661942 128 128 255 0.025220 0.999682 -0.000024
45.339531 -1.042014 31.563349 128 128 255 0.025247 0.999681 0.000038
-45.140900 1.242083 58.625999 128 128 255 0.025789 0.999667 -0.000234
45.339115 -1.041993 70.651711 128 128 255 0.025238 0.999681 -0.000003
45.340481 -1.042062 24.783583 128 128 255 -0.025234 -0.999682 -0.000003
-45.140171 1.242046 61.936451 128 128 255 0.025240 0.999681 -0.000298
45.339279 -1.042001 69.214561 128 128 255 -0.025296 -0.999680 0.000038
-45.140957 1.242086 16.225199 128 128 255 -0.025236 -0.999682 0.000006
-45.139278 1.242001 64.387184 128 128 255 0.025239 0.999681 0.000001
45.340172 -1.042046 67.718231 128 128 255 -0.025221 -0.999682 0.000023
-45.140484 1.242062 1.835788 128 128 255 0.025246 0.999681 -0.000027
45.339115 -1.041993 66.748405 128 128 255 0.025249 0.999681 -0.000000
-45.140900 1.242083 65.412415 128 128 255 -0.025240 -0.999681 0.000007
-45.139534 1.242014 15.438741 128 128 255 0.025234 0.999682 -0.000000
45.339844 -1.042029 69.701332 128 128 255 0.025226 0.999682 0.000014
-45.140736 1.242074 62.211079 128 128 255 0.025212 0.999682 -0.000011
45.339058 -1.041990 23.356882 128 128 255 0.025234 0.999682 -0.000003
45.340736 -1.042074 71.889618 128 128 255 -0.025238 -0.999681 -0.000005
-45.139843 1.242029 58.097656 128 128 255 0.025226 0.999682 -0.000021
45.339531 -1.042014 31.554255 128 128 255 0.025243 0.999681 0.000016
-45.140900 1.242083 73.204338 128 128 255 0.025251 0.999681 -0.000020
45.339115 -1.041993 53.153332 128 128 255 0.025236 0.999682 -0.000003
45.340481 -1.042062 38.630676 128 128 255 -0.025236 -0.999682 -0.000003
-45.140171 1.242046 73.602081 128 128 255 0.025213 0.999682 -0.000046
45.339279 -1.042001 48.756325 128 128 255 0.025206 0.999682 0.000047
-45.140957 1.242086 44.658722 128 128 255 0.025269 0.999681 -0.000003
45.339279 -1.042001 73.133690 128 128 255 0.025238 0.999681 -0.000003
45.340172 -1.042046 44.252434 128 128 255 -0.025234 -0.999682 -0.000002
-45.140484 1.242062 49.666271 128 128 255 0.025261 0.999681 -0.000070
45.339115 -1.041993 72.573387 128 128 255 0.025232 0.999682 -0.000001
-45.140900 1.242083 38.836956 128 128 255 -0.025237 -0.999681 0.000007
-45.139534 1.242014 53.720028 128 128 255 0.025237 0.999681 -0.000000
45.339844 -1.042029 72.610397 128 128 255 -0.025451 -0.999675 0.001082
-45.140736 1.242074 32.317802 128 128 255 0.025227 0.999682 -0.000016
45.339058 -1.041990 56.981480 128 128 255 0.025250 0.999681 -0.000007
-45.140736 1.242074 71.889618 128 128 255 -0.025239 -0.999681 0.000007
-45.139843 1.242029 24.473059 128 128 255 0.025234 0.999682 -0.000002
45.339531 -1.042014 61.447529 128 128 255 0.025236 0.999682 0.000010
-45.140900 1.242083 70.295280 128 128 255 0.025212 0.999682 -0.000005
45.339115 -1.041993 14.872044 128 128 255 0.025234 0.999682 -0.000003
45.340481 -1.042062 65.206131 128 128 255 -0.025238 -0.999681 -0.000004
-45.140171 1.242046 67.777092 128 128 255 0.025215 0.999682 -0.000015
45.339279 -1.042001 0.925844 128 128 255 0.025245 0.999681 0.000011
-45.140957 1.242086 68.124519 128 128 255 -0.024663 -0.999696 -0.000016
45.339279 -1.042001 64.387184 128 128 255 0.025238 0.999681 -0.000003
45.340172 -1.042046 15.818911 128 128 255 -0.025234 -0.999682 -0.000002
-45.140484 1.242062 70.124504 128 128 255 -0.025007 -0.999687 -0.000962
45.339115 -1.041993 60.907764 128 128 255 -0.025413 -0.999677 -0.000006
-45.140900 1.242083 24.989862 128 128 255 -0.025235 -0.999682 0.000006
-45.139534 1.242014 71.218407 128 128 255 0.025239 0.999681 -0.000000
45.339844 -1.042029 58.032055 128 128 255 -0.025229 -0.999682 0.000038
-45.140736 1.242074 32.326897 128 128 255 0.025251 0.999681 -0.000031
45.339058 -1.041990 71.545761 128 128 255 0.025249 0.999681 -0.000008
-45.140736 1.242074 54.394794 128 128 255 -0.025239 -0.999681 0.000007
-45.139843 1.242029 38.328728 128 128 255 0.025236 0.999682 -0.000002
45.339531 -1.042014 73.096352 128 128 255 0.025230 0.999682 0.000020
-45.140900 1.242083 49.854450 128 128 255 0.025219 0.999682 -0.000006
45.339115 -1.041993 43.295464 128 128 255 0.025246 0.999681 -0.000017
-45.140484 1.242062 73.950859 128 128 255 -0.025237 -0.999682 0.000005
-45.140171 1.242046 44.324154 128 128 255 0.025234 0.999682 -0.000003
45.339279 -1.042001 48.738224 128 128 255 0.025242 0.999681 0.000006
-45.140957 1.242086 73.964630 128 128 255 0.025226 0.999682 -0.000001
45.339279 -1.042001 37.806450 128 128 255 0.025235 0.999682 -0.000003
45.340172 -1.042046 54.093239 128 128 255 -0.025237 -0.999681 -0.000002
-45.140484 1.242062 73.049606 128 128 255 0.025212 0.999682 -0.000022
45.339115 -1.041993 30.996653 128 128 255 0.025230 0.999682 -0.000001
-45.140900 1.242083 58.625999 128 128 255 0.025291 0.999680 0.000014
45.339531 -1.042014 71.218407 128 128 255 0.025238 0.999681 -0.000002
45.339844 -1.042029 24.395918 128 128 255 -0.025234 -0.999682 -0.000000
-45.140736 1.242074 62.238010 128 128 255 -0.024574 -0.999698 -0.000627
45.339058 -1.041990 68.620667 128 128 255 -0.025517 -0.999674 -0.000225
-45.140736 1.242074 16.120466 128 128 255 -0.025235 -0.999682 0.000006
-45.139843 1.242029 64.909462 128 128 255 0.025239 0.999681 -0.000002
45.339531 -1.042014 67.256241 128 128 255 -0.025248 -0.999681 0.000018
-45.140900 1.242083 2.042068 128 128 255 0.025237 0.999681 -0.000009
45.339115 -1.041993 66.748405 128 128 255 0.025253 0.999681 -0.000009
-45.140484 1.242062 65.206131 128 128 255 -0.025240 -0.999681 0.000006
-45.140171 1.242046 15.900733 128 128 255 0.025235 0.999682 -0.000003
45.339279 -1.042001 69.179054 128 128 255 0.025241 0.999681 0.000005
-45.140957 1.242086 62.315807 128 128 255 0.025217 0.999682 -0.000001
45.339279 -1.042001 23.950781 128 128 255 0.025234 0.999682 -0.000002
45.340172 -1.042046 71.588066 128 128 255 -0.025238 -0.999681 -0.000002
-45.140484 1.242062 58.485325 128 128 255 0.025213 0.999682 -0.000019
45.339115 -1.041993 30.987558 128 128 255 0.025242 0.999681 -0.000000
-45.140900 1.242083 73.204338 128 128 255 0.025253 0.999681 0.000007
45.339531 -1.042014 53.720028 128 128 255 0.025236 0.999682 -0.000002
45.339844 -1.042029 38.243011 128 128 255 -0.025235 -0.999682 -0.000000
-45.140736 1.242074 73.903633 128 128 255 0.025224 0.999682 -0.000036
45.339058 -1.041990 48.162426 128 128 255 0.025208 0.999682 -0.000028
-45.140736 1.242074 44.553989 128 128 255 0.025250 0.999681 0.000015
45.339844 -1.042029 73.655968 128 128 255 0.025236 0.999682 -0.000001
45.339058 -1.041990 68.061096 128 128 255 0.050052 0.998747 -0.000000
45.339489 -1.042011 40.431778 128 128 255 -0.025234 -0.999682 -0.000005
-45.139259 1.242000 44.561996 128 128 255 -0.025235 -0.999682 -0.000010
45.339180 -1.041996 68.747025 128 128 255 0.025236 0.999682 -0.000001
-45.139530 1.242014 34.710743 128 128 255 -0.025236 -0.999682 0.000004
-45.139072 1.241990 48.182007 128 128 255 0.025236 0.999682 0.000001
45.339424 -1.042008 69.285492 128 128 255 0.025238 0.999681 0.000002
-45.139343 1.242004 27.139421 128 128 255 -0.025234 -0.999682 -0.000012
45.339115 -1.041993 52.786251 128 128 255 0.025237 0.999681 -0.000002
-45.139545 1.242014 68.574837 128 128 255 -0.025238 -0.999681 0.000005
-45.139114 1.241993 18.380077 128 128 255 0.025233 0.999682 0.000000
45.339344 -1.042004 57.807869 128 128 255 0.025233 0.999682 0.000001
-45.139423 1.242008 66.149414 128 128 255 -0.025249 -0.999681 -0.000012
45.339073 -1.041990 9.223862 128 128 255 0.025234 0.999682 -0.000002
45.339531 -1.042014 61.863235 128 128 255 -0.025239 -0.999681 -0.000007
-45.139179 1.241996 62.647564 128 128 255 -0.025244 -0.999681 -0.000031
45.339260 -1.042000 -4.014528 128 128 255 0.025236 0.999682 0.000001
-45.139488 1.242011 64.221405 128 128 255 -0.025232 -0.999682 -0.000004
45.339058 -1.041990 59.161983 128 128 255 0.025236 0.999682 -0.000003
45.339489 -1.042011 11.547813 128 128 255 -0.025235 -0.999682 -0.000005
-45.139259 1.242000 65.236938 128 128 255 -0.025239 -0.999681 -0.000009
45.339180 -1.041996 57.030724 128 128 255 0.025236 0.999682 -0.000001
-45.139530 1.242014 20.501280 128 128 255 -0.025235 -0.999682 0.000003
-45.139072 1.241990 65.985886 128 128 255 0.025239 0.999681 0.000001
45.339424 -1.042008 54.570290 128 128 255 0.025241 0.999681 0.000002
-45.139343 1.242004 26.955957 128 128 255 -0.025232 -0.999682 -0.000010
45.339115 -1.041993 67.785095 128 128 255 0.025237 0.999681 -0.000002
-45.139545 1.242014 50.699375 128 128 255 -0.025238 -0.999681 0.000005
-45.139114 1.241993 32.416569 128 128 255 0.025235 0.999682 0.000000
45.339344 -1.042004 69.863167 128 128 255 0.025235 0.999682 0.000001
-45.139423 1.242008 45.123344 128 128 255 -0.025240 -0.999681 -0.000010
45.339073 -1.041990 38.311680 128 128 255 0.025236 0.999682 -0.000004
-45.139530 1.242014 70.798317 128 128 255 -0.025236 -0.999682 0.000005
-45.139179 1.241996 38.598480 128 128 255 0.025234 0.999682 -0.000001
45.339260 -1.042000 44.927162 128 128 255 0.025235 0.999682 0.000000
-45.139488 1.242011 70.015770 128 128 255 -0.025241 -0.999681 -0.000006
45.339058 -1.041990 32.116005 128 128 255 0.025234 0.999682 -0.000003
45.339489 -1.042011 50.646374 128 128 255 -0.025237 -0.999681 -0.000006
-45.139259 1.242000 68.049408 128 128 255 -0.025243 -0.999681 -0.000016
45.339180 -1.041996 26.722155 128 128 255 0.025235 0.999682 -0.000001
-45.139530 1.242014 54.674679 128 128 255 -0.025231 -0.999682 -0.000002
45.339073 -1.041990 65.985886 128 128 255 0.025237 0.999681 -0.000003
45.339424 -1.042008 20.396891 128 128 255 -0.025234 -0.999682 -0.000004
-45.139343 1.242004 57.264526 128 128 255 -0.025236 -0.999682 -0.000008
45.339115 -1.041993 64.972618 128 128 255 0.025235 0.999682 -0.000004
-45.139545 1.242014 11.600813 128 128 255 -0.025236 -0.999682 0.000004
-45.139114 1.241993 59.462547 128 128 255 0.025239 0.999681 0.000000
45.339344 -1.042004 64.068802 128 128 255 0.025242 0.999681 0.000002
-45.139423 1.242008 -3.818344 128 128 255 -0.025231 -0.999682 -0.000008
45.339073 -1.041990 62.360767 128 128 255 0.025240 0.999681 -0.000003
-45.139530 1.242014 61.863235 128 128 255 -0.025239 -0.999681 0.000005
-45.139179 1.241996 9.510659 128 128 255 0.025233 0.999682 -0.000001
45.339260 -1.042000 65.953232 128 128 255 0.025234 0.999682 0.000000
-45.139488 1.242011 57.960476 128 128 255 -0.025249 -0.999681 -0.000008
45.339058 -1.041990 18.079512 128 128 255 0.025234 0.999682 -0.000003
45.339489 -1.042011 68.521843 128 128 255 -0.025238 -0.999681 -0.000006
-45.139259 1.242000 53.050568 128 128 255 -0.025240 -0.999681 -0.000019
45.339180 -1.041996 26.905621 128 128 255 0.025236 0.999682 -0.000001
-45.139530 1.242014 69.389877 128 128 255 -0.025234 -0.999682 -0.000003
45.339073 -1.041990 48.182007 128 128 255 0.025235 0.999682 -0.000003
45.339424 -1.042008 34.606354 128 128 255 -0.025236 -0.999682 -0.000004
-45.139343 1.242004 68.980827 128 128 255 -0.025239 -0.999681 -0.000010
45.339115 -1.041993 44.297684 128 128 255 0.025234 0.999682 -0.000003
-45.139545 1.242014 40.484779 128 128 255 -0.025232 -0.999682 -0.000001
45.339115 -1.041993 68.361664 128 128 255 0.025237 0.999681 -0.000003
45.339344 -1.042004 40.279175 128 128 255 -0.025234 -0.999682 -0.000003
-45.139423 1.242008 44.758183 128 128 255 -0.025233 -0.999682 -0.000007
45.339073 -1.041990 68.460228 128 128 255 0.025237 0.999681 -0.000005
-45.139530 1.242014 34.710743 128 128 255 -0.025237 -0.999682 0.000005
-45.139179 1.241996 48.468803 128 128 255 0.025237 0.999681 -0.000001
45.339260 -1.042000 69.089310 128 128 255 0.025236 0.999682 0.000001
-45.139488 1.242011 27.292027 128 128 255 -0.025237 -0.999681 -0.000007
45.339058 -1.041990 52.485687 128 128 255 0.025239 0.999681 -0.000005
-45.139488 1.242011 68.521843 128 128 255 -0.025238 -0.999681 0.000005
-45.139259 1.242000 18.644394 128 128 255 0.025233 0.999682 -0.000002
45.339180 -1.041996 57.574070 128 128 255 0.025236 0.999682 -0.000001
-45.139530 1.242014 66.253799 128 128 255 -0.025253 -0.999681 -0.000006
45.339073 -1.041990 9.223862 128 128 255 0.025234 0.999682 -0.000003
45.339424 -1.042008 61.758846 128 128 255 -0.025239 -0.999681 -0.000005
-45.139343 1.242004 62.881367 128 128 255 -0.025257 -0.999681 -0.000023
45.339115 -1.041993 -4.278843 128 128 255 0.025234 0.999682 -0.000002
-45.139545 1.242014 64.274406 128 128 255 -0.025228 -0.999682 -0.000001
45.339115 -1.041993 59.462547 128 128 255 0.025236 0.999682 -0.000003
45.339344 -1.042004 11.395209 128 128 255 -0.025235 -0.999682 -0.000002
-45.139423 1.242008 65.433121 128 128 255 -0.025235 -0.999682 -0.000006
45.339073 -1.041990 56.743927 128 128 255 0.025233 0.999682 -0.000006
-45.139530 1.242014 20.501280 128 128 255 -0.025235 -0.999682 0.000004
-45.139179 1.241996 66.272682 128 128 255 0.025239 0.999681 -0.000001
45.339260 -1.042000 54.374104 128 128 255 0.025237 0.999681 0.000001
-45.139488 1.242011 27.108561 128 128 255 -0.025233 -0.999682 -0.000005
45.339058 -1.041990 67.484528 128 128 255 0.025239 0.999681 -0.000005
-45.139488 1.242011 50.646374 128 128 255 -0.025238 -0.999681 0.000005
-45.139259 1.242000 32.680885 128 128 255 0.025235 0.999682 -0.000002
45.339180 -1.041996 69.629364 128 128 255 0.025236 0.999682 -0.000001
-45.139530 1.242014 45.227734 128 128 255 -0.025245 -0.999681 -0.000005
45.339073 -1.041990 38.311680 128 128 255 0.025236 0.999682 -0.000007
-45.139423 1.242008 70.693924 128 128 255 -0.025236 -0.999682 0.000004
-45.139343 1.242004 38.832279 128 128 255 0.025234 0.999682 -0.000003
45.339115 -1.041993 44.662846 128 128 255 0.025236 0.999682 -0.000002
-45.139545 1.242014 70.068771 128 128 255 -0.025240 -0.999681 -0.000001
45.339115 -1.041993 32.416569 128 128 255 0.025234 0.999682 -0.000003
45.339344 -1.042004 50.493771 128 128 255 -0.025237 -0.999681 -0.000003
-45.139423 1.242008 68.245598 128 128 255 -0.025244 -0.999681 -0.000011
45.339073 -1.041990 26.435358 128 128 255 0.025233 0.999682 -0.000004
-45.139530 1.242014 54.674679 128 128 255 -0.025230 -0.999682 0.000001
45.339180 -1.041996 66.272682 128 128 255 0.025237 0.999681 -0.000002
45.339260 -1.042000 20.200708 128 128 255 -0.025234 -0.999682 -0.000001
-45.139488 1.242011 57.417130 128 128 255 -0.025232 -0.999682 -0.000004
45.339058 -1.041990 64.672058 128 128 255 0.025235 0.999682 -0.000008
-45.139488 1.242011 11.547813 128 128 255 -0.025236 -0.999682 0.000004
-45.139259 1.242000 59.726864 128 128 255 0.025239 0.999681 -0.000002
45.339180 -1.041996 63.834999 128 128 255 0.025236 0.999682 -0.000001
-45.139530 1.242014 -3.713956 128 128 255 -0.025234 -0.999682 -0.000004
45.339073 -1.041990 62.360767 128 128 255 0.025241 0.999681 -0.000006
-45.139423 1.242008 61.758846 128 128 255 -0.025238 -0.999681 0.000004
-45.139343 1.242004 9.744461 128 128 255 0.025234 0.999682 -0.000003
45.339115 -1.041993 65.688911 128 128 255 0.025238 0.999681 -0.000002
-45.139545 1.242014 58.013474 128 128 255 -0.025257 -0.999681 -0.000002
45.339115 -1.041993 18.380077 128 128 255 0.025234 0.999682 -0.000002
45.339344 -1.042004 68.369232 128 128 255 -0.025238 -0.999681 -0.000003
-45.139423 1.242008 53.246754 128 128 255 -0.025245 -0.999681 -0.000013
45.339073 -1.041990 26.618822 128 128 255 0.025235 0.999682 -0.000004
-45.139530 1.242014 69.389877 128 128 255 -0.025232 -0.999682 0.000001
45.339180 -1.041996 48.468803 128 128 255 0.025236 0.999682 -0.000002
45.339260 -1.042000 34.410172 128 128 255 -0.025235 -0.999682 -0.000001
-45.139488 1.242011 69.133430 128 128 255 -0.025237 -0.999681 -0.000006
45.339058 -1.041990 43.997116 128 128 255 0.025233 0.999682 -0.000007
-45.139488 1.242011 40.431778 128 128 255 -0.025232 -0.999682 0.000002
45.339260 -1.042000 68.625977 128 128 255 0.025236 0.999682 -0.000001
45.339058 -1.041990 66.989563 128 128 255 -0.050155 -0.998741 0.000000
45.339058 -1.041990 38.742359 128 128 255 0.025235 0.999682 -0.000001
-45.139057 1.241990 42.817657 128 128 255 -0.025236 -0.999682 -0.000003
45.339058 -1.041990 67.478203 128 128 255 0.025237 0.999681 -0.000004
-45.139061 1.241990 32.933208 128 128 255 0.025240 0.999681 -0.000025
-45.139057 1.241990 46.599380 128 128 255 -0.025235 -0.999682 -0.000002
45.339058 -1.041990 68.126640 128 128 255 0.025236 0.999682 -0.000002
-45.139057 1.241990 25.072680 128 128 255 -0.025234 -0.999682 -0.000002
45.339058 -1.041990 51.249763 128 128 255 0.025235 0.999682 -0.000004
-45.139061 1.241990 67.464043 128 128 255 0.025236 0.999682 -0.000004
-45.139057 1.241990 16.132633 128 128 255 -0.025236 -0.999682 -0.000002
45.339058 -1.041990 56.407124 128 128 255 0.025236 0.999682 -0.000002
-45.139057 1.241990 64.861717 128 128 255 -0.025235 -0.999682 -0.000002
45.339058 -1.041990 6.921778 128 128 255 0.025239 0.999681 -0.000012
45.339058 -1.041990 60.630421 128 128 255 0.025236 0.999682 -0.000000
-45.139057 1.241990 61.196831 128 128 255 -0.025237 -0.999682 -0.000005
45.339058 -1.041990 -6.615695 128 128 255 0.025233 0.999682 -0.000003
-45.139057 1.241990 62.934528 128 128 255 -0.025236 -0.999682 -0.000001
45.339058 -1.041990 57.926929 128 128 255 -0.025243 -0.999681 -0.000009
45.339058 -1.041990 9.346106 128 128 255 0.025235 0.999682 -0.000001
-45.139057 1.241990 63.815826 128 128 255 -0.025237 -0.999681 -0.000002
45.339058 -1.041990 55.608383 128 128 255 0.025237 0.999681 -0.000004
-45.139061 1.241990 18.413855 128 128 255 -0.025236 -0.999682 -0.000013
-45.139057 1.241990 64.730476 128 128 255 -0.025235 -0.999682 -0.000002
45.339058 -1.041990 53.188522 128 128 255 0.025236 0.999682 -0.000002
-45.139057 1.241990 24.807976 128 128 255 -0.025235 -0.999682 -0.000002
45.339058 -1.041990 66.597122 128 128 255 0.025237 0.999682 -0.000004
-45.139061 1.241990 49.229656 128 128 255 0.025237 0.999682 -0.000005
-45.139057 1.241990 30.402426 128 128 255 -0.025235 -0.999682 -0.000002
45.339058 -1.041990 68.766052 128 128 255 0.025236 0.999682 -0.000002
-45.139057 1.241990 43.356937 128 128 255 -0.025235 -0.999682 -0.000002
45.339058 -1.041990 36.612152 128 128 255 0.025234 0.999682 -0.000004
-45.139061 1.241990 69.744949 128 128 255 0.025236 0.999682 -0.000003
-45.139057 1.241990 36.630310 128 128 255 -0.025236 -0.999682 -0.000001
45.339058 -1.041990 43.344517 128 128 255 0.025235 0.999682 -0.000003
-45.139057 1.241990 68.775711 128 128 255 -0.025236 -0.999682 -0.000001
45.339058 -1.041990 30.383396 128 128 255 -0.025249 -0.999681 -0.000073
45.339058 -1.041990 49.226303 128 128 255 0.025236 0.999682 -0.000001
-45.139057 1.241990 66.613853 128 128 255 -0.025236 -0.999682 -0.000003
45.339058 -1.041990 24.793173 128 128 255 0.025234 0.999682 -0.000004
-45.139061 1.241990 53.195133 128 128 255 -0.025236 -0.999682 -0.000001
45.339058 -1.041990 64.730476 128 128 255 -0.025239 -0.999681 -0.000010
45.339058 -1.041990 18.407244 128 128 255 0.025235 0.999682 -0.000001
-45.139057 1.241990 55.623184 128 128 255 -0.025236 -0.999682 -0.000002
45.339058 -1.041990 63.799091 128 128 255 0.025238 0.999681 -0.000005
-45.139061 1.241990 9.349462 128 128 255 -0.025237 -0.999682 -0.000008
-45.139057 1.241990 57.945961 128 128 255 -0.025234 -0.999682 -0.000001
45.339058 -1.041990 62.924866 128 128 255 0.025237 0.999681 -0.000003
-45.139057 1.241990 -6.603274 128 128 255 -0.025234 -0.999682 -0.000002
45.339058 -1.041990 61.178669 128 128 255 0.025237 0.999682 -0.000004
-45.139061 1.241990 60.630421 128 128 255 0.025238 0.999681 -0.000002
-45.139057 1.241990 6.939937 128 128 255 -0.025236 -0.999682 -0.000001
45.339058 -1.041990 64.849297 128 128 255 0.025236 0.999682 -0.000003
-45.139057 1.241990 56.416786 128 128 255 -0.025235 -0.999682 -0.000001
45.339058 -1.041990 16.113604 128 128 255 0.025239 0.999681 -0.000015
45.339058 -1.041990 67.460686 128 128 255 0.025236 0.999682 -0.000001
-45.139057 1.241990 51.266499 128 128 255 -0.025235 -0.999682 -0.000004
45.339058 -1.041990 25.057877 128 128 255 0.025234 0.999682 -0.000003
-45.139061 1.241990 68.133247 128 128 255 -0.025236 -0.999682 -0.000001
45.339058 -1.041990 46.599380 128 128 255 -0.025242 -0.999681 -0.000016
45.339058 -1.041990 32.926598 128 128 255 0.025235 0.999682 -0.000001
-45.139057 1.241990 67.493004 128 128 255 -0.025236 -0.999682 -0.000002
45.339058 -1.041990 42.800922 128 128 255 0.025235 0.999682 -0.000005
-45.139061 1.241990 38.745712 128 128 255 -0.025236 -0.999682 -0.000001
45.339058 -1.041990 67.008598 128 128 255 -0.025235 -0.999682 -0.000012
45.339058 -1.041990 38.732697 128 128 255 0.025235 0.999682 -0.000002
-45.139057 1.241990 42.830078 128 128 255 -0.025236 -0.999682 -0.000001
45.339058 -1.041990 67.460037 128 128 255 0.025237 0.999681 -0.000005
-45.139061 1.241990 32.933208 128 128 255 0.025235 0.999682 -0.000007
-45.139057 1.241990 46.617538 128 128 255 -0.025235 -0.999682 -0.000001
45.339058 -1.041990 68.114220 128 128 255 0.025237 0.999681 -0.000003
-45.139057 1.241990 25.082342 128 128 255 -0.025235 -0.999682 -0.000001
45.339058 -1.041990 51.230736 128 128 255 0.025236 0.999682 -0.000004
-45.139057 1.241990 67.460686 128 128 255 0.025238 0.999681 -0.000002
-45.139057 1.241990 16.149368 128 128 255 -0.025236 -0.999682 -0.000001
45.339058 -1.041990 56.392323 128 128 255 0.025236 0.999682 -0.000003
-45.139061 1.241990 64.868324 128 128 255 -0.025235 -0.999682 -0.000001
45.339058 -1.041990 6.921778 128 128 255 0.025234 0.999682 -0.000014
45.339058 -1.041990 60.623810 128 128 255 0.025236 0.999682 -0.000001
-45.139057 1.241990 61.211632 128 128 255 -0.025236 -0.999682 -0.000003
45.339058 -1.041990 -6.632431 128 128 255 0.025232 0.999682 -0.000004
-45.139061 1.241990 62.937885 128 128 255 -0.025236 -0.999682 -0.000000
45.339058 -1.041990 57.945961 128 128 255 -0.025241 -0.999681 -0.000011
45.339058 -1.041990 9.336443 128 128 255 0.025234 0.999682 -0.000002
-45.139057 1.241990 63.828251 128 128 255 -0.025237 -0.999682 -0.000001
45.339058 -1.041990 55.590225 128 128 255 0.025237 0.999682 -0.000005
-45.139061 1.241990 18.413855 128 128 255 -0.025251 -0.999681 -0.000018
-45.139057 1.241990 64.748642 128 128 255 -0.025235 -0.999682 -0.000001
45.339058 -1.041990 53.176102 128 128 255 0.025236 0.999682 -0.000003
-45.139057 1.241990 24.817638 128 128 255 -0.025235 -0.999682 -0.000001
45.339058 -1.041990 66.578087 128 128 255 0.025237 0.999681 -0.000004
-45.139057 1.241990 49.226303 128 128 255 0.025237 0.999681 -0.000002
-45.139057 1.241990 30.419161 128 128 255 -0.025236 -0.999682 -0.000000
45.339058 -1.041990 68.751244 128 128 255 0.025237 0.999682 -0.000003
-45.139061 1.241990 43.363548 128 128 255 -0.025235 -0.999682 -0.000001
45.339058 -1.041990 36.612152 128 128 255 0.025235 0.999682 -0.000004
-45.139057 1.241990 69.738335 128 128 255 0.025238 0.999681 -0.000002
-45.139057 1.241990 36.645115 128 128 255 -0.025236 -0.999682 0.000000
45.339058 -1.041990 43.327782 128 128 255 0.025235 0.999682 -0.000004
-45.139061 1.241990 68.779068 128 128 255 -0.025236 -0.999682 -0.000001
45.339058 -1.041990 30.402426 128 128 255 -0.025261 -0.999681 -0.000094
45.339058 -1.041990 49.216640 128 128 255 0.025235 0.999682 -0.000001
-45.139057 1.241990 66.626274 128 128 255 -0.025236 -0.999682 -0.000002
45.339058 -1.041990 24.775013 128 128 255 0.025234 0.999682 -0.000004
-45.139061 1.241990 53.195133 128 128 255 -0.025236 -0.999682 -0.000001
45.339058 -1.041990 64.748642 128 128 255 -0.025237 -0.999681 -0.000010
45.339058 -1.041990 18.394823 128 128 255 0.025235 0.999682 -0.000002
-45.139057 1.241990 55.632847 128 128 255 -0.025236 -0.999682 -0.000001
45.339058 -1.041990 63.780060 128 128 255 0.025238 0.999681 -0.000005
-45.139057 1.241990 9.346106 128 128 255 -0.025249 -0.999681 -0.000010
-45.139057 1.241990 57.962696 128 128 255 -0.025235 -0.999682 -0.000000
45.339058 -1.041990 62.910061 128 128 255 0.025238 0.999681 -0.000004
-45.139061 1.241990 -6.596665 128 128 255 -0.025235 -0.999682 -0.000001
45.339058 -1.041990 61.178669 128 128 255 0.025237 0.999681 -0.000004
-45.139057 1.241990 60.623810 128 128 255 0.025240 0.999681 -0.000002
-45.139057 1.241990 6.954740 128 128 255 -0.025237 -0.999682 0.000000
45.339058 -1.041990 64.832565 128 128 255 0.025236 0.999682 -0.000003
-45.139061 1.241990 56.420143 128 128 255 -0.025235 -0.999682 -0.000001
45.339058 -1.041990 16.132633 128 128 255 0.025235 0.999682 -0.000018
45.339058 -1.041990 67.451019 128 128 255 0.025236 0.999682 -0.000001
-45.139057 1.241990 51.278923 128 128 255 -0.025235 -0.999682 -0.000002
45.339058 -1.041990 25.039717 128 128 255 0.025234 0.999682 -0.000004
-45.139061 1.241990 68.133247 128 128 255 -0.025236 -0.999682 -0.000001
45.339058 -1.041990 46.617538 128 128 255 -0.025240 -0.999681 -0.000016
45.339058 -1.041990 32.914177 128 128 255 0.025235 0.999682 -0.000002
-45.139057 1.241990 67.502663 128 128 255 -0.025236 -0.999682 -0.000001
45.339058 -1.041990 42.781891 128 128 255 0.025235 0.999682 -0.000005
-45.139057 1.241990 38.742359 128 128 255 -0.025235 -0.999682 -0.000001
45.339058 -1.041990 67.025330 128 128 255 -0.025232 -0.999682 -0.000011
45.339058 -1.041990 70.833893 128 128 255 -0.050484 -0.998725 -0.000000
45.339600 -1.042017 42.163197 128 128 255 0.025235 0.999682 0.000002
-45.139309 1.242002 46.456345 128 128 255 -0.025237 -0.999681 0.000001
45.339211 -1.041997 71.568512 128 128 255 0.025244 0.999681 -0.000016
-45.139652 1.242020 36.221401 128 128 255 0.025236 0.999682 -0.000004
-45.139076 1.241991 50.201691 128 128 255 -0.025236 -0.999682 -0.000002
45.339516 -1.042013 72.127075 128 128 255 0.025238 0.999681 -0.000009
-45.139416 1.242008 28.364861 128 128 255 -0.025235 -0.999682 0.000002
45.339130 -1.041993 54.988636 128 128 255 0.025235 0.999682 -0.000010
-45.139668 1.242021 71.387177 128 128 255 0.025237 0.999681 -0.000004
-45.139130 1.241993 19.262440 128 128 255 -0.025235 -0.999682 -0.000001
45.339417 -1.042008 60.207771 128 128 255 0.025241 0.999681 -0.000008
-45.139515 1.242013 68.874962 128 128 255 -0.025227 -0.999682 0.000003
45.339077 -1.041991 9.743171 128 128 255 -0.025234 -0.999682 0.000001
45.339649 -1.042020 64.416710 128 128 255 0.025238 0.999681 0.000002
-45.139210 1.241997 65.238777 128 128 255 -0.025237 -0.999681 -0.000000
45.339310 -1.042002 -3.993675 128 128 255 0.025228 0.999682 -0.000013
-45.139599 1.242017 66.871483 128 128 255 -0.025243 -0.999681 0.000001
45.339058 -1.041990 61.591995 128 128 255 -0.025237 -0.999681 0.000001
45.339600 -1.042017 12.165425 128 128 255 0.025235 0.999682 0.000002
-45.139309 1.242002 67.931442 128 128 255 -0.025237 -0.999681 0.000001
45.339211 -1.041997 59.396790 128 128 255 0.025247 0.999681 -0.000024
-45.139652 1.242020 21.467869 128 128 255 0.025234 0.999682 -0.000004
-45.139076 1.241991 68.691345 128 128 255 -0.025236 -0.999682 -0.000002
45.339516 -1.042013 56.841892 128 128 255 0.025233 0.999682 -0.000010
-45.139416 1.242008 28.179531 128 128 255 -0.025238 -0.999681 0.000002
45.339130 -1.041993 70.560349 128 128 255 0.025240 0.999681 -0.000012
-45.139668 1.242021 52.825211 128 128 255 0.025237 0.999681 -0.000004
-45.139130 1.241993 33.841248 128 128 255 -0.025235 -0.999682 -0.000001
45.339417 -1.042008 72.721939 128 128 255 0.025242 0.999681 -0.000009
-45.139515 1.242013 47.045162 128 128 255 -0.025232 -0.999682 0.000003
45.339077 -1.041991 39.946869 128 128 255 0.025232 0.999682 -0.000010
-45.139652 1.242020 73.694939 128 128 255 0.025235 0.999682 -0.000004
-45.139210 1.241997 40.268398 128 128 255 -0.025235 -0.999682 -0.000000
45.339310 -1.042002 46.825218 128 128 255 0.025237 0.999682 -0.000010
-45.139599 1.242017 72.893028 128 128 255 -0.025233 -0.999682 0.000002
45.339058 -1.041990 33.504280 128 128 255 -0.025235 -0.999682 0.000001
45.339600 -1.042017 52.765793 128 128 255 0.025237 0.999682 0.000002
-45.139309 1.242002 70.856667 128 128 255 -0.025234 -0.999682 0.000002
45.339211 -1.041997 27.917414 128 128 255 0.025232 0.999682 -0.000016
-45.139652 1.242020 56.958920 128 128 255 -0.025241 -0.999681 0.000001
45.339077 -1.041991 68.691345 128 128 255 -0.025237 -0.999681 0.000001
45.339516 -1.042013 21.350838 128 128 255 0.025235 0.999682 0.000001
-45.139416 1.242008 59.658905 128 128 255 -0.025239 -0.999681 0.000002
45.339130 -1.041993 67.635117 128 128 255 0.025257 0.999681 -0.000026
-45.139668 1.242021 12.224843 128 128 255 0.025235 0.999682 -0.000004
-45.139130 1.241993 61.928959 128 128 255 -0.025236 -0.999682 -0.000001
45.339417 -1.042008 66.700394 128 128 255 0.025239 0.999681 -0.000016
-45.139515 1.242013 -3.773732 128 128 255 -0.025238 -0.999681 0.000002
45.339077 -1.041991 64.917252 128 128 255 0.025234 0.999682 -0.000008
-45.139652 1.242020 64.416710 128 128 255 0.025238 0.999681 -0.000004
-45.139210 1.241997 10.064699 128 128 255 -0.025235 -0.999682 -0.000000
45.339310 -1.042002 68.655014 128 128 255 0.025241 0.999681 -0.000009
-45.139599 1.242017 60.378860 128 128 255 -0.025226 -0.999682 0.000003
45.339058 -1.041990 18.925476 128 128 255 -0.025234 -0.999682 0.000001
45.339600 -1.042017 71.327759 128 128 255 0.025237 0.999681 0.000002
-45.139309 1.242002 55.284962 128 128 255 -0.025233 -0.999682 0.000002
45.339211 -1.041997 28.102743 128 128 255 0.025232 0.999682 -0.000012
-45.139652 1.242020 72.244110 128 128 255 -0.025239 -0.999681 0.000001
45.339077 -1.041991 50.201691 128 128 255 -0.025236 -0.999682 0.000001
45.339516 -1.042013 36.104370 128 128 255 0.025236 0.999682 0.000001
-45.139416 1.242008 71.830627 128 128 255 -0.025236 -0.999682 0.000002
45.339130 -1.041993 46.160023 128 128 255 0.025240 0.999681 -0.000019
-45.139668 1.242021 42.222614 128 128 255 -0.025240 -0.999681 -0.000001
45.339130 -1.041993 71.170860 128 128 255 -0.025237 -0.999682 0.000001
45.339417 -1.042008 41.992111 128 128 255 0.025235 0.999682 0.000000
-45.139515 1.242013 46.676289 128 128 255 -0.025239 -0.999681 0.000002
45.339077 -1.041991 71.246986 128 128 255 0.025244 0.999681 -0.000015
-45.139652 1.242020 36.221401 128 128 255 0.025236 0.999682 -0.000004
-45.139210 1.241997 50.523220 128 128 255 -0.025236 -0.999682 -0.000000
45.339310 -1.042002 71.907135 128 128 255 0.025242 0.999681 -0.000013
-45.139599 1.242017 28.535946 128 128 255 -0.025234 -0.999682 0.000002
45.339058 -1.041990 54.651672 128 128 255 0.025233 0.999682 -0.000007
-45.139599 1.242017 71.327759 128 128 255 0.025237 0.999681 -0.000004
-45.139309 1.242002 19.558765 128 128 255 -0.025235 -0.999682 0.000001
45.339211 -1.041997 59.945656 128 128 255 0.025237 0.999681 -0.000009
-45.139652 1.242020 68.991989 128 128 255 -0.025226 -0.999682 0.000001
45.339077 -1.041991 9.743171 128 128 255 -0.025234 -0.999682 0.000001
45.339516 -1.042013 64.299683 128 128 255 0.025237 0.999681 0.000001
-45.139416 1.242008 65.500893 128 128 255 -0.025223 -0.999682 0.000005
45.339130 -1.041993 -4.289999 128 128 255 0.025227 0.999682 -0.000014
-45.139668 1.242021 66.930901 128 128 255 -0.025244 -0.999681 -0.000001
45.339130 -1.041993 61.928959 128 128 255 -0.025237 -0.999682 0.000001
45.339417 -1.042008 11.994339 128 128 255 0.025235 0.999682 0.000000
-45.139515 1.242013 68.151390 128 128 255 -0.025240 -0.999681 0.000002
45.339077 -1.041991 59.075260 128 128 255 0.025254 0.999681 -0.000024
-45.139652 1.242020 21.467869 128 128 255 0.025234 0.999682 -0.000004
-45.139210 1.241997 69.012878 128 128 255 -0.025237 -0.999682 -0.000000
45.339310 -1.042002 56.621948 128 128 255 0.025239 0.999681 -0.000014
-45.139599 1.242017 28.350616 128 128 255 -0.025239 -0.999681 0.000002
45.339058 -1.041990 70.223381 128 128 255 0.025237 0.999681 -0.000009
-45.139599 1.242017 52.765793 128 128 255 0.025237 0.999681 -0.000004
-45.139309 1.242002 34.137569 128 128 255 -0.025236 -0.999682 0.000001
45.339211 -1.041997 72.459824 128 128 255 0.025241 0.999681 -0.000011
-45.139652 1.242020 47.162193 128 128 255 -0.025231 -0.999682 0.000001
45.339077 -1.041991 39.946869 128 128 255 0.025233 0.999682 -0.000006
-45.139515 1.242013 73.577911 128 128 255 0.025236 0.999682 -0.000003
-45.139416 1.242008 40.530514 128 128 255 -0.025235 -0.999682 0.000002
45.339130 -1.041993 46.528896 128 128 255 0.025234 0.999682 -0.000010
-45.139668 1.242021 72.952446 128 128 255 -0.025235 -0.999682 -0.000001
45.339130 -1.041993 33.841248 128 128 255 -0.025235 -0.999682 0.000001
45.339417 -1.042008 52.594704 128 128 255 0.025236 0.999682 0.000000
-45.139515 1.242013 71.076614 128 128 255 -0.025231 -0.999682 0.000003
45.339077 -1.041991 27.595886 128 128 255 0.025234 0.999682 -0.000015
-45.139652 1.242020 56.958920 128 128 255 -0.025241 -0.999681 -0.000002
45.339211 -1.041997 69.012878 128 128 255 -0.025237 -0.999682 0.000000
45.339310 -1.042002 21.130896 128 128 255 0.025235 0.999682 -0.000001
-45.139599 1.242017 59.829994 128 128 255 -0.025242 -0.999681 0.000002
45.339058 -1.041990 67.298157 128 128 255 0.025260 0.999681 -0.000022
-45.139599 1.242017 12.165425 128 128 255 0.025235 0.999682 -0.000004
-45.139309 1.242002 62.225285 128 128 255 -0.025237 -0.999681 0.000001
45.339211 -1.041997 66.438278 128 128 255 0.025251 0.999681 -0.000021
-45.139652 1.242020 -3.656701 128 128 255 -0.025237 -0.999681 0.000001
45.339077 -1.041991 64.917252 128 128 255 0.025233 0.999682 -0.000005
-45.139515 1.242013 64.299683 128 128 255 0.025238 0.999681 -0.000003
-45.139416 1.242008 10.326816 128 128 255 -0.025235 -0.999682 0.000002
45.339130 -1.041993 68.358688 128 128 255 0.025237 0.999681 -0.000009
-45.139668 1.242021 60.438278 128 128 255 -0.025228 -0.999682 -0.000001
45.339130 -1.041993 19.262440 128 128 255 -0.025234 -0.999682 0.000001
45.339417 -1.042008 71.156677 128 128 255 0.025237 0.999681 0.000000
-45.139515 1.242013 55.504902 128 128 255 -0.025227 -0.999682 0.000004
45.339077 -1.041991 27.781216 128 128 255 0.025231 0.999682 -0.000011
-45.139652 1.242020 72.244110 128 128 255 -0.025240 -0.999681 -0.000002
45.339211 -1.041997 50.523220 128 128 255 -0.025236 -0.999682 0.000000
45.339310 -1.042002 35.884426 128 128 255 0.025235 0.999682 -0.000001
-45.139599 1.242017 72.001717 128 128 255 -0.025237 -0.999681 0.000002
45.339058 -1.041990 45.823059 128 128 255 0.025242 0.999681 -0.000016
-45.139599 1.242017 42.163197 128 128 255 -0.025238 -0.999681 -0.000003
45.339310 -1.042002 71.467186 128 128 255 -0.025235 -0.999682 -0.000001
45.339058 -1.041990 78.120010 128 128 255 -0.050440 -0.998727 0.000000
45.340919 -1.042084 47.927910 128 128 255 0.025235 0.999682 0.000003
-45.139927 1.242034 53.019772 128 128 255 -0.025240 -0.999681 0.000018
45.339584 -1.042016 78.754349 128 128 255 -0.025217 -0.999682 -0.000024
-45.141102 1.242093 41.763050 128 128 255 0.025236 0.999682 -0.000004
-45.139122 1.241993 57.206142 128 128 255 -0.025236 -0.999682 -0.000002
45.340637 -1.042070 78.602448 128 128 255 -0.025228 -0.999682 -0.000022
-45.140293 1.242052 34.403042 128 128 255 -0.025242 -0.999681 0.000068
45.339302 -1.042002 61.971836 128 128 255 -0.025232 -0.999682 -0.000173
-45.141163 1.242096 77.521561 128 128 255 0.025237 0.999681 -0.000004
-45.139305 1.242002 25.707916 128 128 255 -0.025234 -0.999682 -0.000001
45.340294 -1.042052 66.644135 128 128 255 -0.024834 -0.999692 -0.000351
-45.140636 1.242070 75.462311 128 128 255 0.025328 0.999679 0.000052
45.339119 -1.041993 15.923666 128 128 255 -0.025234 -0.999682 0.000001
45.341103 -1.042093 70.423813 128 128 255 0.025239 0.999681 0.000004
-45.139584 1.242016 72.469749 128 128 255 0.025239 0.999681 0.000022
45.339928 -1.042034 1.441175 128 128 255 -0.025248 -0.999681 -0.000029
-45.140919 1.242084 73.231827 128 128 255 -0.025265 -0.999681 0.000010
45.339058 -1.041990 68.687828 128 128 255 -0.025238 -0.999681 0.000002
45.340919 -1.042084 17.266146 128 128 255 0.025236 0.999682 0.000003
-45.139927 1.242034 75.079407 128 128 255 -0.025234 -0.999682 0.000014
45.339584 -1.042016 66.176826 128 128 255 -0.025225 -0.999682 -0.000015
-45.141102 1.242093 26.828348 128 128 255 0.025234 0.999682 -0.000004
-45.139122 1.241993 76.076294 128 128 255 -0.025238 -0.999681 -0.000002
45.340637 -1.042070 62.883270 128 128 255 -0.025242 -0.999681 -0.000019
-45.140293 1.242052 34.409538 128 128 255 -0.025251 -0.999681 0.000025
45.339302 -1.042002 77.680977 128 128 255 -0.025216 -0.999682 -0.000039
-45.141163 1.242096 58.653946 128 128 255 0.025237 0.999681 -0.000004
-45.139305 1.242002 40.648743 128 128 255 -0.025235 -0.999682 -0.000001
45.340294 -1.042052 79.209648 128 128 255 -0.025193 -0.999683 -0.000046
-45.140636 1.242070 53.415108 128 128 255 0.044629 0.998705 0.024416
45.339119 -1.041993 46.578213 128 128 255 -0.025249 -0.999681 -0.000039
-45.141102 1.242093 79.854729 128 128 255 0.025236 0.999682 -0.000004
-45.139584 1.242016 47.175018 128 128 255 -0.025235 -0.999682 0.000000
45.339928 -1.042034 53.006844 128 128 255 -0.025211 -0.999682 -0.000063
