ply
format ascii 1.0
element vertex 702
property float x
property float y
property float z
property uchar red
property uchar green
property uchar blue
property float nx
property float ny
property float nz
end_header
-1.050000 0.340192 -0.131250 128 128 255 1.000000 0.000000 0.000000
-1.050000 0.527692 -0.131250 128 128 255 1.000000 0.000000 0.000000
-1.050000 0.715192 -0.131250 128 128 255 -0.730185 -0.608203 -0.311317
0.221827 -0.923194 -0.661421 128 128 255 -0.044542 0.136102 -0.989693
0.221827 -0.923194 -0.509137 128 128 255 0.992986 0.118230 0.000000
0.221827 -0.923194 -0.356853 128 128 255 0.992986 0.118230 0.000000
0.221827 -0.923194 -0.204569 128 128 255 0.992986 0.118230 0.000000
0.221827 -0.923194 -0.052284 128 128 255 0.992986 0.118230 0.000000
0.221827 -0.923194 0.100000 128 128 255 0.992986 0.118230 0.000000
0.221827 -0.923194 0.252284 128 128 255 0.992986 0.118230 0.000000
0.221827 -0.923194 0.404569 128 128 255 0.992986 0.118230 0.000000
0.221827 -0.923194 0.556853 128 128 255 0.992986 0.118230 0.000000
0.221827 -0.923194 0.709137 128 128 255 0.992986 0.118230 0.000000
0.221827 -0.923194 0.861421 128 128 255 -0.431837 -0.561123 -0.706157
0.675833 0.173612 -0.518333 128 128 255 -0.670050 -0.452960 -0.588099
0.739815 0.181791 -0.587037 128 128 255 -0.654653 -0.377966 -0.654653
0.819792 0.192015 -0.672917 128 128 255 -0.654654 -0.377964 -0.654654
0.922619 0.205160 -0.783333 128 128 255 -0.654653 -0.377966 -0.654653
1.059722 0.222687 -0.930556 128 128 255 -0.654653 -0.377965 -0.654653
1.251667 0.247224 -1.136667 128 128 255 -0.654654 -0.377964 -0.654654
1.539583 0.284030 -1.445833 128 128 255 -0.654654 -0.377964 -0.654654
2.019444 0.345374 -1.961111 128 128 255 -0.654654 -0.377963 -0.654654
2.979167 0.468061 -2.991667 128 128 255 -0.654652 -0.377969 -0.654653
5.858333 0.836122 -6.083333 128 128 255 0.698199 0.344071 0.627801
0.132562 0.747331 -0.038929 128 128 255 0.666255 0.387469 0.637159
0.119537 0.724772 -0.012880 128 128 255 0.418907 0.572237 0.705026
0.106512 0.702212 0.013169 128 128 255 0.418906 0.572238 0.705026
0.093488 0.679653 0.039219 128 128 255 0.418906 0.572238 0.705026
0.080463 0.657094 0.065268 128 128 255 0.418909 0.572236 0.705026
0.067438 0.634535 0.091317 128 128 255 0.418908 0.572237 0.705026
0.054414 0.611975 0.117366 128 128 255 0.418905 0.572238 0.705026
0.041389 0.589416 0.143415 128 128 255 0.418909 0.572237 0.705025
0.028365 0.566857 0.169465 128 128 255 0.418909 0.572236 0.705025
0.015340 0.544298 0.195514 128 128 255 0.418904 0.572239 0.705026
0.002315 0.521738 0.221563 128 128 255 0.136542 0.975941 0.169986
-0.307317 0.492880 0.646341 128 128 255 0.033635 0.987184 0.156003
-0.303061 0.471154 0.671429 128 128 255 0.000000 0.755929 0.654653
-0.298396 0.447336 0.698931 128 128 255 0.000000 0.755929 0.654654
-0.293258 0.421111 0.729213 128 128 255 0.000000 0.755929 0.654654
-0.287574 0.392091 0.762722 128 128 255 0.000000 0.755929 0.654654
-0.281250 0.359808 0.800000 128 128 255 0.000000 0.755929 0.654654
-0.274172 0.323675 0.841722 128 128 255 0.000000 0.755929 0.654654
-0.266197 0.282963 0.888732 128 128 255 0.000000 0.755929 0.654654
-0.257143 0.236741 0.942105 128 128 255 0.000000 0.755929 0.654654
-0.246774 0.183809 1.003226 128 128 255 0.000000 0.755929 0.654653
-0.234783 0.122592 1.073913 128 128 255 0.377428 -0.281598 -0.882185
-3.316667 -0.804808 0.100000 128 128 255 0.448696 -0.093641 -0.888765
-2.691667 -0.804808 0.100000 128 128 255 0.000000 0.000000 1.000000
-2.066667 -0.804808 0.100000 128 128 255 0.000000 0.000000 1.000000
-1.441667 -0.804808 0.100000 128 128 255 0.000000 0.000000 1.000000
-0.816667 -0.804808 0.100000 128 128 255 0.000000 0.000000 1.000000
-0.191667 -0.804808 0.100000 128 128 255 0.000000 0.000000 1.000000
0.433333 -0.804808 0.100000 128 128 255 0.000000 0.000000 1.000000
1.058333 -0.804808 0.100000 128 128 255 0.000000 0.000000 1.000000
1.683333 -0.804808 0.100000 128 128 255 0.000000 0.000000 1.000000
2.308333 -0.804808 0.100000 128 128 255 0.328060 0.411654 -0.850246
0.950000 -1.159808 -0.131250 128 128 255 0.031233 0.514245 -0.857075
0.950000 -1.159808 -0.100000 128 128 255 1.000000 0.000000 0.000000
0.950000 -0.972308 -0.100000 128 128 255 1.000000 0.000000 0.000000
0.950000 -0.784808 -0.100000 128 128 255 1.000000 0.000000 0.000000
0.950000 -0.597308 -0.100000 128 128 255 1.000000 0.000000 0.000000
0.950000 -0.409808 -0.100000 128 128 255 1.000000 0.000000 0.000000
0.950000 -0.222308 -0.100000 128 128 255 1.000000 0.000000 0.000000
0.950000 -0.034808 -0.100000 128 128 255 1.000000 0.000000 0.000000
0.950000 0.152692 -0.100000 128 128 255 1.000000 0.000000 0.000000
0.950000 0.340192 -0.100000 128 128 255 1.000000 0.000000 0.000000
0.950000 0.527692 -0.100000 128 128 255 1.000000 0.000000 0.000000
0.950000 0.715192 -0.100000 128 128 255 0.672229 0.681262 -0.289811
0.225000 0.716827 -0.681250 128 128 255 0.387702 -0.331835 -0.859984
0.225000 0.716827 -0.525000 128 128 255 -0.980078 0.198613 0.000000
0.225000 0.716827 -0.368750 128 128 255 -0.980078 0.198613 0.000000
0.225000 0.716827 -0.212500 128 128 255 -0.980078 0.198613 0.000000
0.225000 0.716827 -0.056250 128 128 255 -0.980078 0.198613 0.000000
0.225000 0.716827 0.100000 128 128 255 -0.980078 0.198613 0.000000
0.225000 0.716827 0.256250 128 128 255 -0.980078 0.198613 0.000000
0.225000 0.716827 0.412500 128 128 255 -0.980078 0.198613 0.000000
0.225000 0.716827 0.568750 128 128 255 -0.980078 0.198613 0.000000
0.225000 0.716827 0.725000 128 128 255 -0.980078 0.198613 0.000000
0.225000 0.716827 0.881250 128 128 255 -0.684993 -0.590299 0.427003
0.673333 0.169282 0.553333 128 128 255 -0.675152 -0.734316 0.070359
0.737037 0.176980 0.603704 128 128 255 0.447214 -0.774596 -0.447214
0.816667 0.186603 0.666667 128 128 255 0.447214 -0.774597 -0.447214
0.919048 0.198974 0.747619 128 128 255 0.447213 -0.774597 -0.447213
1.055556 0.215470 0.855556 128 128 255 0.447214 -0.774597 -0.447214
1.246667 0.238564 1.006667 128 128 255 0.447214 -0.774596 -0.447214
1.533333 0.273205 1.233333 128 128 255 0.447214 -0.774596 -0.447214
2.011111 0.330940 1.611111 128 128 255 0.447213 -0.774597 -0.447213
2.966667 0.446410 2.366667 128 128 255 0.447213 -0.774597 -0.447213
5.833333 0.792820 4.633333 128 128 255 0.720384 -0.181013 -0.669538
0.600000 9.364743 -1.900000 128 128 255 0.550254 -0.215154 -0.806802
0.412500 9.039984 -1.525000 128 128 255 -0.894427 -0.000000 -0.447214
0.225000 8.715224 -1.150000 128 128 255 -0.894427 0.000000 -0.447214
0.037500 8.390464 -0.775000 128 128 255 -0.894427 0.000000 -0.447214
-0.150000 8.065704 -0.400000 128 128 255 -0.894427 -0.000000 -0.447214
-0.337500 7.740945 -0.025000 128 128 255 -0.894427 -0.000000 -0.447214
-0.525000 7.416186 0.350000 128 128 255 -0.894427 -0.000000 -0.447214
-0.712500 7.091426 0.725000 128 128 255 -0.894427 -0.000000 -0.447214
-0.900000 6.766667 1.100000 128 128 255 -0.894427 0.000000 -0.447214
-1.087500 6.441907 1.475000 128 128 255 -0.894427 0.000000 -0.447214
-1.275000 6.117147 1.850000 128 128 255 -0.979863 -0.080199 -0.182859
-0.517073 0.087326 1.114634 128 128 255 -0.874696 -0.154039 0.459542
-0.522449 0.046978 1.161224 128 128 255 0.000000 0.755929 0.654654
-0.528342 0.002746 1.212299 128 128 255 0.000000 0.755929 0.654654
-0.534831 -0.045959 1.268539 128 128 255 0.000000 0.755929 0.654654
-0.542012 -0.099852 1.330769 128 128 255 0.000000 0.755929 0.654654
-0.550000 -0.159808 1.400000 128 128 255 0.000000 0.755929 0.654654
-0.558940 -0.226910 1.477483 128 128 255 0.000000 0.755929 0.654654
-0.569014 -0.302519 1.564789 128 128 255 0.000000 0.755929 0.654654
-0.580451 -0.388360 1.663910 128 128 255 0.000000 0.755929 0.654654
-0.593548 -0.486662 1.777419 128 128 255 0.000000 0.755929 0.654654
-0.608696 -0.600351 1.908696 128 128 255 -0.297658 -0.222082 -0.928482
2.516667 2.632692 0.100000 128 128 255 -0.528029 -0.110197 -0.842046
1.891667 2.632692 0.100000 128 128 255 0.000000 0.000000 1.000000
1.266667 2.632692 0.100000 128 128 255 0.000000 0.000000 1.000000
0.641667 2.632692 0.100000 128 128 255 0.000000 0.000000 1.000000
0.016667 2.632692 0.100000 128 128 255 0.000000 0.000000 1.000000
-0.608333 2.632692 0.100000 128 128 255 0.000000 0.000000 1.000000
-1.233333 2.632692 0.100000 128 128 255 0.000000 0.000000 1.000000
-1.858333 2.632692 0.100000 128 128 255 0.000000 0.000000 1.000000
-2.483333 2.632692 0.100000 128 128 255 0.000000 0.000000 1.000000
-3.108333 2.632692 0.100000 128 128 255 -0.543756 -0.222880 -0.809107
-1.050000 -1.159808 -0.100000 128 128 255 -0.697733 -0.368563 -0.614272
-1.050000 -0.972308 -0.100000 128 128 255 1.000000 0.000000 0.000000
-1.050000 -0.784808 -0.100000 128 128 255 1.000000 0.000000 0.000000
-1.050000 -0.597308 -0.100000 128 128 255 1.000000 0.000000 0.000000
-1.050000 -0.409808 -0.100000 128 128 255 1.000000 0.000000 0.000000
-1.050000 -0.222308 -0.100000 128 128 255 1.000000 0.000000 0.000000
-1.050000 -0.034808 -0.100000 128 128 255 1.000000 0.000000 0.000000
-1.050000 0.152692 -0.100000 128 128 255 1.000000 0.000000 0.000000
-1.050000 0.340192 -0.100000 128 128 255 1.000000 0.000000 0.000000
-1.050000 0.527692 -0.100000 128 128 255 1.000000 0.000000 0.000000
-1.050000 0.715192 -0.100000 128 128 255 -0.738811 -0.590858 -0.324107
0.225000 -0.949840 -0.681250 128 128 255 -0.036034 0.166222 -0.985430
0.225000 -0.949840 -0.525000 128 128 255 0.992986 0.118231 0.000000
0.225000 -0.949840 -0.368750 128 128 255 0.992986 0.118231 0.000000
0.225000 -0.949840 -0.212500 128 128 255 0.992986 0.118231 0.000000
0.225000 -0.949840 -0.056250 128 128 255 0.992986 0.118231 0.000000
0.225000 -0.949840 0.100000 128 128 255 0.992986 0.118231 0.000000
0.225000 -0.949840 0.256250 128 128 255 0.992986 0.118231 0.000000
0.225000 -0.949840 0.412500 128 128 255 0.992986 0.118231 0.000000
0.225000 -0.949840 0.568750 128 128 255 0.992986 0.118231 0.000000
0.225000 -0.949840 0.725000 128 128 255 0.992986 0.118231 0.000000
0.225000 -0.949840 0.881250 128 128 255 -0.425171 -0.562911 -0.708774
0.673333 0.169282 -0.513333 128 128 255 -0.669240 -0.454860 -0.587554
0.737037 0.176980 -0.581481 128 128 255 -0.654655 -0.377962 -0.654654
0.816667 0.186603 -0.666667 128 128 255 -0.654654 -0.377964 -0.654654
0.919048 0.198974 -0.776190 128 128 255 -0.654654 -0.377964 -0.654654
1.055556 0.215470 -0.922222 128 128 255 -0.654653 -0.377966 -0.654653
1.246667 0.238564 -1.126667 128 128 255 -0.654654 -0.377964 -0.654654
1.533333 0.273205 -1.433333 128 128 255 -0.654654 -0.377964 -0.654654
2.011111 0.330940 -1.944444 128 128 255 -0.654654 -0.377965 -0.654654
2.966667 0.446410 -2.966667 128 128 255 -0.654654 -0.377964 -0.654654
5.833333 0.792820 -6.033333 128 128 255 0.698515 0.343851 0.627569
0.134884 0.746377 -0.039535 128 128 255 0.666448 0.387477 0.636952
0.121802 0.723720 -0.013372 128 128 255 0.418907 0.572237 0.705026
0.108721 0.701062 0.012791 128 128 255 0.418906 0.572238 0.705026
0.095640 0.678405 0.038953 128 128 255 0.418907 0.572237 0.705026
0.082558 0.655747 0.065116 128 128 255 0.418908 0.572237 0.705026
0.069477 0.633089 0.091279 128 128 255 0.418909 0.572236 0.705025
0.056395 0.610432 0.117442 128 128 255 0.418908 0.572237 0.705026
0.043314 0.587774 0.143605 128 128 255 0.418907 0.572237 0.705026
0.030233 0.565116 0.169767 128 128 255 0.418910 0.572235 0.705025
0.017151 0.542459 0.195930 128 128 255 0.418911 0.572235 0.705025
0.004070 0.519801 0.222093 128 128 255 0.138211 0.977346 0.160290
-0.282927 0.492880 0.646341 128 128 255 0.034001 0.988006 0.150623
-0.277551 0.471154 0.671429 128 128 255 0.000000 0.755929 0.654653
-0.271658 0.447336 0.698931 128 128 255 0.000000 0.755929 0.654654
-0.265169 0.421111 0.729213 128 128 255 0.000000 0.755929 0.654654
-0.257988 0.392091 0.762722 128 128 255 0.000000 0.755929 0.654654
-0.250000 0.359808 0.800000 128 128 255 0.000000 0.755929 0.654654
-0.241060 0.323675 0.841722 128 128 255 0.000000 0.755929 0.654654
-0.230986 0.282963 0.888732 128 128 255 0.000000 0.755929 0.654654
-0.219549 0.236741 0.942105 128 128 255 0.000000 0.755929 0.654654
-0.206452 0.183809 1.003226 128 128 255 0.000000 0.755929 0.654653
-0.191304 0.122592 1.073913 128 128 255 0.361222 -0.269507 -0.892684
-3.316667 -0.700641 0.100000 128 128 255 0.436986 -0.091197 -0.894833
-2.691667 -0.700641 0.100000 128 128 255 0.000000 0.000000 1.000000
-2.066667 -0.700641 0.100000 128 128 255 0.000000 0.000000 1.000000
-1.441667 -0.700641 0.100000 128 128 255 0.000000 0.000000 1.000000
-0.816667 -0.700641 0.100000 128 128 255 0.000000 0.000000 1.000000
-0.191667 -0.700641 0.100000 128 128 255 0.000000 0.000000 1.000000
0.433333 -0.700641 0.100000 128 128 255 0.000000 0.000000 1.000000
1.058333 -0.700641 0.100000 128 128 255 0.000000 0.000000 1.000000
1.683333 -0.700641 0.100000 128 128 255 0.000000 0.000000 1.000000
2.308333 -0.700641 0.100000 128 128 255 0.239817 0.423054 -0.873792
0.950000 -1.159808 -0.100000 128 128 255 -0.027923 0.514295 -0.857158
0.950000 -1.159808 -0.068750 128 128 255 1.000000 0.000000 0.000000
0.950000 -0.972308 -0.068750 128 128 255 1.000000 0.000000 0.000000
0.950000 -0.784808 -0.068750 128 128 255 1.000000 0.000000 0.000000
0.950000 -0.597308 -0.068750 128 128 255 1.000000 0.000000 0.000000
0.950000 -0.409808 -0.068750 128 128 255 1.000000 0.000000 0.000000
0.950000 -0.222308 -0.068750 128 128 255 1.000000 0.000000 0.000000
0.950000 -0.034808 -0.068750 128 128 255 1.000000 0.000000 0.000000
0.950000 0.152692 -0.068750 128 128 255 1.000000 0.000000 0.000000
0.950000 0.340192 -0.068750 128 128 255 1.000000 0.000000 0.000000
0.950000 0.527692 -0.068750 128 128 255 1.000000 0.000000 0.000000
0.950000 0.715192 -0.068750 128 128 255 0.709492 0.637809 -0.299701
0.228342 0.733320 -0.702139 128 128 255 0.419242 -0.370497 -0.828835
0.228342 0.733320 -0.541711 128 128 255 -0.980078 0.198613 0.000000
0.228342 0.733320 -0.381283 128 128 255 -0.980078 0.198613 0.000000
0.228342 0.733320 -0.220856 128 128 255 -0.980078 0.198613 0.000000
0.228342 0.733320 -0.060428 128 128 255 -0.980078 0.198613 0.000000
0.228342 0.733320 0.100000 128 128 255 -0.980078 0.198613 0.000000
0.228342 0.733320 0.260428 128 128 255 -0.980078 0.198613 0.000000
0.228342 0.733320 0.420856 128 128 255 -0.980078 0.198613 0.000000
0.228342 0.733320 0.581283 128 128 255 -0.980078 0.198613 0.000000
0.228342 0.733320 0.741711 128 128 255 -0.980078 0.198613 0.000000
0.228342 0.733320 0.902139 128 128 255 -0.695201 -0.577992 0.427343
0.670833 0.164952 0.558333 128 128 255 -0.687970 -0.720534 0.086764
0.734259 0.172169 0.609259 128 128 255 0.447213 -0.774598 -0.447213
0.813542 0.181190 0.672917 128 128 255 0.447213 -0.774597 -0.447213
0.915476 0.192788 0.754762 128 128 255 0.447213 -0.774597 -0.447213
1.051389 0.208253 0.863889 128 128 255 0.447213 -0.774597 -0.447213
1.241667 0.229904 1.016667 128 128 255 0.447214 -0.774597 -0.447214
1.527083 0.262380 1.245833 128 128 255 0.447214 -0.774596 -0.447214
2.002778 0.316506 1.627778 128 128 255 0.447214 -0.774596 -0.447214
2.954167 0.424760 2.391667 128 128 255 0.447213 -0.774597 -0.447213
5.808333 0.749519 4.683333 128 128 255 0.712933 -0.189839 -0.675047
0.666667 9.924658 -2.033333 128 128 255 0.548072 -0.220309 -0.806896
0.466667 9.578247 -1.633333 128 128 255 -0.894427 -0.000000 -0.447214
0.266667 9.231837 -1.233333 128 128 255 -0.894427 0.000000 -0.447214
0.066667 8.885427 -0.833333 128 128 255 -0.894427 0.000000 -0.447214
-0.133333 8.539017 -0.433333 128 128 255 -0.894427 0.000000 -0.447214
-0.333333 8.192607 -0.033333 128 128 255 -0.894427 -0.000000 -0.447214
-0.533333 7.846196 0.366667 128 128 255 -0.894427 -0.000000 -0.447214
-0.733333 7.499786 0.766667 128 128 255 -0.894427 -0.000000 -0.447214
-0.933333 7.153376 1.166667 128 128 255 -0.894427 -0.000000 -0.447214
-1.133333 6.806966 1.566667 128 128 255 -0.894427 -0.000000 -0.447214
-1.333333 6.460556 1.966667 128 128 255 -0.979165 -0.082587 -0.185514
-0.492683 0.087326 1.114634 128 128 255 -0.884687 -0.164068 0.436361
-0.496939 0.046978 1.161224 128 128 255 0.000000 0.755929 0.654654
-0.501604 0.002746 1.212299 128 128 255 0.000000 0.755929 0.654654
-0.506742 -0.045959 1.268539 128 128 255 0.000000 0.755929 0.654654
-0.512426 -0.099852 1.330769 128 128 255 0.000000 0.755929 0.654654
-0.518750 -0.159808 1.400000 128 128 255 0.000000 0.755929 0.654654
-0.525828 -0.226910 1.477483 128 128 255 0.000000 0.755929 0.654654
-0.533803 -0.302519 1.564789 128 128 255 0.000000 0.755929 0.654654
-0.542857 -0.388360 1.663910 128 128 255 0.000000 0.755929 0.654654
-0.553226 -0.486662 1.777419 128 128 255 0.000000 0.755929 0.654654
-0.565217 -0.600351 1.908696 128 128 255 -0.303701 -0.226591 -0.925431
2.516667 2.528525 0.100000 128 128 255 -0.536603 -0.111987 -0.836371
1.891667 2.528525 0.100000 128 128 255 0.000000 0.000000 1.000000
1.266667 2.528525 0.100000 128 128 255 0.000000 0.000000 1.000000
0.641667 2.528525 0.100000 128 128 255 0.000000 0.000000 1.000000
0.016667 2.528525 0.100000 128 128 255 0.000000 0.000000 1.000000
-0.608333 2.528525 0.100000 128 128 255 0.000000 0.000000 1.000000
-1.233333 2.528525 0.100000 128 128 255 0.000000 0.000000 1.000000
-1.858333 2.528525 0.100000 128 128 255 0.000000 0.000000 1.000000
-2.483333 2.528525 0.100000 128 128 255 0.000000 0.000000 1.000000
-3.108333 2.528525 0.100000 128 128 255 -0.519259 -0.226963 -0.823928
-1.050000 -1.159808 -0.068750 128 128 255 -0.682947 -0.375822 -0.626371
-1.050000 -0.972308 -0.068750 128 128 255 1.000000 0.000000 0.000000
-1.050000 -0.784808 -0.068750 128 128 255 1.000000 0.000000 0.000000
-1.050000 -0.597308 -0.068750 128 128 255 1.000000 0.000000 0.000000
-1.050000 -0.409808 -0.068750 128 128 255 1.000000 0.000000 0.000000
-1.050000 -0.222308 -0.068750 128 128 255 1.000000 0.000000 0.000000
-1.050000 -0.034808 -0.068750 128 128 255 1.000000 0.000000 0.000000
-1.050000 0.152692 -0.068750 128 128 255 1.000000 0.000000 0.000000
-1.050000 0.340192 -0.068750 128 128 255 1.000000 0.000000 0.000000
-1.050000 0.527692 -0.068750 128 128 255 1.000000 0.000000 0.000000
-1.050000 0.715192 -0.068750 128 128 255 -0.747385 -0.572289 -0.337491
0.228342 -0.977910 -0.702139 128 128 255 -0.027705 0.195143 -0.980383
0.228342 -0.977910 -0.541711 128 128 255 0.992986 0.118231 0.000000
0.228342 -0.977910 -0.381283 128 128 255 0.992986 0.118231 0.000000
0.228342 -0.977910 -0.220856 128 128 255 0.992986 0.118231 0.000000
0.228342 -0.977910 -0.060428 128 128 255 0.992986 0.118231 0.000000
0.228342 -0.977910 0.100000 128 128 255 0.992986 0.118231 0.000000
0.228342 -0.977910 0.260428 128 128 255 0.992986 0.118231 0.000000
0.228342 -0.977910 0.420856 128 128 255 0.992986 0.118231 0.000000
0.228342 -0.977910 0.581283 128 128 255 0.992986 0.118231 0.000000
0.228342 -0.977910 0.741711 128 128 255 0.992986 0.118231 0.000000
0.228342 -0.977910 0.902139 128 128 255 -0.418060 -0.564750 -0.711536
0.670833 0.164952 -0.508333 128 128 255 -0.668397 -0.456778 -0.587025
0.734259 0.172169 -0.575926 128 128 255 -0.654654 -0.377963 -0.654654
0.813542 0.181190 -0.660417 128 128 255 -0.654654 -0.377963 -0.654654
0.915476 0.192788 -0.769048 128 128 255 -0.654653 -0.377966 -0.654653
1.051389 0.208253 -0.913889 128 128 255 -0.654654 -0.377964 -0.654654
1.241667 0.229904 -1.116667 128 128 255 -0.654653 -0.377966 -0.654653
1.527083 0.262380 -1.420833 128 128 255 -0.654653 -0.377965 -0.654653
2.002778 0.316506 -1.927778 128 128 255 -0.654654 -0.377964 -0.654654
2.954167 0.424760 -2.941667 128 128 255 -0.654655 -0.377961 -0.654654
5.808333 0.749519 -5.983333 128 128 255 0.698840 0.343611 0.627339
0.137226 0.745415 -0.040146 128 128 255 0.666650 0.387467 0.636747
0.124088 0.722659 -0.013869 128 128 255 0.418905 0.572238 0.705026
0.110949 0.699902 0.012409 128 128 255 0.418908 0.572237 0.705026
0.097810 0.677145 0.038686 128 128 255 0.418908 0.572237 0.705026
0.084672 0.654388 0.064964 128 128 255 0.418907 0.572237 0.705026
0.071533 0.631631 0.091241 128 128 255 0.418905 0.572239 0.705026
0.058394 0.608874 0.117518 128 128 255 0.418908 0.572237 0.705026
0.045255 0.586117 0.143796 128 128 255 0.418906 0.572238 0.705026
0.032117 0.563360 0.170073 128 128 255 0.418905 0.572238 0.705026
0.018978 0.540604 0.196350 128 128 255 0.418908 0.572237 0.705026
0.005839 0.517847 0.222628 128 128 255 0.139900 0.978681 0.150373
-0.258537 0.492880 0.646341 128 128 255 0.034373 0.988812 0.145154
-0.252041 0.471154 0.671429 128 128 255 0.000000 0.755929 0.654653
-0.244920 0.447336 0.698931 128 128 255 0.000000 0.755929 0.654654
-0.237079 0.421111 0.729213 128 128 255 0.000000 0.755929 0.654654
-0.228402 0.392091 0.762722 128 128 255 0.000000 0.755929 0.654654
-0.218750 0.359808 0.800000 128 128 255 0.000000 0.755929 0.654654
-0.207947 0.323675 0.841722 128 128 255 0.000000 0.755929 0.654654
-0.195775 0.282963 0.888732 128 128 255 0.000000 0.755929 0.654654
-0.181955 0.236741 0.942105 128 128 255 0.000000 0.755929 0.654654
-0.166129 0.183809 1.003226 128 128 255 0.000000 0.755929 0.654653
-0.147826 0.122592 1.073913 128 128 255 0.346192 -0.258293 -0.901906
-3.316667 -0.596475 0.100000 128 128 255 0.425801 -0.088863 -0.900442
-2.691667 -0.596475 0.100000 128 128 255 0.000000 0.000000 1.000000
-2.066667 -0.596475 0.100000 128 128 255 0.000000 0.000000 1.000000
-1.441667 -0.596475 0.100000 128 128 255 0.000000 0.000000 1.000000
-0.816667 -0.596475 0.100000 128 128 255 0.000000 0.000000 1.000000
-0.191667 -0.596475 0.100000 128 128 255 0.000000 0.000000 1.000000
0.433333 -0.596475 0.100000 128 128 255 0.000000 0.000000 1.000000
1.058333 -0.596475 0.100000 128 128 255 0.000000 0.000000 1.000000
1.683333 -0.596475 0.100000 128 128 255 0.000000 0.000000 1.000000
2.308333 -0.596475 0.100000 128 128 255 0.145216 0.431151 -0.890517
0.950000 -1.159808 -0.068750 128 128 255 -0.086788 0.512554 -0.854257
0.950000 -1.159808 -0.037500 128 128 255 1.000000 0.000000 0.000000
0.950000 -0.972308 -0.037500 128 128 255 1.000000 0.000000 0.000000
0.950000 -0.784808 -0.037500 128 128 255 1.000000 0.000000 0.000000
0.950000 -0.597308 -0.037500 128 128 255 1.000000 0.000000 0.000000
0.950000 -0.409808 -0.037500 128 128 255 1.000000 0.000000 0.000000
0.950000 -0.222308 -0.037500 128 128 255 1.000000 0.000000 0.000000
0.950000 -0.034808 -0.037500 128 128 255 1.000000 0.000000 0.000000
0.950000 0.152692 -0.037500 128 128 255 1.000000 0.000000 0.000000
0.950000 0.340192 -0.037500 128 128 255 1.000000 0.000000 0.000000
0.950000 0.527692 -0.037500 128 128 255 1.000000 0.000000 0.000000
0.950000 0.715192 -0.037500 128 128 255 0.745427 0.590663 -0.308961
0.231868 0.750719 -0.724176 128 128 255 0.446393 -0.404336 -0.798277
0.231868 0.750719 -0.559341 128 128 255 -0.980078 0.198613 0.000000
0.231868 0.750719 -0.394506 128 128 255 -0.980078 0.198613 0.000000
0.231868 0.750719 -0.229670 128 128 255 -0.980078 0.198613 0.000000
0.231868 0.750719 -0.064835 128 128 255 -0.980078 0.198613 0.000000
0.231868 0.750719 0.100000 128 128 255 -0.980078 0.198613 0.000000
0.231868 0.750719 0.264835 128 128 255 -0.980078 0.198613 0.000000
0.231868 0.750719 0.429670 128 128 255 -0.980078 0.198613 0.000000
0.231868 0.750719 0.594505 128 128 255 -0.980078 0.198613 0.000000
0.231868 0.750719 0.759341 128 128 255 -0.980078 0.198613 0.000000
0.231868 0.750719 0.924176 128 128 255 -0.705216 -0.565679 0.427408
0.668333 0.160622 0.563333 128 128 255 -0.700120 -0.706550 0.103053
0.731481 0.167358 0.614815 128 128 255 0.447214 -0.774597 -0.447214
0.810417 0.175777 0.679167 128 128 255 0.447214 -0.774596 -0.447214
0.911905 0.186603 0.761905 128 128 255 0.447214 -0.774597 -0.447214
1.047222 0.201036 0.872222 128 128 255 0.447213 -0.774597 -0.447213
1.236667 0.221244 1.026667 128 128 255 0.447214 -0.774597 -0.447214
1.520833 0.251554 1.258333 128 128 255 0.447214 -0.774597 -0.447214
1.994444 0.302073 1.644444 128 128 255 0.447214 -0.774596 -0.447214
2.941667 0.403109 2.416667 128 128 255 0.447213 -0.774597 -0.447213
5.783333 0.706218 4.733333 128 128 255 0.705714 -0.197967 -0.680277
0.742857 10.564560 -2.185714 128 128 255 0.545344 -0.225093 -0.807423
0.528571 10.193406 -1.757143 128 128 255 -0.894427 0.000000 -0.447214
0.314286 9.822252 -1.328571 128 128 255 -0.894427 0.000000 -0.447214
0.100000 9.451098 -0.900000 128 128 255 -0.894427 0.000000 -0.447214
-0.114286 9.079945 -0.471429 128 128 255 -0.894427 0.000000 -0.447214
-0.328571 8.708791 -0.042857 128 128 255 -0.894427 0.000000 -0.447214
-0.542857 8.337637 0.385714 128 128 255 -0.894427 -0.000000 -0.447214
-0.757143 7.966484 0.814286 128 128 255 -0.894427 -0.000000 -0.447214
-0.971429 7.595330 1.242857 128 128 255 -0.894427 -0.000000 -0.447214
-1.185714 7.224176 1.671429 128 128 255 -0.894427 0.000000 -0.447214
-1.400000 6.853022 2.100000 128 128 255 -0.978379 -0.084474 -0.188783
-0.468293 0.087326 1.114634 128 128 255 -0.894081 -0.173293 0.413025
-0.471429 0.046978 1.161224 128 128 255 0.000000 0.755929 0.654654
-0.474866 0.002746 1.212299 128 128 255 0.000000 0.755929 0.654654
-0.478652 -0.045959 1.268539 128 128 255 0.000000 0.755929 0.654654
-0.482840 -0.099852 1.330769 128 128 255 0.000000 0.755929 0.654654
-0.487500 -0.159808 1.400000 128 128 255 0.000000 0.755929 0.654654
-0.492715 -0.226910 1.477483 128 128 255 0.000000 0.755929 0.654654
-0.498592 -0.302519 1.564789 128 128 255 0.000000 0.755929 0.654654
-0.505263 -0.388360 1.663910 128 128 255 0.000000 0.755929 0.654654
-0.512903 -0.486662 1.777419 128 128 255 0.000000 0.755929 0.654654
-0.521739 -0.600351 1.908696 128 128 255 -0.309973 -0.231270 -0.922188
2.516667 2.424359 0.100000 128 128 255 -0.545398 -0.113822 -0.830413
1.891667 2.424359 0.100000 128 128 255 0.000000 0.000000 1.000000
1.266667 2.424359 0.100000 128 128 255 0.000000 0.000000 1.000000
0.641667 2.424359 0.100000 128 128 255 0.000000 0.000000 1.000000
0.016667 2.424359 0.100000 128 128 255 0.000000 0.000000 1.000000
-0.608333 2.424359 0.100000 128 128 255 0.000000 0.000000 1.000000
-1.233333 2.424359 0.100000 128 128 255 0.000000 0.000000 1.000000
-1.858333 2.424359 0.100000 128 128 255 0.000000 0.000000 1.000000
-2.483333 2.424359 0.100000 128 128 255 0.000000 0.000000 1.000000
-3.108333 2.424359 0.100000 128 128 255 -0.493411 -0.230994 -0.838562
-1.050000 -1.159808 -0.037500 128 128 255 -0.667272 -0.383204 -0.638673
-1.050000 -0.972308 -0.037500 128 128 255 1.000000 0.000000 0.000000
-1.050000 -0.784808 -0.037500 128 128 255 1.000000 0.000000 0.000000
-1.050000 -0.597308 -0.037500 128 128 255 1.000000 0.000000 0.000000
-1.050000 -0.409808 -0.037500 128 128 255 1.000000 0.000000 0.000000
-1.050000 -0.222308 -0.037500 128 128 255 1.000000 0.000000 0.000000
-1.050000 -0.034808 -0.037500 128 128 255 1.000000 0.000000 0.000000
-1.050000 0.152692 -0.037500 128 128 255 1.000000 0.000000 0.000000
-1.050000 0.340192 -0.037500 128 128 255 1.000000 0.000000 0.000000
-1.050000 0.527692 -0.037500 128 128 255 1.000000 0.000000 0.000000
-1.050000 0.715192 -0.037500 128 128 255 -0.755845 -0.552417 -0.351473
0.231868 -1.007523 -0.724176 128 128 255 -0.019549 0.222834 -0.974660
0.231868 -1.007523 -0.559341 128 128 255 0.992986 0.118231 0.000000
0.231868 -1.007523 -0.394506 128 128 255 0.992986 0.118231 0.000000
0.231868 -1.007523 -0.229670 128 128 255 0.992986 0.118230 0.000000
0.231868 -1.007523 -0.064835 128 128 255 0.992986 0.118231 0.000000
0.231868 -1.007523 0.100000 128 128 255 0.992986 0.118230 0.000000
0.231868 -1.007523 0.264835 128 128 255 0.992986 0.118231 0.000000
0.231868 -1.007523 0.429670 128 128 255 0.992986 0.118231 0.000000
0.231868 -1.007523 0.594505 128 128 255 0.992986 0.118231 0.000000
0.231868 -1.007523 0.759341 128 128 255 0.992986 0.118231 0.000000
0.231868 -1.007523 0.924176 128 128 255 -0.410467 -0.566636 -0.714451
0.668333 0.160622 -0.503333 128 128 255 -0.667524 -0.458709 -0.586513
0.731481 0.167358 -0.570370 128 128 255 -0.654653 -0.377965 -0.654653
0.810417 0.175777 -0.654167 128 128 255 -0.654653 -0.377966 -0.654653
0.911905 0.186603 -0.761905 128 128 255 -0.654654 -0.377963 -0.654654
1.047222 0.201036 -0.905556 128 128 255 -0.654654 -0.377964 -0.654654
1.236667 0.221244 -1.106667 128 128 255 -0.654654 -0.377963 -0.654654
1.520833 0.251554 -1.408333 128 128 255 -0.654653 -0.377965 -0.654654
1.994444 0.302073 -1.911111 128 128 255 -0.654653 -0.377965 -0.654653
2.941667 0.403109 -2.916667 128 128 255 -0.654654 -0.377964 -0.654654
5.783333 0.706218 -5.933333 128 128 255 0.699167 0.343380 0.627101
0.139589 0.744445 -0.040762 128 128 255 0.666856 0.387457 0.636538
0.126393 0.721588 -0.014370 128 128 255 0.418907 0.572237 0.705026
0.113196 0.698731 0.012023 128 128 255 0.418905 0.572239 0.705026
0.100000 0.675874 0.038416 128 128 255 0.418906 0.572238 0.705026
0.086804 0.653017 0.064809 128 128 255 0.418907 0.572237 0.705026
0.073607 0.630160 0.091202 128 128 255 0.418907 0.572238 0.705026
0.060411 0.607303 0.117595 128 128 255 0.418904 0.572239 0.705026
0.047214 0.584446 0.143988 128 128 255 0.418908 0.572237 0.705025
0.034018 0.561589 0.170381 128 128 255 0.418906 0.572238 0.705026
0.020821 0.538732 0.196774 128 128 255 0.418902 0.572241 0.705026
0.007625 0.515875 0.223167 128 128 255 0.141606 0.979940 0.140231
-0.234146 0.492880 0.646341 128 128 255 0.034749 0.989599 0.139592
-0.226531 0.471154 0.671429 128 128 255 0.000000 0.755929 0.654653
-0.218182 0.447336 0.698931 128 128 255 0.000000 0.755929 0.654654
-0.208989 0.421111 0.729213 128 128 255 0.000000 0.755929 0.654654
-0.198817 0.392091 0.762722 128 128 255 0.000000 0.755929 0.654654
-0.187500 0.359808 0.800000 128 128 255 0.000000 0.755929 0.654654
-0.174834 0.323675 0.841722 128 128 255 0.000000 0.755929 0.654654
-0.160563 0.282963 0.888732 128 128 255 0.000000 0.755929 0.654654
-0.144361 0.236741 0.942105 128 128 255 0.000000 0.755929 0.654654
-0.125806 0.183809 1.003226 128 128 255 0.000000 0.755929 0.654653
-0.104348 0.122592 1.073913 128 128 255 0.332235 -0.247880 -0.910041
-3.316667 -0.492308 0.100000 128 128 255 0.415112 -0.086632 -0.905636
-2.691667 -0.492308 0.100000 128 128 255 0.000000 0.000000 1.000000
-2.066667 -0.492308 0.100000 128 128 255 0.000000 0.000000 1.000000
-1.441667 -0.492308 0.100000 128 128 255 0.000000 0.000000 1.000000
-0.816667 -0.492308 0.100000 128 128 255 0.000000 0.000000 1.000000
-0.191667 -0.492308 0.100000 128 128 255 0.000000 0.000000 1.000000
0.433333 -0.492308 0.100000 128 128 255 0.000000 0.000000 1.000000
1.058333 -0.492308 0.100000 128 128 255 0.000000 0.000000 1.000000
1.683333 -0.492308 0.100000 128 128 255 0.000000 0.000000 1.000000
2.308333 -0.492308 0.100000 128 128 255 0.046468 0.435300 -0.899085
0.950000 -1.159808 -0.037500 128 128 255 -0.144759 0.509077 -0.848461
0.950000 -1.159808 -0.006250 128 128 255 1.000000 0.000000 0.000000
0.950000 -0.972308 -0.006250 128 128 255 1.000000 0.000000 0.000000
0.950000 -0.784808 -0.006250 128 128 255 1.000000 0.000000 0.000000
0.950000 -0.597308 -0.006250 128 128 255 1.000000 0.000000 0.000000
0.950000 -0.409808 -0.006250 128 128 255 1.000000 0.000000 0.000000
0.950000 -0.222308 -0.006250 128 128 255 1.000000 0.000000 0.000000
0.950000 -0.034808 -0.006250 128 128 255 1.000000 0.000000 0.000000
0.950000 0.152692 -0.006250 128 128 255 1.000000 0.000000 0.000000
0.950000 0.340192 -0.006250 128 128 255 1.000000 0.000000 0.000000
0.950000 0.527692 -0.006250 128 128 255 1.000000 0.000000 0.000000
0.950000 0.715192 -0.006250 128 128 255 0.779447 0.540103 -0.317414
0.235593 0.769100 -0.747458 128 128 255 0.469692 -0.433899 -0.768844
0.235593 0.769100 -0.577966 128 128 255 -0.980078 0.198613 0.000000
0.235593 0.769100 -0.408475 128 128 255 -0.980078 0.198613 0.000000
0.235593 0.769100 -0.238983 128 128 255 -0.980078 0.198613 0.000000
0.235593 0.769100 -0.069492 128 128 255 -0.980078 0.198613 0.000000
0.235593 0.769100 0.100000 128 128 255 -0.980078 0.198613 0.000000
0.235593 0.769100 0.269492 128 128 255 -0.980078 0.198613 0.000000
0.235593 0.769100 0.438983 128 128 255 -0.980078 0.198613 0.000000
0.235593 0.769100 0.608475 128 128 255 -0.980078 0.198613 0.000000
0.235593 0.769100 0.777966 128 128 255 -0.980078 0.198613 0.000000
0.235593 0.769100 0.947458 128 128 255 -0.715044 -0.553363 0.427202
0.665833 0.156292 0.568333 128 128 255 -0.711582 -0.692419 0.119189
0.728704 0.162546 0.620370 128 128 255 0.447214 -0.774597 -0.447214
0.807292 0.170365 0.685417 128 128 255 0.447214 -0.774596 -0.447214
0.908333 0.180417 0.769048 128 128 255 0.447215 -0.774595 -0.447215
1.043056 0.193819 0.880556 128 128 255 0.447214 -0.774596 -0.447214
1.231667 0.212583 1.036667 128 128 255 0.447214 -0.774596 -0.447214
1.514583 0.240729 1.270833 128 128 255 0.447213 -0.774597 -0.447213
1.986111 0.287639 1.661111 128 128 255 0.447214 -0.774597 -0.447214
2.929167 0.381458 2.441667 128 128 255 0.447214 -0.774597 -0.447214
5.758333 0.662917 4.783333 128 128 255 0.698732 -0.205423 -0.685256
0.830769 11.302909 -2.361538 128 128 255 0.541934 -0.229523 -0.808472
0.600000 10.903204 -1.900000 128 128 255 -0.894427 0.000000 -0.447214
0.369231 10.503500 -1.438462 128 128 255 -0.894427 -0.000000 -0.447214
0.138462 10.103796 -0.976923 128 128 255 -0.894427 -0.000000 -0.447214
-0.092308 9.704092 -0.515385 128 128 255 -0.894427 0.000000 -0.447214
-0.323077 9.304388 -0.053846 128 128 255 -0.894427 0.000000 -0.447214
-0.553846 8.904684 0.407692 128 128 255 -0.894427 0.000000 -0.447214
-0.784615 8.504980 0.869231 128 128 255 -0.894427 0.000000 -0.447214
-1.015385 8.105276 1.330769 128 128 255 -0.894427 -0.000000 -0.447214
-1.246154 7.705572 1.792308 128 128 255 -0.894427 -0.000000 -0.447214
-1.476923 7.305868 2.253846 128 128 255 -0.977484 -0.085823 -0.192770
-0.443902 0.087326 1.114634 128 128 255 -0.902885 -0.181671 0.389607
-0.445918 0.046978 1.161224 128 128 255 0.000000 0.755929 0.654654
-0.448128 0.002746 1.212299 128 128 255 0.000000 0.755929 0.654654
-0.450562 -0.045959 1.268539 128 128 255 0.000000 0.755929 0.654654
-0.453254 -0.099852 1.330769 128 128 255 0.000000 0.755929 0.654654
-0.456250 -0.159808 1.400000 128 128 255 0.000000 0.755929 0.654654
-0.459603 -0.226910 1.477483 128 128 255 0.000000 0.755929 0.654654
-0.463380 -0.302519 1.564789 128 128 255 0.000000 0.755929 0.654654
-0.467669 -0.388360 1.663910 128 128 255 0.000000 0.755929 0.654654
-0.472581 -0.486662 1.777419 128 128 255 0.000000 0.755929 0.654654
-0.478261 -0.600351 1.908696 128 128 255 -0.316485 -0.236128 -0.918739
2.516667 2.320192 0.100000 128 128 255 -0.554418 -0.115705 -0.824156
1.891667 2.320192 0.100000 128 128 255 0.000000 0.000000 1.000000
1.266667 2.320192 0.100000 128 128 255 0.000000 0.000000 1.000000
0.641667 2.320192 0.100000 128 128 255 0.000000 0.000000 1.000000
0.016667 2.320192 0.100000 128 128 255 0.000000 0.000000 1.000000
-0.608333 2.320192 0.100000 128 128 255 0.000000 0.000000 1.000000
-1.233333 2.320192 0.100000 128 128 255 0.000000 0.000000 1.000000
-1.858333 2.320192 0.100000 128 128 255 0.000000 0.000000 1.000000
-2.483333 2.320192 0.100000 128 128 255 0.000000 0.000000 1.000000
-3.108333 2.320192 0.100000 128 128 255 -0.466187 -0.234949 -0.852918
-1.050000 -1.159808 -0.006250 128 128 255 -0.650656 -0.390694 -0.651157
-1.050000 -0.972308 -0.006250 128 128 255 1.000000 0.000000 0.000000
-1.050000 -0.784808 -0.006250 128 128 255 1.000000 0.000000 0.000000
-1.050000 -0.597308 -0.006250 128 128 255 1.000000 0.000000 0.000000
-1.050000 -0.409808 -0.006250 128 128 255 1.000000 0.000000 0.000000
-1.050000 -0.222308 -0.006250 128 128 255 1.000000 0.000000 0.000000
-1.050000 -0.034808 -0.006250 128 128 255 1.000000 0.000000 0.000000
-1.050000 0.152692 -0.006250 128 128 255 1.000000 0.000000 0.000000
-1.050000 0.340192 -0.006250 128 128 255 1.000000 0.000000 0.000000
-1.050000 0.527692 -0.006250 128 128 255 1.000000 0.000000 0.000000
-1.050000 0.715192 -0.006250 128 128 255 -0.764118 -0.531157 -0.366054
0.235593 -1.038809 -0.747458 128 128 255 -0.011554 0.249279 -0.968363
0.235593 -1.038809 -0.577966 128 128 255 0.992986 0.118231 0.000000
0.235593 -1.038809 -0.408475 128 128 255 0.992986 0.118231 0.000000
0.235593 -1.038809 -0.238983 128 128 255 0.992986 0.118231 0.000000
0.235593 -1.038809 -0.069492 128 128 255 0.992986 0.118231 0.000000
0.235593 -1.038809 0.100000 128 128 255 0.992986 0.118231 0.000000
0.235593 -1.038809 0.269492 128 128 255 0.992986 0.118231 0.000000
0.235593 -1.038809 0.438983 128 128 255 0.992986 0.118231 0.000000
0.235593 -1.038809 0.608475 128 128 255 0.992986 0.118231 0.000000
0.235593 -1.038809 0.777966 128 128 255 0.992986 0.118231 0.000000
0.235593 -1.038809 0.947458 128 128 255 -0.402339 -0.568572 -0.717530
0.665833 0.156292 -0.498333 128 128 255 -0.666626 -0.460646 -0.586017
0.728704 0.162546 -0.564815 128 128 255 -0.654653 -0.377965 -0.654654
0.807292 0.170365 -0.647917 128 128 255 -0.654653 -0.377965 -0.654653
0.908333 0.180417 -0.754762 128 128 255 -0.654653 -0.377967 -0.654653
1.043056 0.193819 -0.897222 128 128 255 -0.654654 -0.377964 -0.654654
1.231667 0.212583 -1.096667 128 128 255 -0.654654 -0.377964 -0.654654
1.514583 0.240729 -1.395833 128 128 255 -0.654655 -0.377962 -0.654654
1.986111 0.287639 -1.894444 128 128 255 -0.654654 -0.377965 -0.654654
2.929167 0.381458 -2.891667 128 128 255 -0.654654 -0.377965 -0.654654
5.758333 0.662917 -5.883333 128 128 255 0.699499 0.343141 0.626862
0.141973 0.743466 -0.041384 128 128 255 0.667061 0.387457 0.636323
0.128719 0.720508 -0.014875 128 128 255 0.418911 0.572235 0.705025
0.115464 0.697550 0.011635 128 128 255 0.418909 0.572236 0.705025
0.102209 0.674592 0.038144 128 128 255 0.418908 0.572237 0.705026
0.088954 0.651634 0.064654 128 128 255 0.418906 0.572238 0.705026
0.075700 0.628676 0.091163 128 128 255 0.418908 0.572237 0.705025
0.062445 0.605718 0.117673 128 128 255 0.418907 0.572238 0.705026
0.049190 0.582760 0.144183 128 128 255 0.418905 0.572239 0.705026
0.035935 0.559802 0.170692 128 128 255 0.418909 0.572236 0.705025
0.022680 0.536844 0.197202 128 128 255 0.418908 0.572237 0.705025
0.009426 0.513886 0.223711 128 128 255 0.143334 0.981117 0.129862
-0.209756 0.492880 0.646341 128 128 255 0.035131 0.990367 0.133937
-0.201020 0.471154 0.671429 128 128 255 0.000000 0.755929 0.654653
-0.191444 0.447336 0.698931 128 128 255 0.000000 0.755929 0.654654
-0.180899 0.421111 0.729213 128 128 255 0.000000 0.755929 0.654654
-0.169231 0.392091 0.762722 128 128 255 0.000000 0.755929 0.654654
-0.156250 0.359808 0.800000 128 128 255 0.000000 0.755929 0.654654
-0.141722 0.323675 0.841722 128 128 255 0.000000 0.755929 0.654654
-0.125352 0.282963 0.888732 128 128 255 0.000000 0.755929 0.654654
-0.106767 0.236741 0.942105 128 128 255 0.000000 0.755929 0.654654
-0.085484 0.183809 1.003226 128 128 255 0.000000 0.755929 0.654653
-0.060870 0.122592 1.073913 128 128 255 0.319256 -0.238196 -0.917245
-3.316667 -0.388141 0.100000 128 128 255 0.404892 -0.084499 -0.910452
-2.691667 -0.388141 0.100000 128 128 255 0.000000 0.000000 1.000000
-2.066667 -0.388141 0.100000 128 128 255 0.000000 0.000000 1.000000
-1.441667 -0.388141 0.100000 128 128 255 0.000000 0.000000 1.000000
-0.816667 -0.388141 0.100000 128 128 255 0.000000 0.000000 1.000000
-0.191667 -0.388141 0.100000 128 128 255 0.000000 0.000000 1.000000
0.433333 -0.388141 0.100000 128 128 255 0.000000 0.000000 1.000000
1.058333 -0.388141 0.100000 128 128 255 0.000000 0.000000 1.000000
1.683333 -0.388141 0.100000 128 128 255 0.000000 0.000000 1.000000
2.308333 -0.388141 0.100000 128 128 255 -0.053659 0.435143 -0.898761
0.950000 -1.159808 -0.006250 128 128 255 -0.201277 0.503966 -0.839944
0.950000 -1.159808 0.025000 128 128 255 1.000000 0.000000 0.000000
0.950000 -0.972308 0.025000 128 128 255 1.000000 0.000000 0.000000
0.950000 -0.784808 0.025000 128 128 255 1.000000 0.000000 0.000000
0.950000 -0.597308 0.025000 128 128 255 1.000000 0.000000 0.000000
0.950000 -0.409808 0.025000 128 128 255 1.000000 0.000000 0.000000
0.950000 -0.222308 0.025000 128 128 255 1.000000 0.000000 0.000000
0.950000 -0.034808 0.025000 128 128 255 1.000000 0.000000 0.000000
0.950000 0.152692 0.025000 128 128 255 1.000000 0.000000 0.000000
0.950000 0.340192 0.025000 128 128 255 1.000000 0.000000 0.000000
0.950000 0.527692 0.025000 128 128 255 1.000000 0.000000 0.000000
0.950000 0.715192 0.025000 128 128 255 0.810988 0.486557 -0.324901
0.239535 0.788551 -0.772093 128 128 255 0.489647 -0.459733 -0.740872
0.239535 0.788551 -0.597674 128 128 255 -0.980078 0.198613 0.000000
0.239535 0.788551 -0.423256 128 128 255 -0.980078 0.198613 0.000000
0.239535 0.788551 -0.248837 128 128 255 -0.980078 0.198613 0.000000
0.239535 0.788551 -0.074419 128 128 255 -0.980078 0.198613 0.000000
0.239535 0.788551 0.100000 128 128 255 -0.980078 0.198613 0.000000
0.239535 0.788551 0.274419 128 128 255 -0.980078 0.198613 0.000000
0.239535 0.788551 0.448837 128 128 255 -0.980078 0.198613 0.000000
0.239535 0.788551 0.623256 128 128 255 -0.980078 0.198613 0.000000
0.239535 0.788551 0.797674 128 128 255 -0.980078 0.198613 0.000000
0.239535 0.788551 0.972093 128 128 255 -0.724692 -0.541045 0.426722
0.663333 0.151962 0.573333 128 128 255 -0.722342 -0.678203 0.135139
0.725926 0.157735 0.625926 128 128 255 0.447214 -0.774596 -0.447214
0.804167 0.164952 0.691667 128 128 255 0.447213 -0.774598 -0.447213
0.904762 0.174231 0.776190 128 128 255 0.447213 -0.774598 -0.447213
1.038889 0.186603 0.888889 128 128 255 0.447214 -0.774596 -0.447214
1.226667 0.203923 1.046667 128 128 255 0.447214 -0.774597 -0.447214
1.508333 0.229904 1.283333 128 128 255 0.447213 -0.774597 -0.447213
1.977778 0.273205 1.677778 128 128 255 0.447214 -0.774597 -0.447214
2.916667 0.359808 2.466667 128 128 255 0.447215 -0.774595 -0.447215
5.733333 0.619615 4.833333 128 128 255 0.691986 -0.212236 -0.690009
0.933333 12.164315 -2.566667 128 128 255 0.537647 -0.233617 -0.810160
0.683333 11.731302 -2.066667 128 128 255 -0.894427 -0.000000 -0.447214
0.433333 11.298290 -1.566667 128 128 255 -0.894427 -0.000000 -0.447214
0.183333 10.865277 -1.066667 128 128 255 -0.894427 -0.000000 -0.447214
-0.066667 10.432264 -0.566667 128 128 255 -0.894427 -0.000000 -0.447214
-0.316667 9.999252 -0.066667 128 128 255 -0.894427 0.000000 -0.447214
-0.566667 9.566239 0.433333 128 128 255 -0.894427 0.000000 -0.447214
-0.816667 9.133226 0.933333 128 128 255 -0.894427 0.000000 -0.447214
-1.066667 8.700213 1.433333 128 128 255 -0.894427 0.000000 -0.447214
-1.316667 8.267201 1.933333 128 128 255 -0.894427 -0.000000 -0.447213
-1.566667 7.834188 2.433333 128 128 255 -0.976451 -0.086591 -0.197597
-0.419512 0.087326 1.114634 128 128 255 -0.911108 -0.189168 0.366195
-0.420408 0.046978 1.161224 128 128 255 0.000000 0.755929 0.654654
-0.421390 0.002746 1.212299 128 128 255 0.000000 0.755929 0.654654
-0.422472 -0.045959 1.268539 128 128 255 0.000000 0.755929 0.654654
-0.423669 -0.099852 1.330769 128 128 255 0.000000 0.755929 0.654654
-0.425000 -0.159808 1.400000 128 128 255 0.000000 0.755929 0.654654
-0.426490 -0.226910 1.477483 128 128 255 0.000000 0.755929 0.654654
-0.428169 -0.302519 1.564789 128 128 255 0.000000 0.755929 0.654654
-0.430075 -0.388360 1.663910 128 128 255 0.000000 0.755929 0.654654
-0.432258 -0.486662 1.777419 128 128 255 0.000000 0.755929 0.654654
-0.434783 -0.600351 1.908696 128 128 255 -0.323249 -0.241176 -0.915065
2.516667 2.216025 0.100000 128 128 255 -0.563668 -0.117635 -0.817582
1.891667 2.216025 0.100000 128 128 255 0.000000 0.000000 1.000000
1.266667 2.216025 0.100000 128 128 255 0.000000 0.000000 1.000000
0.641667 2.216025 0.100000 128 128 255 0.000000 0.000000 1.000000
0.016667 2.216025 0.100000 128 128 255 0.000000 0.000000 1.000000
-0.608333 2.216025 0.100000 128 128 255 0.000000 0.000000 1.000000
-1.233333 2.216025 0.100000 128 128 255 0.000000 0.000000 1.000000
-1.858333 2.216025 0.100000 128 128 255 0.000000 0.000000 1.000000
-2.483333 2.216025 0.100000 128 128 255 0.000000 0.000000 1.000000
-3.108333 2.216025 0.100000 128 128 255 -0.437572 -0.238799 -0.866894
-1.050000 -1.159808 0.025000 128 128 255 -0.633050 -0.398277 -0.663795
-1.050000 -0.972308 0.025000 128 128 255 1.000000 0.000000 0.000000
-1.050000 -0.784808 0.025000 128 128 255 1.000000 0.000000 0.000000
-1.050000 -0.597308 0.025000 128 128 255 1.000000 0.000000 0.000000
-1.050000 -0.409808 0.025000 128 128 255 1.000000 0.000000 0.000000
-1.050000 -0.222308 0.025000 128 128 255 1.000000 0.000000 0.000000
-1.050000 -0.034808 0.025000 128 128 255 1.000000 0.000000 0.000000
-1.050000 0.152692 0.025000 128 128 255 1.000000 0.000000 0.000000
-1.050000 0.340192 0.025000 128 128 255 1.000000 0.000000 0.000000
-1.050000 0.527692 0.025000 128 128 255 1.000000 0.000000 0.000000
-1.050000 0.715192 0.025000 128 128 255 -0.772117 -0.508429 -0.381228
0.239535 -1.071914 -0.772093 128 128 255 -0.003700 0.274475 -0.961587
0.239535 -1.071914 -0.597674 128 128 255 0.992986 0.118231 0.000000
0.239535 -1.071914 -0.423256 128 128 255 0.992986 0.118231 0.000000
0.239535 -1.071914 -0.248837 128 128 255 0.992986 0.118231 0.000000
0.239535 -1.071914 -0.074419 128 128 255 0.992986 0.118231 0.000000
0.239535 -1.071914 0.100000 128 128 255 0.992986 0.118231 0.000000
0.239535 -1.071914 0.274419 128 128 255 0.992986 0.118231 0.000000
0.239535 -1.071914 0.448837 128 128 255 0.992986 0.118231 0.000000
0.239535 -1.071914 0.623256 128 128 255 0.992986 0.118231 0.000000
0.239535 -1.071914 0.797674 128 128 255 0.992986 0.118231 0.000000
0.239535 -1.071914 0.972093 128 128 255 -0.393624 -0.570557 -0.720781
0.663333 0.151962 -0.493333 128 128 255 -0.665695 -0.462593 -0.585541
0.725926 0.157735 -0.559259 128 128 255 -0.654654 -0.377964 -0.654654
0.804167 0.164952 -0.641667 128 128 255 -0.654654 -0.377963 -0.654654
0.904762 0.174231 -0.747619 128 128 255 -0.654654 -0.377963 -0.654654
1.038889 0.186603 -0.888889 128 128 255 -0.654654 -0.377964 -0.654654
1.226667 0.203923 -1.086667 128 128 255 -0.654653 -0.377965 -0.654654
1.508333 0.229904 -1.383333 128 128 255 -0.654653 -0.377965 -0.654653
1.977778 0.273205 -1.877778 128 128 255 -0.654655 -0.377961 -0.654654
2.916667 0.359808 -2.866667 128 128 255 -0.654652 -0.377968 -0.654653
5.733333 0.619615 -5.833333 128 128 255 0.699835 0.342904 0.626617
0.144379 0.742478 -0.042012 128 128 255 0.667273 0.387446 0.636107
0.131065 0.719418 -0.015385 128 128 255 0.418907 0.572238 0.705026
0.117751 0.696359 0.011243 128 128 255 0.418907 0.572238 0.705026
0.104438 0.673299 0.037870 128 128 255 0.418909 0.572236 0.705026
0.091124 0.650239 0.064497 128 128 255 0.418908 0.572237 0.705026
0.077811 0.627179 0.091124 128 128 255 0.418905 0.572239 0.705026
0.064497 0.604119 0.117751 128 128 255 0.418907 0.572238 0.705026
0.051183 0.581059 0.144379 128 128 255 0.418906 0.572238 0.705026
0.037870 0.558000 0.171006 128 128 255 0.418906 0.572238 0.705026
0.024556 0.534940 0.197633 128 128 255 0.418909 0.572236 0.705025
0.011243 0.511880 0.224260 128 128 255 0.145079 0.982206 0.119260
-0.185366 0.492880 0.646341 128 128 255 0.035519 0.991114 0.128185
-0.175510 0.471154 0.671429 128 128 255 0.000000 0.755929 0.654653
-0.164706 0.447336 0.698931 128 128 255 0.000000 0.755929 0.654654
-0.152809 0.421111 0.729213 128 128 255 0.000000 0.755929 0.654654
-0.139645 0.392091 0.762722 128 128 255 0.000000 0.755929 0.654654
-0.125000 0.359808 0.800000 128 128 255 0.000000 0.755929 0.654654
-0.108609 0.323675 0.841722 128 128 255 0.000000 0.755929 0.654654
-0.090141 0.282963 0.888732 128 128 255 0.000000 0.755929 0.654654
-0.069173 0.236741 0.942105 128 128 255 0.000000 0.755929 0.654654
-0.045161 0.183809 1.003226 128 128 255 0.000000 0.755929 0.654653
-0.017391 0.122592 1.073913 128 128 255 0.307166 -0.229176 -0.923649
-3.316667 -0.283975 0.100000 128 128 255 0.395114 -0.082459 -0.914924
-2.691667 -0.283975 0.100000 128 128 255 0.000000 0.000000 1.000000
-2.066667 -0.283975 0.100000 128 128 255 0.000000 0.000000 1.000000
-1.441667 -0.283975 0.100000 128 128 255 0.000000 0.000000 1.000000
-0.816667 -0.283975 0.100000 128 128 255 0.000000 0.000000 1.000000
-0.191667 -0.283975 0.100000 128 128 255 0.000000 0.000000 1.000000
0.433333 -0.283975 0.100000 128 128 255 0.000000 0.000000 1.000000
1.058333 -0.283975 0.100000 128 128 255 0.000000 0.000000 1.000000
1.683333 -0.283975 0.100000 128 128 255 0.000000 0.000000 1.000000
2.308333 -0.283975 0.100000 128 128 255 -0.152196 0.430694 -0.889572
0.950000 -1.159808 0.025000 128 128 255 -0.255856 0.497371 -0.828951
