ply
format ascii 1.0
element vertex 704
property float x
property float y
property float z
property uchar red
property uchar green
property uchar blue
property float nx
property float ny
property float nz
end_header
-0.980625 0.100000 -0.119375 128 128 255 0.650942 -0.390566 0.650947
-0.818125 -0.062500 -0.119375 128 128 255 0.577350 0.577350 0.577350
-0.655625 -0.225000 -0.119375 128 128 255 0.577350 0.577351 0.577350
-0.493125 -0.387500 -0.119375 128 128 255 0.577350 0.577350 0.577350
-0.330625 -0.550000 -0.119375 128 128 255 0.577350 0.577350 0.577350
-0.168125 -0.712500 -0.119375 128 128 255 0.577350 0.577350 0.577350
-0.005625 -0.875000 -0.119375 128 128 255 0.577350 0.577350 0.577350
0.156875 -1.037500 -0.119375 128 128 255 -0.701121 0.129837 -0.701122
0.100000 1.400000 0.100000 128 128 255 -0.706322 0.047088 -0.706323
0.100000 1.204511 0.295489 128 128 255 1.000000 0.000000 0.000000
0.100000 1.009023 0.490977 128 128 255 1.000000 0.000000 0.000000
0.100000 0.813534 0.686466 128 128 255 -1.000000 0.000000 0.000000
0.100000 0.618045 0.881955 128 128 255 1.000000 0.000000 0.000000
0.100000 0.422556 1.077444 128 128 255 -1.000000 0.000000 0.000000
0.100000 0.227068 1.272932 128 128 255 -1.000000 0.000000 0.000000
0.100000 0.031579 1.468421 128 128 255 -1.000000 0.000000 0.000000
0.100000 -0.824599 0.100000 128 128 255 1.000000 0.000000 0.000000
0.100000 -0.685561 -0.039037 128 128 255 1.000000 0.000000 0.000000
0.100000 -0.546524 -0.178075 128 128 255 1.000000 0.000000 0.000000
0.100000 -0.407487 -0.317112 128 128 255 1.000000 0.000000 0.000000
0.100000 -0.268449 -0.456150 128 128 255 1.000000 0.000000 0.000000
0.100000 -0.129412 -0.595187 128 128 255 1.000000 0.000000 0.000000
0.100000 0.009626 -0.734225 128 128 255 1.000000 0.000000 0.000000
0.100000 0.148663 -0.873262 128 128 255 -0.991955 -0.123921 -0.025866
0.067094 0.043005 1.246438 128 128 255 -0.654658 -0.754473 -0.046830
0.062393 0.034863 1.224500 128 128 255 -0.926107 0.372422 0.060226
0.056125 0.024006 1.195250 128 128 255 -0.780840 0.621510 -0.063353
0.047350 0.008808 1.154300 128 128 255 -0.856690 0.515772 -0.007854
0.034187 -0.013991 1.092875 128 128 255 -0.877953 0.478633 0.010486
0.012250 -0.051987 0.990500 128 128 255 -0.978666 0.124326 0.163570
-0.031625 -0.127981 0.785750 128 128 255 0.850561 -0.525720 0.012860
-0.163250 -0.355962 0.171500 128 128 255 -0.866025 0.500000 0.000000
0.132906 0.156995 -1.046438 128 128 255 -0.866025 0.500001 0.000000
0.129250 0.150662 -0.774611 128 128 255 -0.866025 0.500000 0.000000
0.126325 0.145596 -0.557150 128 128 255 -0.866025 0.500001 0.000000
0.123932 0.141451 -0.379227 128 128 255 -0.866026 0.499999 -0.000000
0.121937 0.137997 -0.230958 128 128 255 -0.866024 0.500002 0.000000
0.120250 0.135074 -0.105500 128 128 255 -0.866024 0.500002 0.000000
0.118804 0.132569 0.002036 128 128 255 -0.866026 0.499999 -0.000000
0.117550 0.130397 0.095233 128 128 255 -0.880576 -0.350621 0.318828
0.378571 -0.382500 0.100000 128 128 255 -0.840174 -0.424443 0.337573
0.135090 -0.308078 0.300514 128 128 255 0.648126 0.079994 0.757320
0.056961 -0.284198 0.364856 128 128 255 -0.502938 0.407804 -0.762069
0.018441 -0.272424 0.396578 128 128 255 -0.308678 -0.950915 -0.021887
-0.004499 -0.265412 0.415470 128 128 255 -0.653998 -0.384791 -0.651324
-0.019722 -0.260759 0.428007 128 128 255 0.407835 0.898623 0.161701
-0.030562 -0.257446 0.436933 128 128 255 -0.550022 0.300235 -0.779317
-0.038672 -0.254967 0.443612 128 128 255 -0.654649 -0.377968 -0.654657
0.082514 0.130286 0.100000 128 128 255 0.654669 0.377953 0.654646
0.095144 0.156472 0.072252 128 128 255 0.654655 0.377963 0.654653
0.109709 0.186669 0.040253 128 128 255 0.654655 0.377964 0.654653
0.126690 0.221876 0.002945 128 128 255 0.654653 0.377965 0.654654
0.146744 0.263452 -0.041113 128 128 255 0.654654 0.377964 0.654654
0.170786 0.313298 -0.093933 128 128 255 0.654654 0.377964 0.654654
0.200138 0.374154 -0.158421 128 128 255 0.654654 0.377964 0.654653
0.236778 0.450119 -0.238920 128 128 255 -0.301867 0.696441 0.651035
0.157281 -0.180755 0.424188 128 128 255 -0.055264 0.685954 0.725543
0.210162 -0.191693 0.386169 128 128 255 0.324759 -0.687501 0.649519
0.267331 -0.203518 0.345068 128 128 255 0.324760 -0.687499 0.649520
0.329331 -0.216343 0.300493 128 128 255 0.324760 -0.687499 0.649520
0.396801 -0.230300 0.251985 128 128 255 0.324759 -0.687500 0.649519
0.470500 -0.245544 0.199000 128 128 255 0.324759 -0.687501 0.649518
0.551331 -0.262264 0.140887 128 128 255 0.324758 -0.687502 0.649518
0.640381 -0.280684 0.076864 128 128 255 -0.066197 -0.614631 -0.786032
0.042719 0.380755 -0.224187 128 128 255 0.181293 0.284535 0.941368
-0.002199 0.370607 -0.165482 128 128 255 0.220366 -0.975417 -0.000000
-0.043983 0.361167 -0.110872 128 128 255 0.220366 -0.975417 0.000000
-0.082949 0.352364 -0.059944 128 128 255 0.220367 -0.975417 0.000001
-0.119375 0.344134 -0.012337 128 128 255 0.220367 -0.975417 0.000001
-0.153500 0.336425 0.032263 128 128 255 0.220365 -0.975417 -0.000001
-0.185536 0.329187 0.074133 128 128 255 0.220367 -0.975417 0.000001
-0.215668 0.322380 0.113515 128 128 255 -0.314640 -0.932057 0.179643
0.315945 0.018229 0.100000 128 128 255 -0.014781 -0.050334 0.998623
0.480928 0.075688 0.100000 128 128 255 0.000000 0.000000 1.000000
0.630924 0.127928 0.100000 128 128 255 0.000000 0.000000 1.000000
0.767886 0.175628 0.100000 128 128 255 0.000000 0.000000 1.000000
0.893442 0.219356 0.100000 128 128 255 0.000000 0.000000 1.000000
1.008961 0.259589 0.100000 128 128 255 0.000000 0.000000 1.000000
1.115599 0.296728 0.100000 128 128 255 0.000000 0.000000 1.000000
1.214343 0.331118 0.100000 128 128 255 0.000000 0.000000 -1.000000
-0.029740 0.149128 0.100000 128 128 255 0.000000 0.000000 1.000000
-0.147731 0.115811 0.100000 128 128 255 0.000000 0.000000 1.000000
-0.273257 0.080366 0.100000 128 128 255 0.000000 0.000000 1.000000
-0.407064 0.042582 0.100000 128 128 255 0.000000 0.000000 1.000000
-0.550000 0.002221 0.100000 128 128 255 0.000000 0.000000 1.000000
-0.703031 -0.040990 0.100000 128 128 255 0.000000 0.000000 1.000000
-0.867267 -0.087366 0.100000 128 128 255 0.000000 0.000000 1.000000
-1.043984 -0.137266 0.100000 128 128 255 0.148129 -0.445436 -0.882975
1.180625 0.100000 0.319375 128 128 255 0.136655 -0.885388 -0.444312
1.174531 0.100000 0.325469 128 128 255 0.577350 0.577350 0.577350
1.012031 0.262500 0.325469 128 128 255 0.577349 0.577349 0.577353
0.849531 0.425000 0.325469 128 128 255 0.577350 0.577350 0.577352
0.687031 0.587500 0.325469 128 128 255 0.577350 0.577350 0.577350
0.524531 0.750000 0.325469 128 128 255 0.577350 0.577350 0.577350
0.362031 0.912500 0.325469 128 128 255 0.577350 0.577350 0.577350
0.199531 1.075000 0.325469 128 128 255 0.577350 0.577350 0.577351
0.037031 1.237500 0.325469 128 128 255 -0.301510 0.904534 -0.301513
-0.974531 0.100000 -0.125469 128 128 255 0.650946 -0.390567 0.650943
-0.812031 -0.062500 -0.125469 128 128 255 0.577351 0.577351 0.577350
-0.649531 -0.225000 -0.125469 128 128 255 0.577351 0.577351 0.577350
-0.487031 -0.387500 -0.125469 128 128 255 0.577350 0.577350 0.577350
-0.324531 -0.550000 -0.125469 128 128 255 0.577350 0.577350 0.577350
-0.162031 -0.712500 -0.125469 128 128 255 0.577350 0.577350 0.577350
0.000469 -0.875000 -0.125469 128 128 255 0.577350 0.577350 0.577350
0.162969 -1.037500 -0.125469 128 128 255 -0.701122 0.129837 -0.701121
0.100000 1.400000 0.100000 128 128 255 -0.706322 0.047088 -0.706323
0.100000 1.203403 0.296597 128 128 255 1.000000 0.000000 0.000000
0.100000 1.006805 0.493195 128 128 255 1.000000 0.000000 0.000000
0.100000 0.810208 0.689792 128 128 255 1.000000 0.000000 0.000000
0.100000 0.613611 0.886389 128 128 255 -1.000000 0.000000 0.000000
0.100000 0.417013 1.082987 128 128 255 1.000000 0.000000 0.000000
0.100000 0.220416 1.279584 128 128 255 1.000000 0.000000 0.000000
0.100000 0.023819 1.476182 128 128 255 -1.000000 0.000000 0.000000
0.100000 -0.815712 0.100000 128 128 255 1.000000 0.000000 0.000000
0.100000 -0.677230 -0.038482 128 128 255 1.000000 0.000000 0.000000
0.100000 -0.538748 -0.176964 128 128 255 1.000000 0.000000 0.000000
0.100000 -0.400266 -0.315446 128 128 255 1.000000 0.000000 0.000000
0.100000 -0.261784 -0.453928 128 128 255 1.000000 0.000000 0.000000
0.100000 -0.123302 -0.592410 128 128 255 1.000000 0.000000 0.000000
0.100000 0.015180 -0.730892 128 128 255 1.000000 0.000000 0.000000
0.100000 0.153662 -0.869374 128 128 255 -0.991811 -0.124837 -0.026939
0.066180 0.041421 1.242172 128 128 255 -0.640763 -0.766106 -0.050033
0.061348 0.033053 1.219625 128 128 255 -0.894830 0.445628 0.026353
0.054906 0.021895 1.189563 128 128 255 0.809039 -0.586094 0.044165
0.045888 0.006274 1.147475 128 128 255 -0.769861 0.634311 -0.070457
0.032359 -0.017157 1.084344 128 128 255 0.878226 -0.478126 -0.010733
0.009813 -0.056209 0.979125 128 128 255 -0.860740 0.509025 -0.004482
-0.035281 -0.134314 0.768687 128 128 255 -0.975082 0.165778 0.147417
-0.170563 -0.368628 0.137375 128 128 255 -0.866026 0.500000 -0.000000
0.133820 0.158579 -1.042172 128 128 255 -0.866026 0.500000 -0.000000
0.130063 0.152070 -0.770819 128 128 255 -0.866026 0.500000 0.000000
0.127056 0.146863 -0.553738 128 128 255 -0.866025 0.500001 0.000000
0.124597 0.142603 -0.376125 128 128 255 -0.866025 0.500001 0.000000
0.122547 0.139052 -0.228115 128 128 255 -0.866025 0.500001 0.000000
0.120812 0.136048 -0.102875 128 128 255 -0.866025 0.500001 0.000000
0.119326 0.133473 0.004473 128 128 255 -0.866025 0.500001 0.000000
0.118037 0.131242 0.097508 128 128 255 -0.880575 -0.350621 0.318829
0.378571 -0.382500 0.100000 128 128 255 -0.840178 -0.424438 0.337569
0.138332 -0.309069 0.297844 128 128 255 0.446704 0.867055 0.220615
0.059802 -0.285066 0.362516 128 128 255 0.434642 0.877649 0.202037
0.020822 -0.273151 0.394618 128 128 255 0.541692 0.750100 0.379367
-0.002477 -0.266030 0.413804 128 128 255 -0.611879 -0.593661 -0.522657
-0.017972 -0.261294 0.426565 128 128 255 -0.614188 -0.586350 -0.528173
-0.029021 -0.257917 0.435664 128 128 255 0.656790 0.351951 0.666902
-0.037298 -0.255387 0.442481 128 128 255 -0.654652 -0.377965 -0.654654
0.081997 0.131182 0.100000 128 128 255 0.654677 0.377946 0.654641
0.094614 0.157480 0.072200 128 128 255 0.654655 0.377964 0.654653
0.109167 0.187816 0.040132 128 128 255 0.654655 0.377963 0.654653
0.126140 0.223195 0.002733 128 128 255 0.654654 0.377964 0.654653
0.146192 0.264989 -0.041448 128 128 255 0.654653 0.377965 0.654654
0.170242 0.315119 -0.094441 128 128 255 0.654653 0.377965 0.654654
0.199619 0.376354 -0.159172 128 128 255 0.654653 0.377965 0.654654
0.236315 0.452842 -0.240028 128 128 255 -0.299249 0.693958 0.654884
0.164289 -0.179171 0.422359 128 128 255 -0.054791 0.684646 0.726814
0.217443 -0.190048 0.384269 128 128 255 0.324760 -0.687500 0.649519
0.274907 -0.201807 0.343091 128 128 255 0.324759 -0.687501 0.649519
0.337227 -0.214559 0.298433 128 128 255 0.324760 -0.687500 0.649519
0.405046 -0.228437 0.249835 128 128 255 0.324760 -0.687500 0.649519
0.479125 -0.243596 0.196750 128 128 255 0.324760 -0.687499 0.649520
0.560373 -0.260221 0.138528 128 128 255 0.324759 -0.687501 0.649518
0.649883 -0.278538 0.074386 128 128 255 -0.066196 -0.614630 -0.786034
0.035711 0.379171 -0.222359 128 128 255 0.181287 0.284532 0.941370
-0.008953 0.369081 -0.163720 128 128 255 0.220365 -0.975417 -0.000001
-0.050501 0.359694 -0.109172 128 128 255 0.220365 -0.975418 -0.000001
-0.089249 0.350941 -0.058301 128 128 255 0.220366 -0.975417 -0.000000
-0.125469 0.342758 -0.010747 128 128 255 0.220367 -0.975417 0.000001
-0.159401 0.335092 0.033803 128 128 255 0.220366 -0.975417 0.000000
-0.191256 0.327895 0.075625 128 128 255 0.220366 -0.975417 0.000000
-0.221219 0.321126 0.114963 128 128 255 -0.290690 -0.921886 0.256177
0.314326 0.028590 0.100000 128 128 255 -0.011297 -0.049383 0.998716
0.479092 0.085455 0.100000 128 128 255 0.000000 0.000000 1.000000
0.628916 0.137163 0.100000 128 128 255 0.000000 0.000000 1.000000
0.765742 0.184385 0.100000 128 128 255 0.000000 0.000000 1.000000
0.891192 0.227681 0.100000 128 128 255 0.000000 0.000000 1.000000
1.006627 0.267521 0.100000 128 128 255 0.000000 0.000000 1.000000
1.113202 0.304302 0.100000 128 128 255 0.000000 0.000000 1.000000
1.211897 0.338365 0.100000 128 128 255 0.000000 0.000000 -1.000000
-0.029154 0.143032 0.100000 128 128 255 0.000000 0.000000 1.000000
-0.147263 0.109487 0.100000 128 128 255 0.000000 0.000000 1.000000
-0.272925 0.073797 0.100000 128 128 255 0.000000 0.000000 1.000000
-0.406887 0.035750 0.100000 128 128 255 0.000000 0.000000 1.000000
-0.550000 -0.004896 0.100000 128 128 255 0.000000 0.000000 1.000000
-0.703234 -0.048416 0.100000 128 128 255 0.000000 0.000000 1.000000
-0.867703 -0.095128 0.100000 128 128 255 0.000000 0.000000 1.000000
-1.044688 -0.145394 0.100000 128 128 255 0.152907 -0.446186 -0.881781
1.174531 0.100000 0.325469 128 128 255 0.141238 -0.886044 -0.441562
1.168437 0.100000 0.331562 128 128 255 0.577352 0.577352 0.577348
1.005937 0.262500 0.331562 128 128 255 0.577351 0.577351 0.577348
0.843437 0.425000 0.331562 128 128 255 0.577350 0.577350 0.577350
0.680938 0.587500 0.331562 128 128 255 0.577350 0.577350 0.577351
0.518438 0.750000 0.331562 128 128 255 0.577351 0.577351 0.577350
0.355938 0.912500 0.331562 128 128 255 0.577350 0.577350 0.577350
0.193438 1.075000 0.331562 128 128 255 0.577350 0.577350 0.577350
0.030938 1.237500 0.331562 128 128 255 -0.301512 0.904534 -0.301512
-0.968437 0.100000 -0.131563 128 128 255 0.650946 -0.390567 0.650943
-0.805938 -0.062500 -0.131563 128 128 255 0.577350 0.577350 0.577351
-0.643438 -0.225000 -0.131563 128 128 255 0.577351 0.577351 0.577350
-0.480938 -0.387500 -0.131563 128 128 255 0.577350 0.577350 0.577350
-0.318437 -0.550000 -0.131563 128 128 255 0.577350 0.577350 0.577350
-0.155937 -0.712500 -0.131563 128 128 255 0.577350 0.577350 0.577350
0.006562 -0.875000 -0.131563 128 128 255 0.577350 0.577350 0.577350
0.169062 -1.037500 -0.131563 128 128 255 -0.701122 0.129837 -0.701121
0.100000 1.400000 0.100000 128 128 255 -0.706323 0.047088 -0.706322
0.100000 1.202281 0.297719 128 128 255 1.000000 0.000000 0.000000
0.100000 1.004563 0.495437 128 128 255 1.000000 0.000000 0.000000
0.100000 0.806844 0.693156 128 128 255 0.000000 0.000000 0.000000
0.100000 0.609125 0.890875 128 128 255 -1.000000 0.000000 0.000000
0.100000 0.411407 1.088593 128 128 255 -1.000000 0.000000 0.000000
0.100000 0.213688 1.286312 128 128 255 -1.000000 0.000000 0.000000
0.100000 0.015970 1.484030 128 128 255 -1.000000 0.000000 0.000000
0.100000 -0.806897 0.100000 128 128 255 1.000000 0.000000 0.000000
0.100000 -0.668966 -0.037931 128 128 255 1.000000 0.000000 0.000000
0.100000 -0.531034 -0.175862 128 128 255 1.000000 0.000000 0.000000
0.100000 -0.393103 -0.313793 128 128 255 1.000000 0.000000 0.000000
0.100000 -0.255172 -0.451724 128 128 255 1.000000 0.000000 0.000000
0.100000 -0.117241 -0.589655 128 128 255 1.000000 0.000000 0.000000
0.100000 0.020690 -0.727586 128 128 255 1.000000 0.000000 0.000000
0.100000 0.158621 -0.865517 128 128 255 -0.991664 -0.125767 -0.028025
0.065266 0.039838 1.237906 128 128 255 -0.626315 -0.777746 -0.053297
0.060304 0.031244 1.214750 128 128 255 0.703386 -0.702258 0.109920
0.053688 0.019784 1.183875 128 128 255 0.846853 -0.531591 0.015833
0.044425 0.003741 1.140650 128 128 255 0.860659 -0.509161 0.004550
0.030531 -0.020323 1.075812 128 128 255 0.912465 -0.406720 -0.044572
0.007375 -0.060431 0.967750 128 128 255 0.950959 -0.294542 -0.094456
-0.038938 -0.140647 0.751625 128 128 255 -0.489196 0.846660 -0.209413
-0.177875 -0.381294 0.103250 128 128 255 -0.866026 0.500000 -0.000000
0.134734 0.160162 -1.037906 128 128 255 -0.866026 0.499999 -0.000000
0.130875 0.153477 -0.767028 128 128 255 -0.866025 0.500000 0.000000
0.127788 0.148129 -0.550325 128 128 255 -0.866027 0.499998 -0.000000
0.125261 0.143754 -0.373023 128 128 255 -0.866025 0.500000 -0.000000
0.123156 0.140108 -0.225271 128 128 255 -0.866025 0.500000 -0.000000
0.121375 0.137023 -0.100250 128 128 255 -0.866025 0.500000 -0.000000
0.119848 0.134378 0.006911 128 128 255 -0.866025 0.500001 -0.000000
0.118525 0.132086 0.099783 128 128 255 -0.880576 -0.350621 0.318828
0.378571 -0.382500 0.100000 128 128 255 -0.840177 -0.424442 0.337568
0.141489 -0.310034 0.295244 128 128 255 -0.446093 0.514198 -0.732531
0.062594 -0.285919 0.360217 128 128 255 -0.110849 0.880281 -0.461322
0.023171 -0.273870 0.392683 128 128 255 -0.458530 0.492641 -0.739632
-0.000475 -0.266642 0.412156 128 128 255 0.480590 -0.452154 0.751392
-0.016236 -0.261825 0.425135 128 128 255 0.325382 -0.686753 0.649997
-0.027492 -0.258384 0.434405 128 128 255 0.512292 -0.388106 0.766114
-0.035933 -0.255804 0.441357 128 128 255 -0.654661 -0.377959 -0.654650
0.081478 0.132081 0.100000 128 128 255 0.654633 0.377981 0.654665
0.094081 0.158493 0.072148 128 128 255 0.654654 0.377964 0.654654
0.108623 0.188967 0.040012 128 128 255 0.654654 0.377964 0.654654
0.125588 0.224519 0.002520 128 128 255 0.654653 0.377965 0.654654
0.145637 0.266534 -0.041786 128 128 255 0.654651 0.377967 0.654655
0.169695 0.316950 -0.094951 128 128 255 0.654651 0.377967 0.654655
0.199097 0.378566 -0.159928 128 128 255 0.654652 0.377966 0.654654
0.235848 0.455582 -0.241143 128 128 255 -0.296643 0.691475 0.658685
0.171297 -0.177588 0.420531 128 128 255 -0.054324 0.683336 0.728080
0.224724 -0.188403 0.382370 128 128 255 0.324760 -0.687500 0.649519
0.282483 -0.200095 0.341115 128 128 255 0.324760 -0.687500 0.649519
0.345123 -0.212775 0.296373 128 128 255 0.324760 -0.687500 0.649519
0.413290 -0.226574 0.247684 128 128 255 0.324759 -0.687501 0.649519
0.487750 -0.241647 0.194500 128 128 255 0.324759 -0.687500 0.649519
0.569415 -0.258178 0.136169 128 128 255 0.324760 -0.687499 0.649520
0.659386 -0.276391 0.071907 128 128 255 -0.066194 -0.614629 -0.786034
0.028703 0.377588 -0.220531 128 128 255 0.181296 0.284534 0.941367
-0.015708 0.367555 -0.161958 128 128 255 0.220366 -0.975417 0.000000
-0.057020 0.358222 -0.107471 128 128 255 0.220365 -0.975417 -0.000000
-0.095548 0.349517 -0.056657 128 128 255 0.220366 -0.975417 -0.000000
-0.131563 0.341381 -0.009158 128 128 255 0.220365 -0.975418 -0.000001
-0.165303 0.333759 0.035342 128 128 255 0.220365 -0.975417 -0.000001
-0.196977 0.326603 0.077117 128 128 255 0.220365 -0.975418 -0.000001
-0.226770 0.319872 0.116411 128 128 255 -0.265522 -0.906179 0.329148
0.312713 0.038912 0.100000 128 128 255 -0.007893 -0.048453 0.998794
0.477262 0.095187 0.100000 128 128 255 0.000000 0.000000 1.000000
0.626914 0.146367 0.100000 128 128 255 0.000000 0.000000 1.000000
0.763605 0.193114 0.100000 128 128 255 0.000000 0.000000 1.000000
0.888948 0.235980 0.100000 128 128 255 0.000000 0.000000 1.000000
1.004301 0.275429 0.100000 128 128 255 0.000000 0.000000 1.000000
1.110811 0.311855 0.100000 128 128 255 0.000000 0.000000 1.000000
1.209459 0.345591 0.100000 128 128 255 0.000000 0.000000 -1.000000
-0.028566 0.136922 0.100000 128 128 255 0.000000 0.000000 1.000000
-0.146795 0.103149 0.100000 128 128 255 0.000000 0.000000 1.000000
-0.272593 0.067213 0.100000 128 128 255 0.000000 0.000000 1.000000
-0.406710 0.028901 0.100000 128 128 255 0.000000 0.000000 1.000000
-0.550000 -0.012031 0.100000 128 128 255 0.000000 0.000000 1.000000
-0.703438 -0.055862 0.100000 128 128 255 0.000000 0.000000 1.000000
-0.868140 -0.102911 0.100000 128 128 255 0.000000 0.000000 1.000000
-1.045395 -0.153546 0.100000 128 128 255 0.157712 -0.446934 -0.880555
1.168437 0.100000 0.331562 128 128 255 0.145837 -0.886679 -0.438785
1.162344 0.100000 0.337656 128 128 255 0.577350 0.577350 0.577351
0.999844 0.262500 0.337656 128 128 255 0.577351 0.577351 0.577349
0.837344 0.425000 0.337656 128 128 255 0.577351 0.577351 0.577349
0.674844 0.587500 0.337656 128 128 255 0.577350 0.577350 0.577351
0.512344 0.750000 0.337656 128 128 255 0.577350 0.577350 0.577350
0.349844 0.912500 0.337656 128 128 255 0.577350 0.577350 0.577350
0.187344 1.075000 0.337656 128 128 255 0.577350 0.577350 0.577350
0.024844 1.237500 0.337656 128 128 255 -0.301512 0.904534 -0.301511
-0.962344 0.100000 -0.137656 128 128 255 0.650945 -0.390566 0.650945
-0.799844 -0.062500 -0.137656 128 128 255 0.577350 0.577350 0.577351
-0.637344 -0.225000 -0.137656 128 128 255 0.577350 0.577350 0.577350
-0.474844 -0.387500 -0.137656 128 128 255 0.577350 0.577350 0.577350
-0.312344 -0.550000 -0.137656 128 128 255 0.577350 0.577350 0.577350
-0.149844 -0.712500 -0.137656 128 128 255 0.577350 0.577350 0.577350
0.012656 -0.875000 -0.137656 128 128 255 0.577350 0.577350 0.577350
0.175156 -1.037500 -0.137656 128 128 255 -0.701121 0.129837 -0.701122
0.100000 1.400000 0.100000 128 128 255 -0.706323 0.047088 -0.706322
0.100000 1.201147 0.298853 128 128 255 -1.000000 0.000000 0.000000
0.100000 1.002294 0.497706 128 128 255 1.000000 0.000000 0.000000
0.100000 0.803442 0.696558 128 128 255 1.000000 0.000000 0.000000
0.100000 0.604589 0.895411 128 128 255 1.000000 0.000000 0.000000
0.100000 0.405736 1.094264 128 128 255 -1.000000 0.000000 0.000000
0.100000 0.206883 1.293117 128 128 255 -1.000000 0.000000 0.000000
0.100000 0.008031 1.491969 128 128 255 -1.000000 0.000000 0.000000
0.100000 -0.798151 0.100000 128 128 255 1.000000 0.000000 0.000000
0.100000 -0.660766 -0.037384 128 128 255 1.000000 0.000000 0.000000
0.100000 -0.523382 -0.174769 128 128 255 1.000000 0.000000 0.000000
0.100000 -0.385997 -0.312153 128 128 255 1.000000 0.000000 0.000000
0.100000 -0.248613 -0.449538 128 128 255 1.000000 0.000000 0.000000
0.100000 -0.111229 -0.586922 128 128 255 1.000000 0.000000 0.000000
0.100000 0.026156 -0.724306 128 128 255 1.000000 0.000000 0.000000
0.100000 0.163540 -0.861691 128 128 255 -0.991512 -0.126711 -0.029124
0.064352 0.038255 1.233641 128 128 255 -0.611300 -0.789371 -0.056620
0.059259 0.029434 1.209875 128 128 255 -0.843187 0.537294 -0.018736
0.052469 0.017673 1.178187 128 128 255 -0.832936 0.552726 -0.026660
0.042962 0.001208 1.133825 128 128 255 0.907590 -0.418011 -0.039337
0.028703 -0.023490 1.067281 128 128 255 -0.912392 0.406892 0.044493
0.004938 -0.064653 0.956375 128 128 255 0.697457 -0.707632 0.113185
-0.042594 -0.146980 0.734563 128 128 255 0.930540 -0.360250 -0.065693
-0.185188 -0.393959 0.069125 128 128 255 -0.866025 0.500000 0.000000
0.135648 0.161745 -1.033641 128 128 255 -0.866025 0.500000 0.000000
0.131688 0.154884 -0.763236 128 128 255 -0.866026 0.500000 -0.000000
0.128519 0.149396 -0.546912 128 128 255 -0.866024 0.500002 0.000000
0.125926 0.144905 -0.369920 128 128 255 -0.866026 0.499999 -0.000000
0.123766 0.141163 -0.222427 128 128 255 -0.866026 0.499999 -0.000000
0.121937 0.137997 -0.097625 128 128 255 -0.866026 0.499998 -0.000000
0.120371 0.135283 0.009348 128 128 255 -0.866025 0.500000 -0.000000
0.119012 0.132931 0.102058 128 128 255 -0.880575 -0.350621 0.318829
0.378571 -0.382500 0.100000 128 128 255 -0.840175 -0.424443 0.337571
0.144565 -0.310974 0.292712 128 128 255 -0.460675 -0.853798 -0.242501
0.065337 -0.286758 0.357958 128 128 255 0.639954 0.024413 0.768026
0.025489 -0.274578 0.390774 128 128 255 -0.064273 -0.958515 0.277702
0.001505 -0.267247 0.410525 128 128 255 -0.460367 0.489382 -0.740653
-0.014515 -0.262350 0.423719 128 128 255 0.343195 0.936721 0.069070
-0.025974 -0.258848 0.433155 128 128 255 -0.084262 -0.963216 0.255176
-0.034577 -0.256219 0.440240 128 128 255 -0.654657 -0.377962 -0.654652
0.080957 0.132983 0.100000 128 128 255 0.654613 0.377996 0.654676
0.093547 0.159509 0.072096 128 128 255 0.654652 0.377966 0.654655
0.108077 0.190123 0.039890 128 128 255 0.654653 0.377965 0.654654
0.125034 0.225850 0.002307 128 128 255 0.654654 0.377964 0.654653
0.145080 0.268086 -0.042125 128 128 255 0.654656 0.377963 0.654653
0.169145 0.318790 -0.095464 128 128 255 0.654653 0.377965 0.654654
0.198573 0.380792 -0.160688 128 128 255 0.654653 0.377965 0.654654
0.235378 0.458340 -0.242266 128 128 255 -0.294039 0.688994 0.662441
0.178305 -0.176005 0.418703 128 128 255 -0.053854 0.682024 0.729344
0.232005 -0.186758 0.380471 128 128 255 0.324760 -0.687500 0.649519
0.290059 -0.198384 0.339139 128 128 255 0.324759 -0.687500 0.649519
0.353019 -0.210992 0.294313 128 128 255 0.324760 -0.687500 0.649519
0.421535 -0.224712 0.245533 128 128 255 0.324760 -0.687499 0.649520
0.496375 -0.239698 0.192250 128 128 255 0.324760 -0.687499 0.649520
0.578458 -0.256135 0.133810 128 128 255 0.324760 -0.687499 0.649520
0.668888 -0.274244 0.069428 128 128 255 -0.066195 -0.614629 -0.786034
0.021695 0.376005 -0.218703 128 128 255 0.181292 0.284535 0.941368
-0.022462 0.366029 -0.160196 128 128 255 0.220368 -0.975417 0.000001
-0.063539 0.356749 -0.105770 128 128 255 0.220367 -0.975417 0.000001
-0.101847 0.348094 -0.055014 128 128 255 0.220366 -0.975417 -0.000000
-0.137656 0.340004 -0.007568 128 128 255 0.220366 -0.975417 -0.000000
-0.171204 0.332425 0.036882 128 128 255 0.220367 -0.975417 0.000001
-0.202698 0.325310 0.078610 128 128 255 0.220366 -0.975417 -0.000000
-0.232321 0.318618 0.117859 128 128 255 -0.239725 -0.885736 0.397497
0.311105 0.049196 0.100000 128 128 255 -0.004566 -0.047544 0.998859
0.475439 0.104884 0.100000 128 128 255 0.000000 0.000000 1.000000
0.624920 0.155539 0.100000 128 128 255 0.000000 0.000000 1.000000
0.761475 0.201814 0.100000 128 128 255 0.000000 0.000000 1.000000
0.886712 0.244253 0.100000 128 128 255 0.000000 0.000000 1.000000
1.001981 0.283314 0.100000 128 128 255 0.000000 0.000000 1.000000
1.108428 0.319386 0.100000 128 128 255 0.000000 0.000000 1.000000
1.207027 0.352798 0.100000 128 128 255 0.000000 0.000000 -1.000000
-0.027977 0.130798 0.100000 128 128 255 0.000000 0.000000 1.000000
-0.146326 0.096795 0.100000 128 128 255 0.000000 0.000000 1.000000
-0.272259 0.060613 0.100000 128 128 255 0.000000 0.000000 1.000000
-0.406532 0.022035 0.100000 128 128 255 0.000000 0.000000 1.000000
-0.550000 -0.019185 0.100000 128 128 255 0.000000 0.000000 1.000000
-0.703642 -0.063328 0.100000 128 128 255 0.000000 0.000000 1.000000
-0.868579 -0.110716 0.100000 128 128 255 0.000000 0.000000 1.000000
-1.046104 -0.161722 0.100000 128 128 255 0.162543 -0.447671 -0.879301
1.162344 0.100000 0.337656 128 128 255 0.150451 -0.887289 -0.435984
1.156250 0.100000 0.343750 128 128 255 0.577350 0.577350 0.577350
0.993750 0.262500 0.343750 128 128 255 0.577350 0.577350 0.577352
0.831250 0.425000 0.343750 128 128 255 0.577350 0.577350 0.577351
0.668750 0.587500 0.343750 128 128 255 0.577350 0.577350 0.577351
0.506250 0.750000 0.343750 128 128 255 0.577350 0.577350 0.577352
0.343750 0.912500 0.343750 128 128 255 0.577350 0.577350 0.577350
0.181250 1.075000 0.343750 128 128 255 0.577350 0.577350 0.577351
0.018750 1.237500 0.343750 128 128 255 -0.301510 0.904534 -0.301513
-0.956250 0.100000 -0.143750 128 128 255 0.650946 -0.390567 0.650943
-0.793750 -0.062500 -0.143750 128 128 255 0.577350 0.577350 0.577350
-0.631250 -0.225000 -0.143750 128 128 255 0.577350 0.577350 0.577351
-0.468750 -0.387500 -0.143750 128 128 255 0.577350 0.577350 0.577350
-0.306250 -0.550000 -0.143750 128 128 255 0.577350 0.577350 0.577350
-0.143750 -0.712500 -0.143750 128 128 255 0.577350 0.577350 0.577350
0.018750 -0.875000 -0.143750 128 128 255 0.577350 0.577350 0.577350
0.181250 -1.037500 -0.143750 128 128 255 -0.701121 0.129837 -0.701121
0.100000 1.400000 0.100000 128 128 255 -0.706321 0.047088 -0.706324
0.100000 1.200000 0.300000 128 128 255 1.000000 0.000000 0.000000
0.100000 1.000000 0.500000 128 128 255 -1.000000 0.000000 0.000000
0.100000 0.800000 0.700000 128 128 255 -1.000000 0.000000 0.000000
0.100000 0.600000 0.900000 128 128 255 1.000000 0.000000 0.000000
0.100000 0.400000 1.100000 128 128 255 1.000000 0.000000 0.000000
0.100000 0.200000 1.300000 128 128 255 1.000000 0.000000 0.000000
0.100000 0.000000 1.500000 128 128 255 -1.000000 0.000000 0.000000
0.100000 -0.789474 0.100000 128 128 255 1.000000 0.000000 0.000000
0.100000 -0.652632 -0.036842 128 128 255 1.000000 0.000000 0.000000
0.100000 -0.515789 -0.173684 128 128 255 1.000000 0.000000 0.000000
0.100000 -0.378947 -0.310526 128 128 255 1.000000 0.000000 0.000000
0.100000 -0.242105 -0.447368 128 128 255 1.000000 0.000000 0.000000
0.100000 -0.105263 -0.584211 128 128 255 1.000000 0.000000 0.000000
0.100000 0.031579 -0.721053 128 128 255 1.000000 0.000000 0.000000
0.100000 0.168421 -0.857895 128 128 255 -0.991356 -0.127666 -0.030234
0.063437 0.036672 1.229375 128 128 255 -0.595704 -0.800960 -0.060001
0.058214 0.027625 1.205000 128 128 255 0.909175 0.287280 -0.301448
0.051250 0.015563 1.172500 128 128 255 -0.849877 0.526810 -0.013411
0.041500 -0.001325 1.127000 128 128 255 -0.957349 0.269070 0.105280
0.026875 -0.026656 1.058750 128 128 255 0.877715 -0.479072 -0.010272
0.002500 -0.068875 0.945000 128 128 255 -0.978483 0.127173 0.162474
-0.046250 -0.153312 0.717500 128 128 255 -0.661587 -0.645631 0.381397
-0.192500 -0.406625 0.035000 128 128 255 -0.866025 0.500000 0.000000
0.136562 0.163328 -1.029375 128 128 255 -0.866025 0.500000 0.000000
0.132500 0.156292 -0.759444 128 128 255 -0.866028 0.499996 -0.000000
0.129250 0.150662 -0.543500 128 128 255 -0.866026 0.499999 -0.000000
0.126591 0.146057 -0.366818 128 128 255 -0.866025 0.500001 0.000000
0.124375 0.142219 -0.219583 128 128 255 -0.866024 0.500002 0.000000
0.122500 0.138971 -0.095000 128 128 255 -0.866025 0.500001 0.000000
0.120893 0.136187 0.011786 128 128 255 -0.866025 0.500000 -0.000000
0.119500 0.133775 0.104333 128 128 255 -0.880575 -0.350621 0.318830
0.378571 -0.382500 0.100000 128 128 255 -0.840176 -0.424441 0.337572
0.147561 -0.311890 0.290244 128 128 255 0.399361 -0.588182 0.703244
0.068033 -0.287582 0.355738 128 128 255 -0.608991 -0.602505 -0.515867
0.027778 -0.275278 0.388889 128 128 255 -0.249732 -0.966720 0.055555
0.003465 -0.267846 0.408911 128 128 255 0.106090 0.967341 -0.230208
-0.012810 -0.262872 0.422314 128 128 255 0.379182 0.917522 0.119893
-0.024468 -0.259308 0.431915 128 128 255 0.615806 -0.093219 0.782364
-0.033230 -0.256630 0.439130 128 128 255 -0.654656 -0.377963 -0.654652
0.080435 0.133888 0.100000 128 128 255 0.654664 0.377957 0.654648
0.093011 0.160529 0.072043 128 128 255 0.654654 0.377964 0.654653
0.107529 0.191284 0.039768 128 128 255 0.654654 0.377965 0.654654
0.124477 0.227186 0.002092 128 128 255 0.654655 0.377963 0.654653
0.144521 0.269646 -0.042466 128 128 255 0.654656 0.377963 0.654653
0.168593 0.320641 -0.095980 128 128 255 0.654655 0.377964 0.654653
0.198045 0.383031 -0.161453 128 128 255 0.654654 0.377964 0.654654
0.234906 0.461116 -0.243396 128 128 255 -0.291444 0.686515 0.666151
0.185312 -0.174422 0.416875 128 128 255 -0.053384 0.680712 0.730604
0.239286 -0.185114 0.378571 128 128 255 0.324760 -0.687500 0.649519
0.297635 -0.196672 0.337162 128 128 255 0.324760 -0.687499 0.649520
0.360915 -0.209208 0.292254 128 128 255 0.324759 -0.687501 0.649519
0.429779 -0.222849 0.243382 128 128 255 0.324759 -0.687501 0.649518
0.505000 -0.237750 0.190000 128 128 255 0.324759 -0.687501 0.649518
0.587500 -0.254093 0.131452 128 128 255 0.324760 -0.687500 0.649519
0.678390 -0.272097 0.066949 128 128 255 -0.066195 -0.614630 -0.786034
0.014687 0.374422 -0.216875 128 128 255 0.181293 0.284535 0.941368
-0.029217 0.364503 -0.158434 128 128 255 0.220364 -0.975418 -0.000002
-0.070058 0.355276 -0.104070 128 128 255 0.220367 -0.975417 0.000001
-0.108146 0.346671 -0.053371 128 128 255 0.220368 -0.975417 0.000001
-0.143750 0.338628 -0.005978 128 128 255 0.220366 -0.975417 -0.000000
-0.177105 0.331092 0.038421 128 128 255 0.220365 -0.975417 -0.000001
-0.208418 0.324018 0.080102 128 128 255 0.220366 -0.975417 0.000000
-0.237871 0.317364 0.119307 128 128 255 -0.213859 -0.861508 0.460508
0.309504 0.059442 0.100000 128 128 255 -0.001314 -0.046654 0.998910
0.473622 0.114547 0.100000 128 128 255 0.000000 0.000000 1.000000
0.622932 0.164681 0.100000 128 128 255 0.000000 0.000000 1.000000
0.759353 0.210486 0.100000 128 128 255 0.000000 0.000000 1.000000
0.884483 0.252500 0.100000 128 128 255 0.000000 0.000000 1.000000
0.999669 0.291176 0.100000 128 128 255 0.000000 0.000000 1.000000
1.106051 0.326895 0.100000 128 128 255 0.000000 0.000000 1.000000
1.204601 0.359985 0.100000 128 128 255 0.000000 0.000000 -1.000000
-0.027387 0.124661 0.100000 128 128 255 0.000000 0.000000 1.000000
-0.145855 0.090427 0.100000 128 128 255 0.000000 0.000000 1.000000
-0.271925 0.053997 0.100000 128 128 255 0.000000 0.000000 1.000000
-0.406354 0.015152 0.100000 128 128 255 0.000000 0.000000 1.000000
-0.550000 -0.026357 0.100000 128 128 255 0.000000 0.000000 1.000000
-0.703846 -0.070814 0.100000 128 128 255 0.000000 0.000000 1.000000
-0.869018 -0.118543 0.100000 128 128 255 0.000000 0.000000 1.000000
-1.046815 -0.169920 0.100000 128 128 255 0.167399 -0.448404 -0.878016
1.156250 0.100000 0.343750 128 128 255 0.155081 -0.887875 -0.433161
1.150156 0.100000 0.349844 128 128 255 0.577351 0.577351 0.577349
0.987656 0.262500 0.349844 128 128 255 0.577350 0.577350 0.577350
0.825156 0.425000 0.349844 128 128 255 0.577350 0.577350 0.577351
0.662656 0.587500 0.349844 128 128 255 0.577351 0.577351 0.577349
0.500156 0.750000 0.349844 128 128 255 0.577350 0.577350 0.577350
0.337656 0.912500 0.349844 128 128 255 0.577350 0.577350 0.577351
0.175156 1.075000 0.349844 128 128 255 0.577350 0.577350 0.577350
0.012656 1.237500 0.349844 128 128 255 -0.301514 0.904535 -0.301507
-0.950156 0.100000 -0.149844 128 128 255 0.650943 -0.390567 0.650946
-0.787656 -0.062500 -0.149844 128 128 255 0.577350 0.577351 0.577350
-0.625156 -0.225000 -0.149844 128 128 255 0.577350 0.577350 0.577351
-0.462656 -0.387500 -0.149844 128 128 255 0.577350 0.577350 0.577351
-0.300156 -0.550000 -0.149844 128 128 255 0.577350 0.577350 0.577351
-0.137656 -0.712500 -0.149844 128 128 255 0.577350 0.577350 0.577350
0.024844 -0.875000 -0.149844 128 128 255 0.577350 0.577350 0.577350
0.187344 -1.037500 -0.149844 128 128 255 -0.701121 0.129837 -0.701121
0.100000 1.400000 0.100000 128 128 255 -0.706323 0.047088 -0.706322
0.100000 1.198839 0.301161 128 128 255 1.000000 0.000000 0.000000
0.100000 0.997679 0.502321 128 128 255 1.000000 0.000000 0.000000
0.100000 0.796518 0.703482 128 128 255 0.000000 0.000000 0.000000
0.100000 0.595358 0.904642 128 128 255 -1.000000 0.000000 0.000000
0.100000 0.394197 1.105803 128 128 255 1.000000 0.000000 0.000000
0.100000 0.193037 1.306963 128 128 255 1.000000 0.000000 0.000000
0.100000 -0.008124 1.508124 128 128 255 -1.000000 0.000000 0.000000
0.100000 -0.780865 0.100000 128 128 255 1.000000 0.000000 0.000000
0.100000 -0.644561 -0.036304 128 128 255 1.000000 0.000000 0.000000
0.100000 -0.508257 -0.172608 128 128 255 1.000000 0.000000 0.000000
0.100000 -0.371953 -0.308912 128 128 255 1.000000 0.000000 0.000000
0.100000 -0.235649 -0.445216 128 128 255 1.000000 0.000000 0.000000
0.100000 -0.099345 -0.581520 128 128 255 1.000000 0.000000 0.000000
0.100000 0.036959 -0.717824 128 128 255 1.000000 0.000000 0.000000
0.100000 0.173263 -0.854128 128 128 255 -0.991196 -0.128636 -0.031358
0.062523 0.035089 1.225109 128 128 255 -0.579521 -0.812485 -0.063435
0.057170 0.025816 1.200125 128 128 255 0.802361 -0.594837 0.048841
0.050031 0.013452 1.166813 128 128 255 0.847393 -0.530742 0.015403
0.040038 -0.003858 1.120175 128 128 255 -0.869637 0.493682 0.003119
0.025047 -0.029823 1.050219 128 128 255 0.902989 -0.428273 -0.034543
0.000063 -0.073097 0.933625 128 128 255 0.885705 -0.463914 -0.017610
-0.049906 -0.159645 0.700437 128 128 255 -0.969689 -0.070491 0.233953
-0.199813 -0.419290 0.000875 128 128 255 -0.866026 0.500000 -0.000000
0.137477 0.164911 -1.025109 128 128 255 -0.866025 0.500000 -0.000000
0.133312 0.157699 -0.755653 128 128 255 -0.866026 0.500000 -0.000000
0.129981 0.151929 -0.540088 128 128 255 -0.866026 0.499998 -0.000000
0.127256 0.147208 -0.363716 128 128 255 -0.866027 0.499998 -0.000000
0.124984 0.143274 -0.216740 128 128 255 -0.866026 0.499999 -0.000000
0.123062 0.139945 -0.092375 128 128 255 -0.866025 0.500001 0.000000
0.121415 0.137092 0.014223 128 128 255 -0.866026 0.499999 -0.000000
0.119988 0.134619 0.106608 128 128 255 -0.880575 -0.350621 0.318830
0.378571 -0.382500 0.100000 128 128 255 -0.840175 -0.424439 0.337575
0.150482 -0.312783 0.287839 128 128 255 0.642056 0.471221 0.604744
0.070683 -0.288392 0.353555 128 128 255 0.357990 -0.645788 0.674389
0.030037 -0.275968 0.387029 128 128 255 -0.586189 -0.662910 -0.465760
0.005405 -0.268439 0.407313 128 128 255 -0.556764 -0.723912 -0.407388
-0.011119 -0.263389 0.420922 128 128 255 -0.584914 0.202497 -0.785411
-0.022973 -0.259765 0.430684 128 128 255 -0.252396 -0.966219 0.052135
-0.031891 -0.257039 0.438028 128 128 255 -0.654653 -0.377965 -0.654654
0.079910 0.134796 0.100000 128 128 255 0.654629 0.377983 0.654667
0.092472 0.161552 0.071990 128 128 255 0.654652 0.377966 0.654654
0.106978 0.192449 0.039646 128 128 255 0.654653 0.377965 0.654654
0.123918 0.228528 0.001877 128 128 255 0.654654 0.377964 0.654654
0.143958 0.271213 -0.042808 128 128 255 0.654654 0.377964 0.654653
0.168038 0.322501 -0.096498 128 128 255 0.654654 0.377964 0.654653
0.197514 0.385283 -0.162222 128 128 255 0.654656 0.377962 0.654653
0.234430 0.463911 -0.244534 128 128 255 -0.288861 0.684038 0.669814
0.192320 -0.172839 0.415047 128 128 255 -0.052916 0.679398 0.731859
0.246567 -0.183469 0.376672 128 128 255 0.324759 -0.687501 0.649519
0.305211 -0.194961 0.335186 128 128 255 0.324759 -0.687501 0.649519
0.368812 -0.207424 0.290194 128 128 255 0.324760 -0.687499 0.649520
0.438024 -0.220987 0.241232 128 128 255 0.324760 -0.687499 0.649520
0.513625 -0.235801 0.187750 128 128 255 0.324759 -0.687500 0.649519
0.596542 -0.252050 0.129093 128 128 255 0.324758 -0.687502 0.649517
0.687892 -0.269951 0.064470 128 128 255 -0.066196 -0.614630 -0.786033
0.007680 0.372839 -0.215047 128 128 255 0.181293 0.284535 0.941368
-0.035971 0.362977 -0.156672 128 128 255 0.220367 -0.975417 0.000001
-0.076577 0.353803 -0.102369 128 128 255 0.220365 -0.975418 -0.000001
-0.114445 0.345248 -0.051728 128 128 255 0.220366 -0.975417 -0.000000
-0.149844 0.337251 -0.004389 128 128 255 0.220368 -0.975417 0.000002
-0.183007 0.329759 0.039961 128 128 255 0.220366 -0.975417 0.000000
-0.214139 0.322725 0.081594 128 128 255 0.220365 -0.975417 -0.000001
-0.243422 0.316110 0.120755 128 128 255 -0.188404 -0.834492 0.517809
0.307909 0.069650 0.100000 128 128 255 0.001867 -0.045784 0.998950
0.471812 0.124176 0.100000 128 128 255 0.000000 0.000000 1.000000
0.620951 0.173791 0.100000 128 128 255 0.000000 0.000000 1.000000
0.757236 0.219130 0.100000 128 128 255 0.000000 0.000000 1.000000
0.882260 0.260722 0.100000 128 128 255 0.000000 0.000000 1.000000
0.997363 0.299013 0.100000 128 128 255 0.000000 0.000000 1.000000
1.103681 0.334383 0.100000 128 128 255 0.000000 0.000000 1.000000
1.202183 0.367152 0.100000 128 128 255 0.000000 0.000000 -1.000000
-0.026795 0.118509 0.100000 128 128 255 0.000000 0.000000 1.000000
-0.145383 0.084044 0.100000 128 128 255 0.000000 0.000000 1.000000
-0.271590 0.047365 0.100000 128 128 255 0.000000 0.000000 1.000000
-0.406175 0.008252 0.100000 128 128 255 0.000000 0.000000 1.000000
-0.550000 -0.033548 0.100000 128 128 255 0.000000 0.000000 1.000000
-0.704051 -0.078319 0.100000 128 128 255 0.000000 0.000000 1.000000
-0.869459 -0.126391 0.100000 128 128 255 0.000000 0.000000 1.000000
-1.047528 -0.178143 0.100000 128 128 255 0.172283 -0.449132 -0.876698
1.150156 0.100000 0.349844 128 128 255 0.159726 -0.888437 -0.430311
1.144063 0.100000 0.355938 128 128 255 0.577351 0.577351 0.577350
0.981562 0.262500 0.355938 128 128 255 0.577351 0.577351 0.577349
0.819062 0.425000 0.355938 128 128 255 0.577350 0.577350 0.577351
0.656563 0.587500 0.355938 128 128 255 0.577350 0.577350 0.577350
0.494063 0.750000 0.355938 128 128 255 0.577351 0.577351 0.577349
0.331562 0.912500 0.355938 128 128 255 0.577351 0.577351 0.577350
0.169062 1.075000 0.355938 128 128 255 0.577350 0.577350 0.577350
0.006562 1.237500 0.355938 128 128 255 -0.301511 0.904534 -0.301512
-0.944062 0.100000 -0.155937 128 128 255 0.650942 -0.390566 0.650947
-0.781563 -0.062500 -0.155937 128 128 255 0.577350 0.577350 0.577350
-0.619062 -0.225000 -0.155937 128 128 255 0.577350 0.577350 0.577350
-0.456562 -0.387500 -0.155937 128 128 255 0.577350 0.577350 0.577350
-0.294062 -0.550000 -0.155937 128 128 255 0.577350 0.577350 0.577350
-0.131563 -0.712500 -0.155937 128 128 255 0.577350 0.577350 0.577350
0.030938 -0.875000 -0.155937 128 128 255 0.577350 0.577350 0.577350
0.193438 -1.037500 -0.155937 128 128 255 -0.701121 0.129837 -0.701122
0.100000 1.400000 0.100000 128 128 255 -0.706322 0.047088 -0.706323
0.100000 1.197665 0.302335 128 128 255 -1.000000 0.000000 0.000000
0.100000 0.995331 0.504669 128 128 255 1.000000 0.000000 0.000000
0.100000 0.792996 0.707004 128 128 255 0.000000 0.000000 0.000000
0.100000 0.590661 0.909339 128 128 255 -1.000000 0.000000 0.000000
0.100000 0.388327 1.111673 128 128 255 -1.000000 0.000000 0.000000
0.100000 0.185992 1.314008 128 128 255 -1.000000 0.000000 0.000000
0.100000 -0.016342 1.516342 128 128 255 -1.000000 0.000000 0.000000
0.100000 -0.772324 0.100000 128 128 255 1.000000 0.000000 0.000000
0.100000 -0.636554 -0.035770 128 128 255 1.000000 0.000000 0.000000
0.100000 -0.500783 -0.171540 128 128 255 1.000000 0.000000 0.000000
0.100000 -0.365013 -0.307311 128 128 255 1.000000 0.000000 0.000000
0.100000 -0.229243 -0.443081 128 128 255 1.000000 0.000000 0.000000
0.100000 -0.093473 -0.578851 128 128 255 1.000000 0.000000 0.000000
0.100000 0.042298 -0.714621 128 128 255 1.000000 0.000000 0.000000
0.100000 0.178068 -0.850392 128 128 255 -0.991031 -0.129620 -0.032494
0.061609 0.033505 1.220844 128 128 255 -0.562745 -0.823917 -0.066920
0.056125 0.024006 1.195250 128 128 255 -0.860215 0.509908 -0.004922
0.048813 0.011341 1.161125 128 128 255 0.850502 -0.525814 0.012907
0.038575 -0.006391 1.113350 128 128 255 0.848992 -0.528217 0.014123
0.023219 -0.032989 1.041687 128 128 255 -0.870238 0.492619 0.003642
-0.002375 -0.077319 0.922250 128 128 255 -0.787114 0.613960 -0.059206
-0.053562 -0.165978 0.683375 128 128 255 0.741129 0.561928 -0.367375
-0.207125 -0.431956 -0.033250 128 128 255 -0.866025 0.500000 0.000000
0.138391 0.166495 -1.020844 128 128 255 -0.866026 0.500000 -0.000000
0.134125 0.159106 -0.751861 128 128 255 -0.866025 0.500001 0.000000
0.130712 0.153196 -0.536675 128 128 255 -0.866025 0.500001 0.000000
0.127920 0.148360 -0.360614 128 128 255 -0.866025 0.500001 0.000000
0.125594 0.144330 -0.213896 128 128 255 -0.866027 0.499998 -0.000000
0.123625 0.140920 -0.089750 128 128 255 -0.866026 0.499999 -0.000000
0.121937 0.137997 0.016661 128 128 255 -0.866025 0.500001 0.000000
0.120475 0.135464 0.108883 128 128 255 -0.880576 -0.350621 0.318828
0.378571 -0.382500 0.100000 128 128 255 -0.840177 -0.424442 0.337567
0.153329 -0.313653 0.285493 128 128 255 0.183272 0.973232 -0.138674
0.073288 -0.289188 0.351410 128 128 255 0.622331 -0.065523 0.780007
0.032267 -0.276650 0.385192 128 128 255 0.610115 -0.115744 0.783813
0.007325 -0.269026 0.405732 128 128 255 -0.635643 -0.503932 -0.584817
-0.009443 -0.263901 0.419541 128 128 255 0.426968 -0.545742 0.721016
-0.021489 -0.260219 0.429461 128 128 255 0.419521 0.889896 0.179130
-0.030562 -0.257446 0.436933 128 128 255 -0.654652 -0.377966 -0.654655
0.079384 0.135708 0.100000 128 128 255 0.654681 0.377944 0.654639
0.091932 0.162580 0.071937 128 128 255 0.654653 0.377965 0.654654
0.106426 0.193619 0.039523 128 128 255 0.654653 0.377965 0.654654
0.123356 0.229877 0.001660 128 128 255 0.654653 0.377965 0.654654
0.143393 0.272788 -0.043152 128 128 255 0.654653 0.377965 0.654654
0.167479 0.324370 -0.097019 128 128 255 0.654654 0.377964 0.654654
0.196979 0.387548 -0.162995 128 128 255 0.654654 0.377964 0.654653
0.233951 0.466724 -0.245679 128 128 255 -0.286289 0.681564 0.673431
0.199328 -0.171255 0.413219 128 128 255 -0.052453 0.678083 0.733111
0.253847 -0.181824 0.374773 128 128 255 0.324761 -0.687498 0.649520
0.312787 -0.193249 0.333209 128 128 255 0.324759 -0.687501 0.649518
0.376708 -0.205640 0.288134 128 128 255 0.324758 -0.687502 0.649518
0.446268 -0.219124 0.239081 128 128 255 0.324759 -0.687500 0.649519
0.522250 -0.233853 0.185500 128 128 255 0.324760 -0.687499 0.649520
0.605585 -0.250007 0.126734 128 128 255 0.324760 -0.687499 0.649520
0.697394 -0.267804 0.061992 128 128 255 -0.066197 -0.614631 -0.786033
0.000672 0.371255 -0.213219 128 128 255 0.181288 0.284532 0.941369
-0.042726 0.361451 -0.154910 128 128 255 0.220366 -0.975417 -0.000000
-0.083096 0.352331 -0.100669 128 128 255 0.220366 -0.975417 -0.000000
-0.120744 0.343825 -0.050084 128 128 255 0.220364 -0.975418 -0.000002
-0.155937 0.335874 -0.002799 128 128 255 0.220364 -0.975418 -0.000002
-0.188908 0.328426 0.041500 128 128 255 0.220365 -0.975417 -0.000000
-0.219860 0.321433 0.083087 128 128 255 0.220366 -0.975417 0.000000
-0.248973 0.314856 0.122203 128 128 255 -0.163747 -0.805638 0.569329
0.306319 0.079820 0.100000 128 128 255 0.004977 -0.044932 0.998978
0.470008 0.133771 0.100000 128 128 255 0.000000 0.000000 1.000000
0.618977 0.182871 0.100000 128 128 255 0.000000 0.000000 1.000000
0.755127 0.227746 0.100000 128 128 255 0.000000 0.000000 1.000000
0.880045 0.268918 0.100000 128 128 255 0.000000 0.000000 1.000000
0.995064 0.306828 0.100000 128 128 255 0.000000 0.000000 1.000000
1.101318 0.341849 0.100000 128 128 255 0.000000 0.000000 1.000000
1.199771 0.374299 0.100000 128 128 255 0.000000 0.000000 -1.000000
-0.026202 0.112344 0.100000 128 128 255 0.000000 0.000000 1.000000
-0.144910 0.077647 0.100000 128 128 255 0.000000 0.000000 1.000000
-0.271254 0.040718 0.100000 128 128 255 0.000000 0.000000 1.000000
-0.405996 0.001334 0.100000 128 128 255 0.000000 0.000000 1.000000
-0.550000 -0.040757 0.100000 128 128 255 0.000000 0.000000 1.000000
-0.704257 -0.085845 0.100000 128 128 255 0.000000 0.000000 1.000000
-0.869902 -0.134261 0.100000 128 128 255 0.000000 0.000000 1.000000
-1.048243 -0.186389 0.100000 128 128 255 0.177191 -0.449850 -0.875350
1.144063 0.100000 0.355938 128 128 255 0.164385 -0.888975 -0.427436
1.137969 0.100000 0.362031 128 128 255 0.577350 0.577350 0.577350
0.975469 0.262500 0.362031 128 128 255 0.577350 0.577350 0.577350
0.812969 0.425000 0.362031 128 128 255 0.577350 0.577350 0.577350
0.650469 0.587500 0.362031 128 128 255 0.577350 0.577350 0.577350
0.487969 0.750000 0.362031 128 128 255 0.577350 0.577350 0.577351
0.325469 0.912500 0.362031 128 128 255 0.577350 0.577350 0.577351
0.162969 1.075000 0.362031 128 128 255 0.577350 0.577350 0.577351
0.000469 1.237500 0.362031 128 128 255 -0.301510 0.904534 -0.301513
-0.937969 0.100000 -0.162031 128 128 255 0.650946 -0.390567 0.650943
-0.775469 -0.062500 -0.162031 128 128 255 0.577351 0.577351 0.577349
-0.612969 -0.225000 -0.162031 128 128 255 0.577351 0.577351 0.577349
-0.450469 -0.387500 -0.162031 128 128 255 0.577351 0.577351 0.577349
-0.287969 -0.550000 -0.162031 128 128 255 0.577351 0.577351 0.577349
-0.125469 -0.712500 -0.162031 128 128 255 0.577350 0.577350 0.577350
0.037031 -0.875000 -0.162031 128 128 255 0.577350 0.577350 0.577350
0.199531 -1.037500 -0.162031 128 128 255 -0.701122 0.129837 -0.701121
0.100000 1.400000 0.100000 128 128 255 -0.706322 0.047088 -0.706323
0.100000 1.196478 0.303522 128 128 255 1.000000 0.000000 0.000000
0.100000 0.992955 0.507045 128 128 255 -1.000000 0.000000 0.000000
0.100000 0.789432 0.710568 128 128 255 0.000000 0.000000 0.000000
0.100000 0.585910 0.914090 128 128 255 -1.000000 0.000000 0.000000
0.100000 0.382387 1.117612 128 128 255 -1.000000 0.000000 0.000000
0.100000 0.178865 1.321135 128 128 255 -1.000000 0.000000 0.000000
0.100000 -0.024658 1.524657 128 128 255 -1.000000 0.000000 0.000000
0.100000 -0.763849 0.100000 128 128 255 1.000000 0.000000 0.000000
0.100000 -0.628609 -0.035241 128 128 255 1.000000 0.000000 0.000000
0.100000 -0.493368 -0.170481 128 128 255 1.000000 0.000000 0.000000
0.100000 -0.358127 -0.305722 128 128 255 1.000000 0.000000 0.000000
0.100000 -0.222887 -0.440962 128 128 255 1.000000 0.000000 0.000000
0.100000 -0.087646 -0.576203 128 128 255 1.000000 0.000000 0.000000
0.100000 0.047594 -0.711443 128 128 255 1.000000 0.000000 0.000000
0.100000 0.182835 -0.846684 128 128 255 -0.990862 -0.130618 -0.033644
0.060695 0.031922 1.216578 128 128 255 -0.545368 -0.835231 -0.070452
