ply
format ascii 1.0
element vertex 698
property float x
property float y
property float z
property uchar red
property uchar green
property uchar blue
property float nx
property float ny
property float nz
end_header
0.732548 -2.749007 -0.396968 128 128 255 0.953125 0.302578 0.000000
-0.782719 2.024111 6.103360 128 128 255 -0.953125 -0.302578 0.000000
0.732548 -2.749007 1.111946 128 128 255 0.953125 0.302578 0.000000
0.732548 -2.749007 0.888612 128 128 255 -0.953125 -0.302578 0.000000
-0.782719 2.024111 5.761697 128 128 255 0.953125 0.302578 0.000000
0.732548 -2.749007 -0.437107 128 128 255 -0.953125 -0.302578 0.000000
-0.782719 2.024111 5.847562 128 128 255 -0.953125 -0.302578 0.000000
0.732548 -2.749007 -0.643546 128 128 255 0.953125 0.302578 0.000000
-0.782719 2.024111 6.995619 128 128 255 -0.953125 -0.302578 0.000000
0.732548 -2.749007 0.122055 128 128 255 0.953125 0.302578 0.000000
-0.782719 2.024111 7.313402 128 128 255 0.953125 0.302578 0.000000
0.732548 -2.749007 -1.273675 128 128 255 -0.953125 -0.302578 0.000000
-0.782719 2.024111 6.779255 128 128 255 -0.953125 -0.302578 0.000000
0.732548 -2.749007 -1.654423 128 128 255 0.953125 0.302578 0.000000
-0.782719 2.024111 7.243807 128 128 255 -0.953125 -0.302578 0.000000
0.732548 -2.749007 -0.832932 128 128 255 0.953125 0.302578 0.000000
-0.782719 2.024111 8.083176 128 128 255 0.953125 0.302577 0.000000
0.732548 -2.749007 -1.044799 128 128 255 -0.953125 -0.302578 0.000000
-0.782719 2.024111 6.892044 128 128 255 0.953125 0.302578 0.000000
0.732548 -2.749007 -1.478556 128 128 255 0.953125 0.302578 0.000000
-0.782719 2.024111 6.568996 128 128 255 -0.953125 -0.302578 0.000000
0.732548 -2.749007 -0.680334 128 128 255 0.953125 0.302578 0.000000
-0.782719 2.024111 7.190060 128 128 255 -0.953125 -0.302578 0.000000
0.732548 -2.749007 0.280339 128 128 255 -0.953125 -0.302578 0.000000
-0.782719 2.024111 6.197391 128 128 255 0.953125 0.302578 0.000000
0.732548 -2.749007 -0.245283 128 128 255 -0.953125 -0.302578 0.000000
-0.782719 2.024111 5.241915 128 128 255 -0.953125 -0.302578 0.000000
-0.782719 2.024111 5.333847 128 128 255 0.953125 0.302578 0.000000
0.732548 -2.749007 0.364170 128 128 255 0.953125 0.302578 0.000000
-0.782719 2.024111 6.847543 128 128 255 -0.953125 -0.302578 0.000000
0.732548 -2.749007 0.208222 128 128 255 -0.953125 -0.302578 0.000000
-0.782719 2.024111 6.414945 128 128 255 0.953125 0.302578 0.000000
0.732548 -2.749007 -1.052036 128 128 255 -0.953125 -0.302578 0.000000
-0.782719 2.024111 6.413651 128 128 255 -0.953125 -0.302578 0.000000
0.732548 -2.749007 -1.151108 128 128 255 0.953125 0.302578 0.000000
-0.782719 2.024111 7.435970 128 128 255 -0.953125 -0.302578 0.000000
0.732548 -2.749007 -0.243549 128 128 255 0.953125 0.302577 0.000000
-0.782719 2.024111 7.598006 128 128 255 0.953125 0.302578 0.000000
0.732548 -2.749007 -1.472408 128 128 255 -0.953125 -0.302578 0.000000
-0.782719 2.024111 6.888716 128 128 255 -0.953125 -0.302577 0.000000
0.732548 -2.749007 -1.672739 128 128 255 0.953125 0.302578 0.000000
-0.782719 2.024111 7.170666 128 128 255 -0.953125 -0.302578 0.000000
0.732548 -2.749007 -0.669585 128 128 255 0.953125 0.302578 0.000000
-0.782719 2.024111 7.832417 128 128 255 0.953125 0.302578 0.000000
0.732548 -2.749007 -0.710919 128 128 255 -0.953125 -0.302578 0.000000
-0.782719 2.024111 6.480757 128 128 255 0.953125 0.302578 0.000000
0.732548 -2.749007 -0.996898 128 128 255 0.953125 0.302577 0.000000
-0.782719 2.024111 6.025209 128 128 255 -0.953125 -0.302578 0.000000
0.732548 -2.749007 -0.083721 128 128 255 0.953125 0.302578 0.000000
-0.782719 2.024111 6.550830 128 128 255 -0.953125 -0.302578 0.000000
0.732548 -2.749007 0.951248 128 128 255 0.953125 0.302578 0.000000
0.732548 -2.749007 0.466576 128 128 255 0.000000 0.000000 0.000000
0.732548 -2.749007 1.158401 128 128 255 -0.953125 -0.302578 0.000000
-0.782719 2.024111 5.930934 128 128 255 0.953125 0.302578 0.000000
0.732548 -2.749007 -1.179696 128 128 255 -0.953125 -0.302578 0.000000
-0.782719 2.024111 5.096166 128 128 255 -0.953125 -0.302578 0.000000
0.732548 -2.749007 -1.945971 128 128 255 0.953125 0.302578 0.000000
-0.782719 2.024111 6.066318 128 128 255 -0.953125 -0.302578 0.000000
0.732548 -2.749007 -0.817449 128 128 255 0.953125 0.302578 0.000000
-0.782719 2.024111 7.781227 128 128 255 -0.953125 -0.302578 0.000000
0.732548 -2.749007 -1.529526 128 128 255 -0.953125 -0.302578 0.000000
-0.782719 2.024111 6.182700 128 128 255 -0.953125 -0.302578 0.000000
0.732548 -2.749007 -2.695861 128 128 255 0.953125 0.302578 0.000000
-0.782719 2.024111 6.108712 128 128 255 -0.953125 -0.302578 0.000000
0.732548 -2.749007 -1.846257 128 128 255 0.953125 0.302578 0.000000
-0.782719 2.024111 7.654965 128 128 255 -0.953125 -0.302578 0.000000
0.732548 -2.749007 -0.742515 128 128 255 -0.953125 -0.302578 0.000000
-0.782719 2.024111 6.493772 128 128 255 0.953125 0.302578 0.000000
0.732548 -2.749007 -2.117394 128 128 255 0.953126 0.302573 0.000000
-0.782719 2.024111 5.361804 128 128 255 -0.953125 -0.302578 0.000000
0.732548 -2.749007 -1.654884 128 128 255 0.953125 0.302578 0.000000
-0.782719 2.024111 6.040105 128 128 255 -0.953125 -0.302578 0.000000
0.732548 -2.749007 0.522836 128 128 255 0.953125 0.302578 0.000000
-0.782719 2.024111 6.091739 128 128 255 0.953125 0.302578 0.000000
0.732548 -2.749007 -0.461680 128 128 255 -0.953125 -0.302578 0.000000
-0.782719 2.024111 4.175372 128 128 255 -0.953125 -0.302578 0.000000
-0.782719 2.024111 4.439691 128 128 255 0.953125 0.302578 0.000000
0.732548 -2.749007 -0.959616 128 128 255 0.953125 0.302578 0.000000
-0.782719 2.024111 6.151014 128 128 255 -0.953125 -0.302578 0.000000
0.732548 -2.749007 0.501926 128 128 255 0.953125 0.302578 0.000000
-0.782719 2.024111 6.550181 128 128 255 0.953125 0.302578 0.000000
0.732548 -2.749007 -1.751120 128 128 255 -0.953125 -0.302578 0.000000
-0.782719 2.024111 5.609989 128 128 255 -0.953125 -0.302578 0.000000
0.732548 -2.749007 -2.393402 128 128 255 0.953125 0.302578 0.000000
-0.782719 2.024111 6.439701 128 128 255 -0.953125 -0.302578 0.000000
0.732548 -2.749007 -1.110395 128 128 255 0.953125 0.302578 0.000000
-0.782719 2.024111 7.988724 128 128 255 -0.953125 -0.302578 0.000000
0.732548 -2.749007 -1.648024 128 128 255 -0.953125 -0.302578 0.000000
-0.782719 2.024111 6.210171 128 128 255 -0.953125 -0.302578 0.000000
0.732548 -2.749007 -2.631835 128 128 255 0.953125 0.302578 0.000000
-0.782719 2.024111 5.954285 128 128 255 -0.953125 -0.302578 0.000000
0.732548 -2.749007 -1.604070 128 128 255 0.953125 0.302578 0.000000
-0.782719 2.024111 7.329164 128 128 255 -0.953125 -0.302578 0.000000
0.732548 -2.749007 -0.338673 128 128 255 -0.953125 -0.302578 0.000000
-0.782719 2.024111 6.018798 128 128 255 0.953125 0.302578 0.000000
0.732548 -2.749007 -1.579417 128 128 255 0.953125 0.302578 0.000000
-0.782719 2.024111 4.770028 128 128 255 -0.953125 -0.302578 0.000000
0.732548 -2.749007 -1.019434 128 128 255 0.953125 0.302578 0.000000
-0.782719 2.024111 5.371855 128 128 255 -0.953125 -0.302578 0.000000
0.732548 -2.749007 1.212453 128 128 255 0.953125 0.302578 0.000000
0.732548 -2.749007 0.352849 128 128 255 -0.953125 -0.302578 0.000000
-0.782719 2.024111 5.274814 128 128 255 0.953125 0.302578 0.000000
0.732548 -2.749007 -1.546804 128 128 255 0.953125 0.302578 0.000000
-0.782719 2.024111 5.096166 128 128 255 -0.953125 -0.302578 0.000000
0.732548 -2.749007 -1.578863 128 128 255 0.953125 0.302578 0.000000
-0.782719 2.024111 6.722438 128 128 255 -0.953125 -0.302578 0.000000
0.732548 -2.749007 -0.011897 128 128 255 0.953125 0.302578 0.000000
-0.782719 2.024111 6.997612 128 128 255 0.953125 0.302578 0.000000
0.732548 -2.749007 -2.124502 128 128 255 -0.953125 -0.302578 0.000000
-0.782719 2.024111 5.902935 128 128 255 -0.953125 -0.302578 0.000000
0.732548 -2.749007 -2.600899 128 128 255 0.953125 0.302578 0.000000
-0.782719 2.024111 6.558199 128 128 255 -0.953125 -0.302578 0.000000
0.732548 -2.749007 -1.137866 128 128 255 0.953125 0.302578 0.000000
-0.782719 2.024111 7.924698 128 128 255 -0.953125 -0.302578 0.000000
0.732548 -2.749007 -1.493597 128 128 255 -0.953125 -0.302578 0.000000
-0.782719 2.024111 5.967985 128 128 255 -0.953125 -0.302578 0.000000
0.732548 -2.749007 -2.306033 128 128 255 0.953125 0.302578 0.000000
-0.782719 2.024111 5.550442 128 128 255 -0.953125 -0.302578 0.000000
0.732548 -2.749007 -1.129097 128 128 255 0.953125 0.302578 0.000000
-0.782719 2.024111 6.791187 128 128 255 -0.953125 -0.302578 0.000000
0.732548 -2.749007 0.253103 128 128 255 -0.953125 -0.302578 0.000000
-0.782719 2.024111 5.383349 128 128 255 0.953125 0.302578 0.000000
0.732548 -2.749007 -0.911167 128 128 255 0.953125 0.302577 0.000000
-0.782719 2.024111 4.080410 128 128 255 -0.953125 -0.302578 0.000000
-0.782719 2.024111 4.719456 128 128 255 0.953125 0.302578 0.000000
0.732548 -2.749007 -0.364639 128 128 255 0.953125 0.302578 0.000000
-0.782719 2.024111 6.934629 128 128 255 -0.953125 -0.302578 0.000000
0.732548 -2.749007 -0.303626 128 128 255 -0.953125 -0.302578 0.000000
-0.782719 2.024111 5.894061 128 128 255 0.953125 0.302578 0.000000
0.732548 -2.749007 -2.118228 128 128 255 0.953125 0.302577 0.000000
-0.782719 2.024111 5.609989 128 128 255 -0.953125 -0.302578 0.000000
0.732548 -2.749007 -2.026294 128 128 255 0.953125 0.302578 0.000000
-0.782719 2.024111 7.095821 128 128 255 -0.953125 -0.302578 0.000000
0.732548 -2.749007 -0.304843 128 128 255 0.953125 0.302578 0.000000
-0.782719 2.024111 7.205109 128 128 255 0.953125 0.302578 0.000000
0.732548 -2.749007 -2.243000 128 128 255 -0.953125 -0.302578 0.000000
-0.782719 2.024111 5.930406 128 128 255 -0.953125 -0.302578 0.000000
0.732548 -2.749007 -2.536873 128 128 255 0.953125 0.302578 0.000000
-0.782719 2.024111 6.403771 128 128 255 -0.953125 -0.302578 0.000000
0.732548 -2.749007 -0.895680 128 128 255 0.953125 0.302578 0.000000
-0.782719 2.024111 7.598897 128 128 255 -0.953125 -0.302578 0.000000
0.732548 -2.749007 -1.089754 128 128 255 -0.953125 -0.302578 0.000000
-0.782719 2.024111 5.493011 128 128 255 -0.953124 -0.302579 0.000000
0.732548 -2.749007 -1.768056 128 128 255 0.953125 0.302578 0.000000
-0.782719 2.024111 4.958666 128 128 255 -0.953125 -0.302578 0.000000
0.732548 -2.749007 -0.493648 128 128 255 0.953125 0.302578 0.000000
-0.782719 2.024111 6.122936 128 128 255 -0.953125 -0.302578 0.000000
0.732548 -2.749007 0.942720 128 128 255 0.953125 0.302578 0.000000
0.732548 -2.749007 -0.355541 128 128 255 0.000000 0.000000 0.000000
0.732548 -2.749007 0.952157 128 128 255 -0.953125 -0.302578 0.000000
-0.782719 2.024111 5.884988 128 128 255 0.953125 0.302577 0.000000
0.732548 -2.749007 -1.804221 128 128 255 0.953125 0.302578 0.000000
-0.782719 2.024111 4.732841 128 128 255 -0.953125 -0.302578 0.000000
0.732548 -2.749007 -2.623899 128 128 255 0.953125 0.302578 0.000000
-0.782719 2.024111 5.806100 128 128 255 -0.953125 -0.302578 0.000000
0.732548 -2.749007 -1.117630 128 128 255 0.953125 0.302578 0.000000
-0.782719 2.024111 7.807630 128 128 255 -0.953125 -0.302578 0.000000
0.732548 -2.749007 -1.892848 128 128 255 -0.953125 -0.302578 0.000000
-0.782719 2.024111 5.747983 128 128 255 -0.953125 -0.302578 0.000000
0.732548 -2.749007 -3.249439 128 128 255 0.953125 0.302578 0.000000
-0.782719 2.024111 5.590497 128 128 255 -0.953125 -0.302578 0.000000
0.732548 -2.749007 -2.151215 128 128 255 0.953125 0.302578 0.000000
-0.782719 2.024111 7.457534 128 128 255 -0.953125 -0.302578 0.000000
0.732548 -2.749007 -0.771072 128 128 255 0.953125 0.302578 0.000000
-0.782719 2.024111 6.022829 128 128 255 -0.953125 -0.302578 0.000000
0.732548 -2.749007 -2.475355 128 128 255 0.953125 0.302578 0.000000
-0.782719 2.024111 4.656442 128 128 255 -0.953125 -0.302578 0.000000
0.732548 -2.749007 -1.948886 128 128 255 0.953125 0.302578 0.000000
-0.782719 2.024111 5.549545 128 128 255 -0.953125 -0.302578 0.000000
0.732548 -2.749007 0.660824 128 128 255 0.953125 0.302578 0.000000
-0.782719 2.024111 5.697535 128 128 255 -0.953125 -0.302578 0.000000
0.732548 -2.749007 -0.647046 128 128 255 0.953125 0.302578 0.000000
-0.782719 2.024111 3.443045 128 128 255 -0.953125 -0.302578 0.000000
-0.782719 2.024111 4.109382 128 128 255 0.953125 0.302578 0.000000
0.732548 -2.749007 -1.595209 128 128 255 0.953125 0.302578 0.000000
-0.782719 2.024111 6.094000 128 128 255 -0.953125 -0.302578 0.000000
0.732548 -2.749007 0.328699 128 128 255 0.953125 0.302578 0.000000
-0.782719 2.024111 6.461649 128 128 255 -0.953125 -0.302578 0.000000
0.732548 -2.749007 -2.324217 128 128 255 0.953125 0.302578 0.000000
-0.782719 2.024111 5.187275 128 128 255 -0.953125 -0.302578 0.000000
0.732548 -2.749007 -3.004996 128 128 255 0.953125 0.302578 0.000000
-0.782719 2.024111 6.107339 128 128 255 -0.953125 -0.302578 0.000000
0.732548 -2.749007 -1.333857 128 128 255 0.953125 0.302578 0.000000
-0.782719 2.024111 7.935144 128 128 255 -0.953125 -0.302578 0.000000
0.732548 -2.749007 -1.929469 128 128 255 -0.953125 -0.302578 0.000000
-0.782719 2.024111 5.693084 128 128 255 -0.953125 -0.302578 0.000000
0.732548 -2.749007 -3.103958 128 128 255 0.953125 0.302578 0.000000
-0.782719 2.024111 5.356924 128 128 255 -0.953125 -0.302578 0.000000
0.732548 -2.749007 -1.833547 128 128 255 0.953125 0.302578 0.000000
-0.782719 2.024111 7.061206 128 128 255 -0.953125 -0.302578 0.000000
0.732548 -2.749007 -0.302866 128 128 255 0.953125 0.302578 0.000000
-0.782719 2.024111 5.490755 128 128 255 -0.953125 -0.302578 0.000000
0.732548 -2.749007 -1.888517 128 128 255 0.953125 0.302578 0.000000
-0.782719 2.024111 4.024881 128 128 255 -0.953125 -0.302578 0.000000
0.732548 -2.749007 -1.283409 128 128 255 0.953125 0.302578 0.000000
-0.782719 2.024111 4.861538 128 128 255 -0.953125 -0.302578 0.000000
0.732548 -2.749007 1.359589 128 128 255 0.953125 0.302578 0.000000
0.732548 -2.749007 -0.039738 128 128 255 -0.953125 -0.302578 0.000000
-0.782719 2.024111 5.077093 128 128 255 -0.953125 -0.302578 0.000000
0.732548 -2.749007 -2.256250 128 128 255 0.953125 0.302578 0.000000
-0.782719 2.024111 4.732841 128 128 255 -0.953125 -0.302578 0.000000
0.732548 -2.749007 -2.171870 128 128 255 0.953125 0.302578 0.000000
-0.782719 2.024111 6.613996 128 128 255 -0.953125 -0.302578 0.000000
0.732548 -2.749007 -0.125736 128 128 255 0.953125 0.302578 0.000000
-0.782719 2.024111 6.842746 128 128 255 -0.953125 -0.302578 0.000000
0.732548 -2.749007 -2.625456 128 128 255 0.953125 0.302578 0.000000
-0.782719 2.024111 5.403502 128 128 255 -0.953125 -0.302578 0.000000
0.732548 -2.749007 -3.132510 128 128 255 0.953125 0.302578 0.000000
-0.782719 2.024111 6.143960 128 128 255 -0.953125 -0.302578 0.000000
0.732548 -2.749007 -1.278957 128 128 255 0.953125 0.302578 0.000000
-0.782719 2.024111 7.789663 128 128 255 -0.953125 -0.302578 0.000000
0.732548 -2.749007 -1.695896 128 128 255 -0.953125 -0.302578 0.000000
-0.782719 2.024111 5.375415 128 128 255 -0.953125 -0.302578 0.000000
0.732548 -2.749007 -2.707630 128 128 255 0.953125 0.302578 0.000000
-0.782719 2.024111 4.888717 128 128 255 -0.953125 -0.302578 0.000000
0.732548 -2.749007 -1.301473 128 128 255 0.953125 0.302578 0.000000
-0.782719 2.024111 6.474369 128 128 255 -0.953125 -0.302578 0.000000
0.732548 -2.749007 0.328695 128 128 255 0.953125 0.302578 0.000000
-0.782719 2.024111 4.825277 128 128 255 -0.953125 -0.302578 0.000000
0.732548 -2.749007 -1.200510 128 128 255 0.953125 0.302578 0.000000
-0.782719 2.024111 3.326116 128 128 255 -0.953125 -0.302578 0.000000
-0.782719 2.024111 4.453864 128 128 255 0.953125 0.302578 0.000000
0.732548 -2.749007 -0.862601 128 128 255 0.953125 0.302578 0.000000
-0.782719 2.024111 7.058883 128 128 255 -0.953125 -0.302578 0.000000
0.732548 -2.749007 -0.663196 128 128 255 -0.953125 -0.302578 0.000000
-0.782719 2.024111 5.653753 128 128 255 -0.953125 -0.302578 0.000000
0.732548 -2.749007 -2.776246 128 128 255 0.953125 0.302578 0.000000
-0.782719 2.024111 5.187275 128 128 255 -0.953125 -0.302578 0.000000
0.732548 -2.749007 -2.552967 128 128 255 0.953125 0.302578 0.000000
-0.782719 2.024111 6.915235 128 128 255 -0.953125 -0.302578 0.000000
0.732548 -2.749007 -0.341962 128 128 255 0.953125 0.302578 0.000000
-0.782719 2.024111 6.970261 128 128 255 -0.953125 -0.302578 0.000000
0.732548 -2.749007 -2.662077 128 128 255 0.953125 0.302578 0.000000
-0.782719 2.024111 5.348602 128 128 255 -0.953125 -0.302578 0.000000
0.732548 -2.749007 -2.987030 128 128 255 0.953125 0.302578 0.000000
-0.782719 2.024111 5.910388 128 128 255 -0.953125 -0.302578 0.000000
0.732548 -2.749007 -0.961289 128 128 255 0.953125 0.302578 0.000000
-0.782719 2.024111 7.393335 128 128 255 -0.953125 -0.302578 0.000000
0.732548 -2.749007 -1.227689 128 128 255 -0.953125 -0.302578 0.000000
-0.782719 2.024111 4.843341 128 128 255 -0.953125 -0.302578 0.000000
0.732548 -2.749007 -2.120792 128 128 255 0.953125 0.302578 0.000000
-0.782719 2.024111 4.257157 128 128 255 -0.953125 -0.302578 0.000000
0.732548 -2.749007 -0.635996 128 128 255 0.953125 0.302578 0.000000
-0.782719 2.024111 5.786362 128 128 255 -0.953125 -0.302578 0.000000
0.732548 -2.749007 1.027460 128 128 255 0.953125 0.302578 0.000000
0.732548 -2.749007 -0.911995 128 128 255 0.000000 0.000000 0.000000
0.732548 -2.749007 0.752661 128 128 255 -0.953125 -0.302578 0.000000
-0.782719 2.024111 6.054281 128 128 255 -0.953125 -0.302578 0.000000
0.732548 -2.749007 -2.013806 128 128 255 0.953125 0.302578 0.000000
-0.782719 2.024111 4.847961 128 128 255 -0.953125 -0.302578 0.000000
0.732548 -2.749007 -2.803630 128 128 255 0.953125 0.302578 0.000000
-0.782719 2.024111 5.890708 128 128 255 -0.953125 -0.302578 0.000000
0.732548 -2.749007 -1.224613 128 128 255 0.953125 0.302578 0.000000
-0.782719 2.024111 7.869156 128 128 255 -0.953125 -0.302578 0.000000
0.732548 -2.749007 -1.956520 128 128 255 0.953125 0.302578 0.000000
-0.782719 2.024111 5.722850 128 128 255 -0.953125 -0.302578 0.000000
0.732548 -2.749007 -3.277552 128 128 255 0.953125 0.302578 0.000000
-0.782719 2.024111 5.508121 128 128 255 -0.953125 -0.302578 0.000000
0.732548 -2.749007 -2.109917 128 128 255 0.953125 0.302578 0.000000
-0.782719 2.024111 7.352905 128 128 255 -0.953125 -0.302578 0.000000
0.732548 -2.749007 -0.662620 128 128 255 0.953125 0.302578 0.000000
-0.782719 2.024111 5.854691 128 128 255 -0.953125 -0.302578 0.000000
0.732548 -2.749007 -2.355523 128 128 255 0.953125 0.302578 0.000000
-0.782719 2.024111 4.436812 128 128 255 -0.953125 -0.302578 0.000000
0.732548 -2.749007 -1.796468 128 128 255 0.953125 0.302578 0.000000
-0.782719 2.024111 5.325325 128 128 255 -0.953125 -0.302578 0.000000
0.732548 -2.749007 0.863146 128 128 255 0.953125 0.302578 0.000000
-0.782719 2.024111 5.471916 128 128 255 -0.953125 -0.302578 0.000000
0.732548 -2.749007 -0.467993 128 128 255 0.953125 0.302578 0.000000
-0.782719 2.024111 3.194673 128 128 255 0.953125 0.302578 0.000000
-0.782719 2.024111 4.266162 128 128 255 -0.953125 -0.302578 0.000000
0.732548 -2.749007 -1.818761 128 128 255 0.953125 0.302578 0.000000
-0.782719 2.024111 6.249326 128 128 255 -0.953125 -0.302578 0.000000
0.732548 -2.749007 0.170862 128 128 255 0.953125 0.302578 0.000000
-0.782719 2.024111 6.580361 128 128 255 -0.953125 -0.302578 0.000000
0.732548 -2.749007 -2.475166 128 128 255 0.953125 0.302578 0.000000
-0.782719 2.024111 5.236707 128 128 255 -0.953125 -0.302578 0.000000
0.732548 -2.749007 -3.113111 128 128 255 0.953125 0.302578 0.000000
-0.782719 2.024111 6.115627 128 128 255 -0.953125 -0.302578 0.000000
0.732548 -2.749007 -1.361123 128 128 255 0.953125 0.302577 0.000000
-0.782719 2.024111 7.914920 128 128 255 -0.953125 -0.302578 0.000000
0.732548 -2.749007 -1.910756 128 128 255 0.953125 0.302578 0.000000
-0.782719 2.024111 5.586341 128 128 255 -0.953125 -0.302578 0.000000
0.732548 -2.749007 -3.052633 128 128 255 0.953125 0.302578 0.000000
-0.782719 2.024111 5.198641 128 128 255 -0.953125 -0.302578 0.000000
0.732548 -2.749007 -1.721171 128 128 255 0.953125 0.302578 0.000000
-0.782719 2.024111 6.891545 128 128 255 -0.953125 -0.302578 0.000000
0.732548 -2.749007 -0.136540 128 128 255 0.953125 0.302578 0.000000
-0.782719 2.024111 5.272892 128 128 255 -0.953125 -0.302578 0.000000
0.732548 -2.749007 -1.727960 128 128 255 0.953125 0.302578 0.000000
-0.782719 2.024111 3.774222 128 128 255 -0.953125 -0.302578 0.000000
0.732548 -2.749007 -1.110189 128 128 255 0.953125 0.302578 0.000000
-0.782719 2.024111 4.627100 128 128 255 -0.953125 -0.302578 0.000000
0.732548 -2.749007 1.561372 128 128 255 -0.953125 -0.302578 0.000000
0.732548 -2.749007 -0.254068 128 128 255 0.953125 0.302578 0.000000
-0.782719 2.024111 5.234302 128 128 255 -0.953125 -0.302578 0.000000
0.732548 -2.749007 -2.472596 128 128 255 0.953125 0.302578 0.000000
-0.782719 2.024111 4.847961 128 128 255 -0.953125 -0.302578 0.000000
0.732548 -2.749007 -2.344841 128 128 255 0.953125 0.302578 0.000000
-0.782719 2.024111 6.710687 128 128 255 -0.953125 -0.302578 0.000000
0.732548 -2.749007 -0.217884 128 128 255 0.953125 0.302578 0.000000
-0.782719 2.024111 6.889841 128 128 255 -0.953125 -0.302578 0.000000
0.732548 -2.749007 -2.700085 128 128 255 0.953125 0.302578 0.000000
-0.782719 2.024111 5.373217 128 128 255 -0.953125 -0.302578 0.000000
0.732548 -2.749007 -3.158875 128 128 255 0.953125 0.302578 0.000000
-0.782719 2.024111 6.069862 128 128 255 -0.953125 -0.302578 0.000000
0.732548 -2.749007 -1.224613 128 128 255 0.953125 0.302578 0.000000
-0.782719 2.024111 7.690001 128 128 255 -0.953125 -0.302578 0.000000
0.732548 -2.749007 -1.601276 128 128 255 0.953125 0.302578 0.000000
-0.782719 2.024111 5.197595 128 128 255 -0.953125 -0.302578 0.000000
0.732548 -2.749007 -2.591273 128 128 255 0.953125 0.302578 0.000000
-0.782719 2.024111 4.672561 128 128 255 -0.953125 -0.302578 0.000000
0.732548 -2.749007 -1.139372 128 128 255 0.953125 0.302578 0.000000
-0.782719 2.024111 6.263981 128 128 255 -0.953125 -0.302578 0.000000
0.732548 -2.749007 0.526050 128 128 255 0.953125 0.302578 0.000000
-0.782719 2.024111 4.586613 128 128 255 -0.953125 -0.302578 0.000000
0.732548 -2.749007 -1.029734 128 128 255 0.953125 0.302578 0.000000
-0.782719 2.024111 3.075996 128 128 255 0.953125 0.302578 0.000000
-0.782719 2.024111 4.615796 128 128 255 -0.953125 -0.302578 0.000000
0.732548 -2.749007 -1.075195 128 128 255 0.953125 0.302578 0.000000
-0.782719 2.024111 7.228641 128 128 255 -0.953125 -0.302578 0.000000
0.732548 -2.749007 -0.835868 128 128 255 0.953125 0.302578 0.000000
-0.782719 2.024111 5.760383 128 128 255 -0.953125 -0.302578 0.000000
0.732548 -2.749007 -2.933956 128 128 255 0.953125 0.302578 0.000000
-0.782719 2.024111 5.236707 128 128 255 -0.953125 -0.302578 0.000000
0.732548 -2.749007 -2.654321 128 128 255 0.953125 0.302578 0.000000
-0.782719 2.024111 6.935606 128 128 255 -0.953125 -0.302578 0.000000
0.732548 -2.749007 -0.354393 128 128 255 0.953125 0.302578 0.000000
-0.782719 2.024111 6.935606 128 128 255 -0.953125 -0.302578 0.000000
0.732548 -2.749007 -2.654321 128 128 255 0.953125 0.302578 0.000000
-0.782719 2.024111 5.236707 128 128 255 -0.953125 -0.302578 0.000000
0.732548 -2.749007 -2.933956 128 128 255 0.953125 0.302578 0.000000
-0.782719 2.024111 5.760383 128 128 255 -0.953125 -0.302578 0.000000
0.732548 -2.749007 -0.835868 128 128 255 0.953125 0.302577 0.000000
-0.782719 2.024111 7.228641 128 128 255 -0.953125 -0.302578 0.000000
0.732548 -2.749007 -1.075195 128 128 255 0.953125 0.302578 0.000000
-0.782719 2.024111 4.615796 128 128 255 -0.953125 -0.302578 0.000000
0.732548 -2.749007 -1.963709 128 128 255 0.953125 0.302578 0.000000
-0.782719 2.024111 4.009972 128 128 255 -0.953125 -0.302578 0.000000
0.732548 -2.749007 -0.453093 128 128 255 0.953125 0.302578 0.000000
-0.782719 2.024111 5.565756 128 128 255 -0.953125 -0.302578 0.000000
0.732548 -2.749007 1.224276 128 128 255 -0.953125 -0.302578 0.000000
0.732548 -2.749007 -1.139372 128 128 255 0.000000 0.000000 0.000000
0.732548 -2.749007 0.562680 128 128 255 0.953125 0.302578 0.000000
-0.782719 2.024111 6.439561 128 128 255 -0.953125 -0.302578 0.000000
0.732548 -2.749007 -1.800012 128 128 255 0.953125 0.302578 0.000000
-0.782719 2.024111 5.446725 128 128 255 -0.953125 -0.302578 0.000000
0.732548 -2.749007 -2.476065 128 128 255 0.953125 0.302577 0.000000
-0.782719 2.024111 6.323985 128 128 255 0.953125 0.302577 0.000000
0.732548 -2.749007 -1.134555 128 128 255 -0.953125 -0.302578 0.000000
-0.782719 2.024111 7.965754 128 128 255 -0.953125 -0.302578 0.000000
0.732548 -2.749007 -1.715868 128 128 255 0.953125 0.302578 0.000000
-0.782719 2.024111 6.113624 128 128 255 -0.953125 -0.302578 0.000000
0.732548 -2.749007 -2.772923 128 128 255 0.953125 0.302578 0.000000
-0.782719 2.024111 5.869062 128 128 255 -0.953125 -0.302578 0.000000
0.732548 -2.749007 -1.718500 128 128 255 -0.953125 -0.302578 0.000000
-0.782719 2.024111 7.344118 128 128 255 0.953125 0.302578 0.000000
0.732548 -2.749007 -0.417071 128 128 255 0.953125 0.302578 0.000000
-0.782719 2.024111 5.996124 128 128 255 -0.953125 -0.302578 0.000000
0.732548 -2.749007 -1.753227 128 128 255 0.953125 0.302578 0.000000
-0.782719 2.024111 4.712844 128 128 255 -0.953125 -0.302578 0.000000
0.732548 -2.749007 -1.193768 128 128 255 0.953123 0.302583 0.000000
-0.782719 2.024111 5.374347 128 128 255 0.953125 0.302578 0.000000
0.732548 -2.749007 1.127800 128 128 255 0.953125 0.302577 0.000000
-0.782719 2.024111 5.420370 128 128 255 -0.953125 -0.302578 0.000000
0.732548 -2.749007 0.078015 128 128 255 0.953125 0.302578 0.000000
-0.782719 2.024111 3.440310 128 128 255 0.953125 0.302578 0.000000
-0.782719 2.024111 4.914650 128 128 255 -0.953125 -0.302578 0.000000
0.732548 -2.749007 -1.621637 128 128 255 -0.953125 -0.302578 0.000000
-0.782719 2.024111 6.617937 128 128 255 0.953125 0.302578 0.000000
0.732548 -2.749007 0.030605 128 128 255 0.953125 0.302578 0.000000
-0.782719 2.024111 6.907768 128 128 255 -0.953125 -0.302578 0.000000
0.732548 -2.749007 -2.196341 128 128 255 0.953125 0.302578 0.000000
-0.782719 2.024111 5.764393 128 128 255 -0.953125 -0.302578 0.000000
0.732548 -2.749007 -2.709638 128 128 255 0.953125 0.302578 0.000000
-0.782719 2.024111 6.469466 128 128 255 0.953125 0.302578 0.000000
0.732548 -2.749007 -1.189454 128 128 255 -0.953125 -0.302578 0.000000
-0.782719 2.024111 7.929133 128 128 255 -0.953125 -0.302578 0.000000
0.732548 -2.749007 -1.588354 128 128 255 0.953125 0.302578 0.000000
-0.782719 2.024111 5.897397 128 128 255 -0.953125 -0.302578 0.000000
0.732548 -2.749007 -2.471684 128 128 255 0.953125 0.302578 0.000000
-0.782719 2.024111 5.487966 128 128 255 -0.953125 -0.302578 0.000000
0.732548 -2.749007 -1.264066 128 128 255 -0.953125 -0.302578 0.000000
-0.782719 2.024111 6.824121 128 128 255 0.953125 0.302578 0.000000
0.732548 -2.749007 0.159590 128 128 255 0.953125 0.302578 0.000000
-0.782719 2.024111 5.372665 128 128 255 -0.953125 -0.302578 0.000000
0.732548 -2.749007 -1.093638 128 128 255 0.953125 0.302578 0.000000
-0.782719 2.024111 4.028411 128 128 255 -0.953125 -0.302578 0.000000
0.732548 -2.749007 -0.496201 128 128 255 0.953125 0.302577 0.000000
-0.782719 2.024111 4.675582 128 128 255 0.953125 0.302578 0.000000
0.732548 -2.749007 1.815807 128 128 255 -0.953125 -0.302578 0.000000
0.732548 -2.749007 -0.284812 128 128 255 0.953125 0.302578 0.000000
-0.782719 2.024111 5.749281 128 128 255 -0.953125 -0.302578 0.000000
0.732548 -2.749007 -2.186234 128 128 255 0.953125 0.302578 0.000000
-0.782719 2.024111 5.446725 128 128 255 -0.953125 -0.302578 0.000000
0.732548 -2.749007 -2.089844 128 128 255 -0.953125 -0.302578 0.000000
-0.782719 2.024111 7.014265 128 128 255 0.953125 0.302578 0.000000
0.732548 -2.749007 -0.287063 128 128 255 0.953125 0.302578 0.000000
-0.782719 2.024111 7.141341 128 128 255 -0.953125 -0.302578 0.000000
0.732548 -2.749007 -2.341821 128 128 255 0.953125 0.302578 0.000000
-0.782719 2.024111 5.819293 128 128 255 -0.953125 -0.302578 0.000000
0.732548 -2.749007 -2.673017 128 128 255 0.953125 0.302578 0.000000
-0.782719 2.024111 6.341951 128 128 255 0.953125 0.302578 0.000000
0.732548 -2.749007 -0.973228 128 128 255 -0.953125 -0.302578 0.000000
-0.782719 2.024111 7.627894 128 128 255 -0.953125 -0.302578 0.000000
0.732548 -2.749007 -1.207257 128 128 255 0.953125 0.302578 0.000000
-0.782719 2.024111 5.442963 128 128 255 -0.953125 -0.302578 0.000000
0.732548 -2.749007 -1.951687 128 128 255 0.953125 0.302578 0.000000
-0.782719 2.024111 4.911304 128 128 255 -0.953125 -0.302578 0.000000
0.732548 -2.749007 -0.640607 128 128 255 -0.953125 -0.302578 0.000000
-0.782719 2.024111 6.164533 128 128 255 0.953125 0.302578 0.000000
0.732548 -2.749007 0.844023 128 128 255 0.953125 0.302578 0.000000
-0.782719 2.024111 4.675098 128 128 255 -0.953125 -0.302578 0.000000
0.732548 -2.749007 -0.394873 128 128 255 0.953125 0.302578 0.000000
-0.782719 2.024111 3.340404 128 128 255 0.953125 0.302578 0.000000
-0.782719 2.024111 5.208982 128 128 255 -0.953125 -0.302578 0.000000
0.732548 -2.749007 -0.995684 128 128 255 -0.953125 -0.302578 0.000000
-0.782719 2.024111 7.442350 128 128 255 -0.953125 -0.302578 0.000000
0.732548 -2.749007 -0.816887 128 128 255 0.953125 0.302578 0.000000
-0.782719 2.024111 6.217488 128 128 255 -0.953125 -0.302578 0.000000
0.732548 -2.749007 -2.582562 128 128 255 0.953125 0.302578 0.000000
-0.782719 2.024111 5.764393 128 128 255 -0.953125 -0.302578 0.000000
0.732548 -2.749007 -2.323416 128 128 255 -0.953125 -0.302578 0.000000
-0.782719 2.024111 7.159746 128 128 255 0.953125 0.302578 0.000000
0.732548 -2.749007 -0.341962 128 128 255 0.953125 0.302578 0.000000
-0.782719 2.024111 7.104720 128 128 255 -0.953125 -0.302578 0.000000
0.732548 -2.749007 -2.214307 128 128 255 0.953125 0.302578 0.000000
-0.782719 2.024111 5.603066 128 128 255 -0.953125 -0.302578 0.000000
0.732548 -2.749007 -2.371778 128 128 255 0.953125 0.302578 0.000000
-0.782719 2.024111 5.960854 128 128 255 0.953125 0.302578 0.000000
0.732548 -2.749007 -0.518794 128 128 255 -0.953125 -0.302578 0.000000
-0.782719 2.024111 7.107898 128 128 255 -0.953125 -0.302578 0.000000
0.732548 -2.749007 -0.630596 128 128 255 0.953125 0.302578 0.000000
-0.782719 2.024111 4.819504 128 128 255 -0.953125 -0.302578 0.000000
0.732548 -2.749007 -1.292099 128 128 255 0.953125 0.302578 0.000000
-0.782719 2.024111 4.226871 128 128 255 -0.953125 -0.302578 0.000000
0.732548 -2.749007 0.056960 128 128 255 -0.953125 -0.302578 0.000000
-0.782719 2.024111 5.465768 128 128 255 0.953125 0.302578 0.000000
0.732548 -2.749007 1.532030 128 128 255 -0.953125 -0.302578 0.000000
0.732548 -2.749007 -1.030084 128 128 255 0.000000 0.000000 0.000000
0.732548 -2.749007 0.384846 128 128 255 0.953125 0.302578 0.000000
-0.782719 2.024111 7.002256 128 128 255 -0.953125 -0.302578 0.000000
0.732548 -2.749007 -1.225200 128 128 255 0.953125 0.302578 0.000000
-0.782719 2.024111 6.447907 128 128 255 -0.953125 -0.302578 0.000000
0.732548 -2.749007 -1.716682 128 128 255 -0.953125 -0.302578 0.000000
-0.782719 2.024111 7.046064 128 128 255 0.953125 0.302578 0.000000
0.732548 -2.749007 -0.874029 128 128 255 -0.953125 -0.302578 0.000000
-0.782719 2.024111 8.087489 128 128 255 -0.953125 -0.302578 0.000000
0.732548 -2.749007 -1.214920 128 128 255 0.953125 0.302578 0.000000
-0.782719 2.024111 6.850758 128 128 255 -0.953125 -0.302578 0.000000
0.732548 -2.749007 -1.816471 128 128 255 0.953125 0.302577 0.000000
-0.782719 2.024111 6.600323 128 128 255 0.953125 0.302578 0.000000
0.732548 -2.749007 -1.029989 128 128 255 -0.953125 -0.302578 0.000000
-0.782719 2.024111 7.414218 128 128 255 0.953125 0.302578 0.000000
0.732548 -2.749007 -0.054906 128 128 255 0.953125 0.302578 0.000000
-0.782719 2.024111 6.397568 128 128 255 -0.953125 -0.302578 0.000000
0.732548 -2.749007 -0.744809 128 128 255 0.953125 0.302578 0.000000
-0.782719 2.024111 5.406790 128 128 255 -0.953125 -0.302578 0.000000
0.732548 -2.749007 -0.213270 128 128 255 -0.953125 -0.302578 0.000000
-0.782719 2.024111 5.655240 128 128 255 0.953125 0.302578 0.000000
0.732548 -2.749007 1.442519 128 128 255 -0.953125 -0.302578 0.000000
-0.782719 2.024111 5.518285 128 128 255 -0.953125 -0.302578 0.000000
0.732548 -2.749007 0.929548 128 128 255 0.953125 0.302578 0.000000
-0.782719 2.024111 4.105611 128 128 255 0.953125 0.302578 0.000000
-0.782719 2.024111 5.972934 128 128 255 -0.953125 -0.302578 0.000000
0.732548 -2.749007 -1.065968 128 128 255 -0.953125 -0.302578 0.000000
-0.782719 2.024111 7.161489 128 128 255 0.953125 0.302578 0.000000
0.732548 -2.749007 -0.090128 128 128 255 0.953125 0.302578 0.000000
-0.782719 2.024111 7.406098 128 128 255 -0.953125 -0.302578 0.000000
0.732548 -2.749007 -1.551002 128 128 255 0.953125 0.302578 0.000000
-0.782719 2.024111 6.690093 128 128 255 -0.953125 -0.302578 0.000000
0.732548 -2.749007 -1.871109 128 128 255 -0.953125 -0.302578 0.000000
-0.782719 2.024111 7.110090 128 128 255 0.953125 0.302578 0.000000
0.732548 -2.749007 -0.846558 128 128 255 -0.953125 -0.302578 0.000000
-0.782719 2.024111 7.968991 128 128 255 -0.953125 -0.302578 0.000000
0.732548 -2.749007 -1.007422 128 128 255 0.953125 0.302578 0.000000
-0.782719 2.024111 6.557812 128 128 255 -0.953125 -0.302578 0.000000
0.732548 -2.749007 -1.443088 128 128 255 0.953125 0.302578 0.000000
-0.782719 2.024111 6.152893 128 128 255 0.953125 0.302577 0.000000
0.732548 -2.749007 -0.516166 128 128 255 -0.953125 -0.302578 0.000000
-0.782719 2.024111 6.842795 128 128 255 0.953125 0.302578 0.000000
0.732548 -2.749007 0.564341 128 128 255 0.953125 0.302578 0.000000
-0.782719 2.024111 5.741093 128 128 255 -0.953125 -0.302578 0.000000
0.732548 -2.749007 -0.062338 128 128 255 0.953125 0.302578 0.000000
-0.782719 2.024111 4.710001 128 128 255 -0.953125 -0.302578 0.000000
0.732548 -2.749007 0.485914 128 128 255 -0.953125 -0.302578 0.000000
-0.782719 2.024111 4.965622 128 128 255 0.953125 0.302578 0.000000
0.732548 -2.749007 2.110769 128 128 255 -0.953125 -0.302578 0.000000
0.732548 -2.749007 -0.156870 128 128 255 0.953125 0.302578 0.000000
-0.782719 2.024111 6.561030 128 128 255 -0.953125 -0.302578 0.000000
0.732548 -2.749007 -1.472072 128 128 255 0.953125 0.302578 0.000000
-0.782719 2.024111 6.447907 128 128 255 -0.953125 -0.302578 0.000000
0.732548 -2.749007 -1.469810 128 128 255 -0.953125 -0.302577 0.000000
-0.782719 2.024111 7.487290 128 128 255 0.953125 0.302578 0.000000
0.732548 -2.749007 -0.332314 128 128 255 0.953125 0.302578 0.000000
-0.782719 2.024111 7.560525 128 128 255 -0.953125 -0.302578 0.000000
0.732548 -2.749007 -1.615028 128 128 255 0.953125 0.302578 0.000000
-0.782719 2.024111 6.662622 128 128 255 -0.953125 -0.302578 0.000000
0.732548 -2.749007 -1.752611 128 128 255 -0.953125 -0.302578 0.000000
-0.782719 2.024111 6.902593 128 128 255 0.953125 0.302578 0.000000
0.732548 -2.749007 -0.553612 128 128 255 -0.953125 -0.302578 0.000000
-0.782719 2.024111 7.595608 128 128 255 -0.953125 -0.302578 0.000000
0.732548 -2.749007 -0.559991 128 128 255 0.953125 0.302578 0.000000
-0.782719 2.024111 6.043989 128 128 255 -0.953125 -0.302578 0.000000
0.732548 -2.749007 -0.871664 128 128 255 0.953125 0.302578 0.000000
-0.782719 2.024111 5.533646 128 128 255 0.953125 0.302578 0.000000
0.732548 -2.749007 0.140309 128 128 255 -0.953125 -0.302578 0.000000
-0.782719 2.024111 6.160325 128 128 255 0.953125 0.302578 0.000000
0.732548 -2.749007 1.261129 128 128 255 0.953125 0.302578 0.000000
-0.782719 2.024111 5.041909 128 128 255 -0.953125 -0.302578 0.000000
0.732548 -2.749007 0.627279 128 128 255 0.953125 0.302578 0.000000
-0.782719 2.024111 4.041751 128 128 255 0.953125 0.302578 0.000000
-0.782719 2.024111 6.161069 128 128 255 -0.953125 -0.302578 0.000000
0.732548 -2.749007 -0.665859 128 128 255 -0.953125 -0.302578 0.000000
-0.782719 2.024111 7.688452 128 128 255 0.953125 0.302578 0.000000
0.732548 -2.749007 -0.631843 128 128 255 0.953125 0.302578 0.000000
-0.782719 2.024111 6.964872 128 128 255 -0.953125 -0.302578 0.000000
0.732548 -2.749007 -1.797874 128 128 255 0.953125 0.302578 0.000000
-0.782719 2.024111 6.690093 128 128 255 -0.953125 -0.302577 0.000000
0.732548 -2.749007 -1.624237 128 128 255 -0.953125 -0.302578 0.000000
-0.782719 2.024111 7.551316 128 128 255 0.953125 0.302578 0.000000
0.732548 -2.749007 -0.304843 128 128 255 0.953125 0.302578 0.000000
-0.782719 2.024111 7.442028 128 128 255 -0.953125 -0.302578 0.000000
0.732548 -2.749007 -1.407530 128 128 255 0.953125 0.302578 0.000000
-0.782719 2.024111 6.369676 128 128 255 -0.953125 -0.302578 0.000000
0.732548 -2.749007 -1.379228 128 128 255 -0.953125 -0.302578 0.000000
-0.782719 2.024111 6.455162 128 128 255 0.953125 0.302578 0.000000
0.732548 -2.749007 -0.039789 128 128 255 -0.953125 -0.302578 0.000000
-0.782719 2.024111 7.024184 128 128 255 -0.953125 -0.302578 0.000000
0.732548 -2.749007 0.059256 128 128 255 0.953125 0.302578 0.000000
-0.782719 2.024111 5.387514 128 128 255 -0.953125 -0.302578 0.000000
0.732548 -2.749007 -0.189194 128 128 255 0.953125 0.302578 0.000000
-0.782719 2.024111 4.836857 128 128 255 0.953125 0.302577 0.000000
0.732548 -2.749007 0.839494 128 128 255 -0.953125 -0.302578 0.000000
-0.782719 2.024111 5.470707 128 128 255 0.953125 0.302578 0.000000
0.732548 -2.749007 1.929380 128 128 255 -0.953125 -0.302578 0.000000
0.732548 -2.749007 -0.633246 128 128 255 0.000000 0.000000 0.000000
0.732548 -2.749007 0.221624 128 128 255 -0.953125 -0.302578 0.000000
-0.782719 2.024111 7.670747 128 128 255 0.953125 0.302578 0.000000
0.732548 -2.749007 -0.411393 128 128 255 -0.953125 -0.302578 0.000000
-0.782719 2.024111 7.697596 128 128 255 0.953125 0.302578 0.000000
0.732548 -2.749007 -0.672226 128 128 255 -0.953125 -0.302578 0.000000
-0.782719 2.024111 7.943509 128 128 255 0.953125 0.302578 0.000000
0.732548 -2.749007 -0.495281 128 128 255 -0.953125 -0.302578 0.000000
-0.782719 2.024111 8.216165 128 128 255 0.953125 0.302578 0.000000
0.732548 -2.749007 -0.538754 128 128 255 -0.953125 -0.302578 0.000000
-0.782719 2.024111 7.800893 128 128 255 0.953125 0.302578 0.000000
0.732548 -2.749007 -0.563407 128 128 255 -0.953125 -0.302578 0.000000
-0.782719 2.024111 7.561203 128 128 255 0.953125 0.302578 0.000000
0.732548 -2.749007 -0.145327 128 128 255 -0.953125 -0.302578 0.000000
-0.782719 2.024111 7.529443 128 128 255 0.953125 0.302578 0.000000
0.732548 -2.749007 0.386062 128 128 255 -0.953125 -0.302578 0.000000
-0.782719 2.024111 6.962060 128 128 255 0.953125 0.302578 0.000000
0.732548 -2.749007 0.525189 128 128 255 -0.953125 -0.302578 0.000000
-0.782719 2.024111 6.367077 128 128 255 0.953125 0.302578 0.000000
0.732548 -2.749007 1.008291 128 128 255 -0.953125 -0.302578 0.000000
-0.782719 2.024111 6.085972 128 128 255 0.953125 0.302578 0.000000
0.732548 -2.749007 1.786433 128 128 255 -0.953125 -0.302578 0.000000
-0.782719 2.024111 5.715672 128 128 255 0.953125 0.302578 0.000000
0.732548 -2.749007 1.971375 128 128 255 -0.953125 -0.302578 0.000000
-0.782719 2.024111 5.045135 128 128 255 0.953125 0.302578 0.000000
-0.782719 2.024111 7.286309 128 128 255 -0.953125 -0.302578 0.000000
0.732548 -2.749007 -0.273511 128 128 255 -0.953125 -0.302578 0.000000
-0.782719 2.024111 7.808630 128 128 255 0.953125 0.302578 0.000000
0.732548 -2.749007 -0.189663 128 128 255 -0.953125 -0.302578 0.000000
-0.782719 2.024111 8.004627 128 128 255 0.953125 0.302578 0.000000
0.732548 -2.749007 -0.662152 128 128 255 -0.953125 -0.302578 0.000000
-0.782719 2.024111 7.860943 128 128 255 0.953125 0.302578 0.000000
0.732548 -2.749007 -0.745367 128 128 255 -0.953125 -0.302578 0.000000
-0.782719 2.024111 7.925192 128 128 255 0.953125 0.302578 0.000000
0.732548 -2.749007 -0.385821 128 128 255 -0.953125 -0.302578 0.000000
-0.782719 2.024111 8.017432 128 128 255 0.953125 0.302578 0.000000
0.732548 -2.749007 -0.254151 128 128 255 -0.953125 -0.302578 0.000000
-0.782719 2.024111 7.435288 128 128 255 0.953125 0.302578 0.000000
0.732548 -2.749007 -0.123056 128 128 255 -0.953125 -0.302578 0.000000
-0.782719 2.024111 7.053642 128 128 255 0.953125 0.302578 0.000000
0.732548 -2.749007 0.420762 128 128 255 -0.953125 -0.302578 0.000000
-0.782719 2.024111 6.914514 128 128 255 0.953125 0.302578 0.000000
0.732548 -2.749007 1.039310 128 128 255 -0.953125 -0.302578 0.000000
-0.782719 2.024111 6.281670 128 128 255 0.953125 0.302578 0.000000
0.732548 -2.749007 1.221080 128 128 255 -0.953125 -0.302578 0.000000
-0.782719 2.024111 5.667593 128 128 255 0.953125 0.302578 0.000000
0.732548 -2.749007 1.699401 128 128 255 -0.953125 -0.302578 0.000000
-0.782719 2.024111 5.415063 128 128 255 0.953125 0.302578 0.000000
0.732548 -2.749007 2.425663 128 128 255 -0.953125 -0.302578 0.000000
0.732548 -2.749007 0.079353 128 128 255 -0.953125 -0.302578 0.000000
-0.782719 2.024111 7.554868 128 128 255 0.953125 0.302578 0.000000
0.732548 -2.749007 -0.476229 128 128 255 -0.953125 -0.302578 0.000000
-0.782719 2.024111 7.697596 128 128 255 0.953125 0.302578 0.000000
0.732548 -2.749007 -0.607390 128 128 255 -0.953125 -0.302578 0.000000
-0.782719 2.024111 8.059388 128 128 255 0.953125 0.302578 0.000000
0.732548 -2.749007 -0.353010 128 128 255 -0.953125 -0.302578 0.000000
-0.782719 2.024111 8.077768 128 128 255 0.953125 0.302578 0.000000
0.732548 -2.749007 -0.643835 128 128 255 -0.953125 -0.302578 0.000000
-0.782719 2.024111 7.751482 128 128 255 0.953125 0.302578 0.000000
0.732548 -2.749007 -0.546635 128 128 255 -0.953125 -0.302578 0.000000
-0.782719 2.024111 7.640589 128 128 255 0.953125 0.302578 0.000000
0.732548 -2.749007 -0.020216 128 128 255 -0.953125 -0.302578 0.000000
-0.782719 2.024111 7.577082 128 128 255 0.953125 0.302578 0.000000
0.732548 -2.749007 0.253411 128 128 255 -0.953125 -0.302578 0.000000
-0.782719 2.024111 6.869199 128 128 255 0.953125 0.302578 0.000000
0.732548 -2.749007 0.491873 128 128 255 -0.953125 -0.302578 0.000000
-0.782719 2.024111 6.400393 128 128 255 0.953125 0.302578 0.000000
0.732548 -2.749007 1.101152 128 128 255 -0.953125 -0.302578 0.000000
-0.782719 2.024111 6.218623 128 128 255 0.953125 0.302578 0.000000
0.732548 -2.749007 1.738795 128 128 255 -0.953125 -0.302578 0.000000
-0.782719 2.024111 5.590560 128 128 255 0.953125 0.302578 0.000000
0.732548 -2.749007 1.891989 128 128 255 -0.953125 -0.302578 0.000000
-0.782719 2.024111 5.028363 128 128 255 0.953125 0.302578 0.000000
-0.782719 2.024111 7.335719 128 128 255 -0.953125 -0.302578 0.000000
0.732548 -2.749007 -0.168430 128 128 255 -0.953125 -0.302578 0.000000
-0.782719 2.024111 7.947026 128 128 255 0.953125 0.302578 0.000000
0.732548 -2.749007 -0.331934 128 128 255 -0.953125 -0.302578 0.000000
-0.782719 2.024111 7.888747 128 128 255 0.953125 0.302578 0.000000
0.732548 -2.749007 -0.726988 128 128 255 -0.953125 -0.302578 0.000000
-0.782719 2.024111 7.860943 128 128 255 0.953125 0.302578 0.000000
0.732548 -2.749007 -0.680531 128 128 255 -0.953125 -0.302578 0.000000
-0.782719 2.024111 8.041072 128 128 255 0.953125 0.302578 0.000000
0.732548 -2.749007 -0.243549 128 128 255 -0.953125 -0.302578 0.000000
-0.782719 2.024111 7.879035 128 128 255 0.953125 0.302578 0.000000
0.732548 -2.749007 -0.359232 128 128 255 -0.953125 -0.302578 0.000000
-0.782719 2.024111 7.385878 128 128 255 0.953125 0.302578 0.000000
0.732548 -2.749007 -0.106285 128 128 255 -0.953125 -0.302578 0.000000
-0.782719 2.024111 7.133027 128 128 255 0.953125 0.302578 0.000000
0.732548 -2.749007 0.545873 128 128 255 -0.953125 -0.302578 0.000000
-0.782719 2.024111 6.962152 128 128 255 0.953125 0.302578 0.000000
0.732548 -2.749007 0.906659 128 128 255 -0.953125 -0.302578 0.000000
-0.782719 2.024111 6.188809 128 128 255 0.953125 0.302578 0.000000
0.732548 -2.749007 1.187764 128 128 255 -0.953125 -0.302578 0.000000
-0.782719 2.024111 5.700909 128 128 255 0.953125 0.302578 0.000000
0.732548 -2.749007 1.792261 128 128 255 -0.953125 -0.302578 0.000000
-0.782719 2.024111 5.547714 128 128 255 0.953125 0.302578 0.000000
0.732548 -2.749007 2.378024 128 128 255 -0.953125 -0.302578 0.000000
0.732548 -2.749007 -0.045758 128 128 255 0.000000 0.000000 0.000000
0.732548 -2.749007 0.075279 128 128 255 -0.953125 -0.302578 0.000000
-0.782719 2.024111 7.612919 128 128 255 0.953125 0.302578 0.000000
0.732548 -2.749007 -0.840525 128 128 255 -0.953125 -0.302578 0.000000
-0.782719 2.024111 7.372874 128 128 255 0.953125 0.302578 0.000000
0.732548 -2.749007 -1.113603 128 128 255 -0.953125 -0.302578 0.000000
-0.782719 2.024111 7.670275 128 128 255 -0.953125 -0.302578 0.000000
0.732548 -2.749007 -0.630638 128 128 255 0.953125 0.302578 0.000000
-0.782719 2.024111 8.137148 128 128 255 0.953125 0.302578 0.000000
0.732548 -2.749007 -0.704243 128 128 255 -0.953125 -0.302578 0.000000
-0.782719 2.024111 7.363043 128 128 255 0.953125 0.302578 0.000000
0.732548 -2.749007 -0.861448 128 128 255 -0.953125 -0.302578 0.000000
-0.782719 2.024111 7.054881 128 128 255 0.953125 0.302578 0.000000
0.732548 -2.749007 -0.255297 128 128 255 0.953125 0.302578 0.000000
-0.782719 2.024111 7.265373 128 128 255 -0.953125 -0.302578 0.000000
0.732548 -2.749007 0.476898 128 128 255 -0.953125 -0.302578 0.000000
-0.782719 2.024111 6.503256 128 128 255 0.953125 0.302578 0.000000
0.732548 -2.749007 0.355660 128 128 255 -0.953125 -0.302578 0.000000
-0.782719 2.024111 5.750046 128 128 255 0.953125 0.302578 0.000000
0.732548 -2.749007 0.866169 128 128 255 -0.953125 -0.302578 0.000000
-0.782719 2.024111 5.653079 128 128 255 -0.953125 -0.302578 0.000000
0.732548 -2.749007 1.941924 128 128 255 -0.953125 -0.302578 0.000000
-0.782719 2.024111 5.382717 128 128 255 0.953125 0.302578 0.000000
0.732548 -2.749007 1.855449 128 128 255 -0.953125 -0.302578 0.000000
-0.782719 2.024111 4.489433 128 128 255 -0.953125 -0.302578 0.000000
-0.782719 2.024111 7.030974 128 128 255 0.953125 0.302578 0.000000
0.732548 -2.749007 -0.725904 128 128 255 -0.953125 -0.302578 0.000000
-0.782719 2.024111 7.727540 128 128 255 -0.953125 -0.302578 0.000000
0.732548 -2.749007 -0.266621 128 128 255 -0.953125 -0.302578 0.000000
-0.782719 2.024111 7.872207 128 128 255 0.953125 0.302578 0.000000
0.732548 -2.749007 -1.012764 128 128 255 -0.953125 -0.302578 0.000000
-0.782719 2.024111 7.455118 128 128 255 0.953125 0.302578 0.000000
0.732548 -2.749007 -1.104443 128 128 255 -0.953125 -0.302578 0.000000
-0.782719 2.024111 7.569870 128 128 255 -0.953125 -0.302578 0.000000
0.732548 -2.749007 -0.440704 128 128 255 0.953125 0.302578 0.000000
-0.782719 2.024111 7.860936 128 128 255 0.953125 0.302578 0.000000
0.732548 -2.749007 -0.346479 128 128 255 -0.953125 -0.302578 0.000000
-0.782719 2.024111 6.929848 128 128 255 0.953125 0.302578 0.000000
0.732548 -2.749007 -0.360235 128 128 255 -0.953125 -0.302578 0.000000
-0.782719 2.024111 6.494224 128 128 255 0.953125 0.302578 0.000000
0.732548 -2.749007 0.355210 128 128 255 0.953125 0.302578 0.000000
-0.782719 2.024111 6.615462 128 128 255 -0.953125 -0.302578 0.000000
0.732548 -2.749007 1.155092 128 128 255 -0.953125 -0.302578 0.000000
-0.782719 2.024111 5.808383 128 128 255 0.953125 0.302578 0.000000
0.732548 -2.749007 1.055324 128 128 255 -0.953125 -0.302578 0.000000
-0.782719 2.024111 5.057563 128 128 255 0.953125 0.302578 0.000000
0.732548 -2.749007 1.539622 128 128 255 -0.953125 -0.302578 0.000000
-0.782719 2.024111 5.010178 128 128 255 -0.953125 -0.302577 0.000000
0.732548 -2.749007 2.543272 128 128 255 0.953125 0.302578 0.000000
0.732548 -2.749007 -0.206494 128 128 255 -0.953125 -0.302578 0.000000
-0.782719 2.024111 7.383416 128 128 255 0.953125 0.302578 0.000000
0.732548 -2.749007 -0.968935 128 128 255 -0.953125 -0.302578 0.000000
-0.782719 2.024111 7.372874 128 128 255 0.953125 0.302578 0.000000
0.732548 -2.749007 -0.985192 128 128 255 -0.953125 -0.302578 0.000000
-0.782719 2.024111 7.899779 128 128 255 -0.953125 -0.302578 0.000000
0.732548 -2.749007 -0.348865 128 128 255 -0.953125 -0.302578 0.000000
-0.782719 2.024111 7.863048 128 128 255 0.953125 0.302578 0.000000
0.732548 -2.749007 -0.912359 128 128 255 -0.953125 -0.302578 0.000000
-0.782719 2.024111 7.265184 128 128 255 0.953125 0.302578 0.000000
0.732548 -2.749007 -0.828232 128 128 255 -0.953125 -0.302578 0.000000
-0.782719 2.024111 7.212106 128 128 255 -0.953125 -0.302578 0.000000
0.732548 -2.749007 -0.007510 128 128 255 0.953125 0.302578 0.000000
-0.782719 2.024111 7.359722 128 128 255 0.953125 0.302578 0.000000
0.732548 -2.749007 0.214178 128 128 255 -0.953125 -0.302578 0.000000
-0.782719 2.024111 6.319342 128 128 255 0.953125 0.302578 0.000000
