ply
format ascii 1.0
element vertex 708
property float x
property float y
property float z
property uchar red
property uchar green
property uchar blue
property float nx
property float ny
property float nz
end_header
0.412822 0.087910 0.486811 128 128 255 0.027586 -0.999619 0.000000
0.508481 0.089757 0.528111 128 128 255 0.026757 -0.999642 0.000000
0.548067 0.091580 0.568016 128 128 255 0.046010 -0.998941 0.000000
0.587144 0.093380 0.606615 128 128 255 0.046010 -0.998941 0.000000
0.625720 0.095157 0.644008 128 128 255 0.141449 -0.989945 0.000000
0.608249 0.096911 0.680300 128 128 255 0.218838 -0.975761 0.000000
0.645849 0.098643 0.715604 128 128 255 0.046010 -0.998941 0.000000
0.682972 0.100353 0.750038 128 128 255 0.028377 -0.999597 0.000000
0.775183 0.102041 0.783723 128 128 255 0.022684 -0.999743 0.000000
0.811377 0.103708 0.816784 128 128 255 0.046010 -0.998941 0.000000
0.847117 0.105354 0.865303 128 128 255 0.620036 0.784573 0.000000
0.826855 0.106980 0.913231 128 128 255 0.135130 -0.990828 0.000000
0.861710 0.108585 0.960475 128 128 255 0.046010 -0.998941 0.000000
0.896134 0.110171 1.006947 128 128 255 0.046010 -0.998941 0.000000
0.930132 0.111737 1.052562 128 128 255 0.024654 -0.999696 0.000000
1.019268 0.113284 1.097239 128 128 255 0.025615 -0.999672 0.000000
1.052438 0.114811 1.140904 128 128 255 0.046010 -0.998941 0.000000
1.085204 0.116321 1.183492 128 128 255 0.046010 -0.998941 0.000000
1.117572 0.117811 1.224943 128 128 255 0.355433 -0.934702 0.000000
1.093994 0.119284 1.265210 128 128 255 0.319475 -0.947595 0.000000
1.125588 0.120739 1.304253 128 128 255 0.046010 -0.998941 0.000000
1.156804 0.122177 1.342046 128 128 255 0.046010 -0.998941 0.000000
1.187648 0.123598 1.378573 128 128 255 0.024187 -0.999707 0.000000
1.273684 0.125002 1.413828 128 128 255 0.023945 -0.999713 0.000000
1.303805 0.126389 1.447820 128 128 255 0.046011 -0.998941 0.000000
1.303805 0.126389 1.380494 128 128 255 -0.046011 0.998941 0.000000
1.273684 0.125002 1.362045 128 128 255 -0.020946 0.999781 0.000000
1.187648 0.123598 1.343044 128 128 255 -0.026032 0.999661 0.000000
1.156804 0.122177 1.323271 128 128 255 -0.046010 0.998941 0.000000
1.125588 0.120739 1.302510 128 128 255 -0.046010 0.998941 0.000000
1.093994 0.119284 1.280555 128 128 255 -0.480492 0.876999 0.000000
1.117572 0.117811 1.257208 128 128 255 -0.264878 0.964282 0.000000
1.085204 0.116321 1.232285 128 128 255 -0.046010 0.998941 0.000000
1.052438 0.114811 1.205618 128 128 255 -0.046010 0.998941 0.000000
1.019268 0.113284 1.177056 128 128 255 -0.024993 0.999688 0.000000
0.930132 0.111737 1.146468 128 128 255 -0.025345 0.999679 0.000000
0.896134 0.110171 1.113742 128 128 255 -0.046010 0.998941 0.000000
0.861710 0.108585 1.078791 128 128 255 -0.046010 0.998941 0.000000
0.826855 0.106980 1.041548 128 128 255 -0.210276 0.977642 0.000000
0.847117 0.105354 1.001972 128 128 255 -0.215901 0.976415 0.000000
0.811377 0.103708 0.960047 128 128 255 -0.046010 0.998941 0.000000
0.775183 0.102041 0.915778 128 128 255 -0.026364 0.999652 0.000000
0.682972 0.100353 0.869198 128 128 255 -0.025970 0.999663 0.000000
0.645849 0.098643 0.820361 128 128 255 -0.046010 0.998941 0.000000
0.608249 0.096911 0.769342 128 128 255 -0.154973 0.987919 0.000000
0.625720 0.095157 0.716241 128 128 255 -0.186734 0.982410 0.000000
0.587144 0.093380 0.661173 128 128 255 -0.046010 0.998941 0.000000
0.548067 0.091580 0.604275 128 128 255 -0.046010 0.998941 0.000000
0.508481 0.089757 0.545696 128 128 255 -0.028072 0.999606 0.000000
0.412822 0.087910 0.485600 128 128 255 -0.026118 0.999659 0.000000
0.372193 0.086039 0.424163 128 128 255 -0.046010 0.998941 0.000000
0.331027 0.084143 0.361567 128 128 255 -0.089487 0.995988 0.000000
0.344872 0.082221 0.298000 128 128 255 -0.138419 0.990374 0.000000
0.302606 0.080275 0.265089 128 128 255 -0.046010 0.998941 0.000000
0.259775 0.078302 0.231166 128 128 255 -0.026571 0.999647 0.000000
0.160811 0.076303 0.196000 128 128 255 -0.029174 0.999574 0.000000
0.116816 0.074276 0.159366 128 128 255 -0.046010 0.998941 0.000000
0.072222 0.072222 0.121048 128 128 255 0.862575 0.505930 0.000000
0.082560 0.125695 0.083387 128 128 255 0.796739 0.604324 0.000000
0.036695 0.123583 0.043688 128 128 255 -0.028479 0.999594 0.000000
-0.065388 0.121440 0.001782 128 128 255 -0.029107 0.999576 0.000000
-0.112591 0.119265 -0.042478 128 128 255 -0.046010 0.998941 0.000000
-0.160484 0.117060 -0.089219 128 128 255 -0.108910 0.994052 0.000000
-0.153524 0.114821 -0.138544 128 128 255 -0.105630 0.994406 0.000000
-0.202838 0.112550 -0.190529 128 128 255 -0.029558 0.999563 0.000000
-0.308438 0.110245 -0.245222 128 128 255 -0.029608 0.999562 0.000000
-0.359228 0.107906 -0.302646 128 128 255 -0.046010 0.998941 0.000000
-0.410776 0.105531 -0.362791 128 128 255 -0.096793 0.995305 0.000000
-0.407543 0.103121 -0.425621 128 128 255 -0.099173 0.995070 0.000000
-0.460651 0.100675 -0.491069 128 128 255 -0.030570 0.999533 0.000000
-0.570116 0.098192 -0.559046 128 128 255 -0.030142 0.999546 0.000000
-0.624841 0.095672 -0.629440 128 128 255 -0.089103 0.996022 0.000000
-0.624839 0.093113 -0.702125 128 128 255 -0.095240 0.995454 0.000000
-0.681238 0.090515 -0.776964 128 128 255 -0.046010 0.998941 0.000000
-0.624839 0.093113 -0.727019 128 128 255 0.085537 -0.996335 0.000000
-0.624841 0.095672 -0.678898 128 128 255 0.100635 -0.994923 0.000000
-0.570116 0.098192 -0.632414 128 128 255 0.031608 -0.999500 0.000000
-0.460651 0.100675 -0.587377 128 128 255 0.028826 -0.999584 0.000000
-0.407543 0.103121 -0.543597 128 128 255 0.075034 -0.997181 0.000000
-0.410776 0.105531 -0.500877 128 128 255 0.102956 -0.994686 0.000000
-0.359228 0.107906 -0.427584 128 128 255 0.046010 -0.998941 0.000000
-0.308438 0.110245 -0.355373 128 128 255 0.028344 -0.999598 0.000000
-0.202838 0.112550 -0.284461 128 128 255 0.030470 -0.999536 0.000000
-0.153524 0.114821 -0.215051 128 128 255 0.115173 -0.993345 0.000000
-0.160484 0.117060 -0.147336 128 128 255 0.101767 -0.994808 0.000000
-0.112591 0.119265 -0.081495 128 128 255 0.046010 -0.998941 0.000000
-0.065388 0.121440 -0.017689 128 128 255 0.028641 -0.999590 0.000000
0.036695 0.123583 0.043940 128 128 255 0.028940 -0.999581 0.000000
0.082560 0.125695 0.103268 128 128 255 0.046011 -0.998941 0.000000
0.127778 0.127778 0.160194 128 128 255 -0.836181 -0.548453 0.000000
0.116816 0.074276 0.217147 128 128 255 -0.841123 -0.540844 0.000000
0.160811 0.076303 0.271532 128 128 255 0.028193 -0.999602 0.000000
0.259775 0.078302 0.323321 128 128 255 0.027910 -0.999610 0.000000
0.302606 0.080275 0.372513 128 128 255 0.046011 -0.998941 0.000000
0.344872 0.082221 0.419128 128 128 255 0.130429 -0.991458 0.000000
0.331027 0.084143 0.463214 128 128 255 0.144767 -0.989466 0.000000
0.372193 0.086039 0.504842 128 128 255 0.046010 -0.998941 0.000000
0.412822 0.087910 0.544104 128 128 255 0.027649 -0.999618 0.000000
0.508481 0.089757 0.581119 128 128 255 0.026698 -0.999644 0.000000
0.548067 0.091580 0.616024 128 128 255 0.046010 -0.998941 0.000000
0.587144 0.093380 0.648975 128 128 255 0.046010 -0.998941 0.000000
0.625720 0.095157 0.680147 128 128 255 0.139794 -0.990181 0.000000
0.608249 0.096911 0.709731 128 128 255 0.222782 -0.974868 0.000000
0.645849 0.098643 0.737929 128 128 255 0.046010 -0.998941 0.000000
0.682972 0.100353 0.764954 128 128 255 0.028435 -0.999596 0.000000
0.775183 0.102041 0.791029 128 128 255 0.022678 -0.999743 0.000000
0.811377 0.103708 0.816379 128 128 255 0.046010 -0.998941 0.000000
0.847117 0.105354 0.872668 128 128 255 0.656358 0.754450 0.000000
0.826855 0.106980 0.928264 128 128 255 0.136953 -0.990578 0.000000
0.861710 0.108585 0.982974 128 128 255 0.046010 -0.998941 0.000000
0.896134 0.110171 1.036606 128 128 255 0.046010 -0.998941 0.000000
0.930132 0.111737 1.088980 128 128 255 0.024715 -0.999695 0.000000
1.019268 0.113284 1.139924 128 128 255 0.025551 -0.999674 0.000000
1.052438 0.114811 1.189280 128 128 255 0.046010 -0.998941 0.000000
1.085204 0.116321 1.236904 128 128 255 0.046010 -0.998941 0.000000
1.117572 0.117811 1.282671 128 128 255 0.343671 -0.939090 0.000000
1.093994 0.119284 1.326474 128 128 255 0.329697 -0.944087 0.000000
1.125588 0.120739 1.368227 128 128 255 0.046010 -0.998941 0.000000
1.156804 0.122177 1.407867 128 128 255 0.046010 -0.998941 0.000000
1.187648 0.123598 1.445353 128 128 255 0.024250 -0.999706 0.000000
1.273684 0.125002 1.480668 128 128 255 0.023884 -0.999715 0.000000
1.303805 0.126389 1.513820 128 128 255 0.046011 -0.998941 0.000000
1.303805 0.126389 1.380921 128 128 255 -0.046011 0.998941 0.000000
1.273684 0.125002 1.369805 128 128 255 -0.021014 0.999779 0.000000
1.187648 0.123598 1.358038 128 128 255 -0.025946 0.999663 0.000000
1.156804 0.122177 1.345302 128 128 255 -0.046010 0.998941 0.000000
1.125588 0.120739 1.331288 128 128 255 -0.046010 0.998941 0.000000
1.093994 0.119284 1.315698 128 128 255 -0.458042 0.888931 0.000000
1.117572 0.117811 1.298249 128 128 255 -0.272897 0.962043 0.000000
1.085204 0.116321 1.278680 128 128 255 -0.046010 0.998941 0.000000
1.052438 0.114811 1.256749 128 128 255 -0.046010 0.998941 0.000000
1.019268 0.113284 1.232242 128 128 255 -0.025061 0.999686 0.000000
0.930132 0.111737 1.204975 128 128 255 -0.025276 0.999681 0.000000
0.896134 0.110171 1.174791 128 128 255 -0.046010 0.998941 0.000000
0.861710 0.108585 1.141569 128 128 255 -0.046010 0.998941 0.000000
0.826855 0.106980 1.105220 128 128 255 -0.205909 0.978571 0.000000
0.847117 0.105354 1.065692 128 128 255 -0.220683 0.975346 0.000000
0.811377 0.103708 1.022967 128 128 255 -0.046010 0.998941 0.000000
0.775183 0.102041 0.977064 128 128 255 -0.026432 0.999651 0.000000
0.682972 0.100353 0.928038 128 128 255 -0.025905 0.999664 0.000000
0.645849 0.098643 0.875975 128 128 255 -0.046010 0.998941 0.000000
0.608249 0.096911 0.820997 128 128 255 -0.152806 0.988256 0.000000
0.625720 0.095157 0.763256 128 128 255 -0.189919 0.981800 0.000000
0.587144 0.093380 0.702933 128 128 255 -0.046010 0.998941 0.000000
0.548067 0.091580 0.640235 128 128 255 -0.046010 0.998941 0.000000
0.508481 0.089757 0.575391 128 128 255 -0.028134 0.999604 0.000000
0.412822 0.087910 0.508651 128 128 255 -0.026071 0.999660 0.000000
0.372193 0.086039 0.440280 128 128 255 -0.046010 0.998941 0.000000
0.331027 0.084143 0.370556 128 128 255 -0.089746 0.995965 0.000000
0.344872 0.082221 0.299766 128 128 255 -0.141266 0.989972 0.000000
0.302606 0.080275 0.274153 128 128 255 -0.046010 0.998941 0.000000
0.259775 0.078302 0.247433 128 128 255 -0.026640 0.999645 0.000000
0.160811 0.076303 0.219279 128 128 255 -0.029098 0.999577 0.000000
0.116816 0.074276 0.189374 128 128 255 -0.046010 0.998941 0.000000
0.072222 0.072222 0.157412 128 128 255 0.858770 0.512361 0.000000
0.082560 0.125695 0.125648 128 128 255 0.801407 0.598120 0.000000
0.036695 0.123583 0.091311 128 128 255 -0.028543 0.999593 0.000000
-0.065388 0.121440 0.054161 128 128 255 -0.029040 0.999578 0.000000
-0.112591 0.119265 0.013990 128 128 255 -0.046010 0.998941 0.000000
-0.160484 0.117060 -0.029385 128 128 255 -0.108021 0.994149 0.000000
-0.153524 0.114821 -0.076108 128 128 255 -0.106481 0.994315 0.000000
-0.202838 0.112550 -0.126291 128 128 255 -0.029623 0.999561 0.000000
-0.308438 0.110245 -0.180007 128 128 255 -0.029543 0.999564 0.000000
-0.359228 0.107906 -0.237290 128 128 255 -0.046010 0.998941 0.000000
-0.410776 0.105531 -0.298138 128 128 255 -0.096134 0.995368 0.000000
-0.407543 0.103121 -0.362507 128 128 255 -0.099874 0.995000 0.000000
-0.460651 0.100675 -0.430320 128 128 255 -0.030634 0.999531 0.000000
-0.570116 0.098192 -0.501462 128 128 255 -0.030080 0.999547 0.000000
-0.624841 0.095672 -0.575790 128 128 255 -0.088589 0.996068 0.000000
-0.624839 0.093113 -0.653132 128 128 255 -0.095822 0.995398 0.000000
-0.681238 0.090515 -0.733298 128 128 255 -0.046010 0.998941 0.000000
-0.624839 0.093113 -0.689279 128 128 255 0.085099 -0.996373 0.000000
-0.624841 0.095672 -0.647602 128 128 255 0.101221 -0.994864 0.000000
-0.570116 0.098192 -0.607987 128 128 255 0.031664 -0.999499 0.000000
-0.460651 0.100675 -0.570143 128 128 255 0.028788 -0.999586 0.000000
-0.407543 0.103121 -0.533772 128 128 255 0.074954 -0.997187 0.000000
-0.410776 0.105531 -0.498572 128 128 255 0.104081 -0.994569 0.000000
-0.359228 0.107906 -0.418280 128 128 255 0.046010 -0.998941 0.000000
-0.308438 0.110245 -0.339163 128 128 255 0.028409 -0.999596 0.000000
-0.202838 0.112550 -0.261529 128 128 255 0.030397 -0.999538 0.000000
-0.153524 0.114821 -0.185672 128 128 255 0.114126 -0.993466 0.000000
-0.160484 0.117060 -0.111875 128 128 255 0.102593 -0.994723 0.000000
-0.112591 0.119265 -0.040399 128 128 255 0.046010 -0.998941 0.000000
-0.065388 0.121440 0.028515 128 128 255 0.028708 -0.999588 0.000000
0.036695 0.123583 0.094653 128 128 255 0.028872 -0.999583 0.000000
0.082560 0.125695 0.157829 128 128 255 0.046011 -0.998941 0.000000
0.127778 0.127778 0.217885 128 128 255 -0.831828 -0.555033 0.000000
0.116816 0.074276 0.277206 128 128 255 -0.845325 -0.534252 0.000000
0.160811 0.076303 0.333163 128 128 255 0.028262 -0.999601 0.000000
0.259775 0.078302 0.385704 128 128 255 0.027842 -0.999612 0.000000
0.302606 0.080275 0.434816 128 128 255 0.046011 -0.998941 0.000000
0.344872 0.082221 0.480519 128 128 255 0.128925 -0.991654 0.000000
0.331027 0.084143 0.522871 128 128 255 0.146659 -0.989187 0.000000
0.372193 0.086039 0.561964 128 128 255 0.046010 -0.998941 0.000000
0.412822 0.087910 0.597926 128 128 255 0.027720 -0.999616 0.000000
0.508481 0.089757 0.630916 128 128 255 0.026632 -0.999645 0.000000
0.548067 0.091580 0.661127 128 128 255 0.046010 -0.998941 0.000000
0.587144 0.093380 0.688777 128 128 255 0.046010 -0.998941 0.000000
0.625720 0.095157 0.714112 128 128 255 0.137961 -0.990438 0.000000
0.608249 0.096911 0.737400 128 128 255 0.227435 -0.973793 0.000000
0.645849 0.098643 0.758930 128 128 255 0.046010 -0.998941 0.000000
0.682972 0.100353 0.779005 128 128 255 0.028503 -0.999594 0.000000
0.775183 0.102041 0.797939 128 128 255 0.022667 -0.999743 0.000000
0.811377 0.103708 0.816056 128 128 255 0.046010 -0.998941 0.000000
0.847117 0.105354 0.879635 128 128 255 0.696008 0.718034 0.000000
0.826855 0.106980 0.942429 128 128 255 0.139019 -0.990290 0.000000
0.861710 0.108585 1.004144 128 128 255 0.046010 -0.998941 0.000000
0.896134 0.110171 1.064497 128 128 255 0.046010 -0.998941 0.000000
0.930132 0.111737 1.123215 128 128 255 0.024783 -0.999693 0.000000
1.019268 0.113284 1.180041 128 128 255 0.025478 -0.999675 0.000000
1.052438 0.114811 1.234738 128 128 255 0.046010 -0.998941 0.000000
1.085204 0.116321 1.287090 128 128 255 0.046010 -0.998941 0.000000
1.117572 0.117811 1.336908 128 128 255 0.331207 -0.943558 0.000000
1.093994 0.119284 1.384031 128 128 255 0.342030 -0.939689 0.000000
1.125588 0.120739 1.428329 128 128 255 0.046010 -0.998941 0.000000
1.156804 0.122177 1.469704 128 128 255 0.046010 -0.998941 0.000000
1.187648 0.123598 1.508093 128 128 255 0.024321 -0.999704 0.000000
1.273684 0.125002 1.543466 128 128 255 0.023815 -0.999716 0.000000
1.303805 0.126389 1.575831 128 128 255 0.046011 -0.998941 0.000000
1.303805 0.126389 1.381410 128 128 255 -0.046011 0.998941 0.000000
1.273684 0.125002 1.376928 128 128 255 -0.021102 0.999777 0.000000
1.187648 0.123598 1.371705 128 128 255 -0.025840 0.999666 0.000000
1.156804 0.122177 1.365336 128 128 255 -0.046010 0.998941 0.000000
1.125588 0.120739 1.357425 128 128 255 -0.046010 0.998941 0.000000
1.093994 0.119284 1.347594 128 128 255 -0.433026 0.901381 0.000000
1.117572 0.117811 1.335483 128 128 255 -0.283325 0.959024 0.000000
1.085204 0.116321 1.320757 128 128 255 -0.046010 0.998941 0.000000
1.052438 0.114811 1.303111 128 128 255 -0.046010 0.998941 0.000000
1.019268 0.113284 1.282275 128 128 255 -0.025145 0.999684 0.000000
0.930132 0.111737 1.258013 128 128 255 -0.025191 0.999683 0.000000
0.896134 0.110171 1.230131 128 128 255 -0.046010 0.998941 0.000000
0.861710 0.108585 1.198476 128 128 255 -0.046010 0.998941 0.000000
0.826855 0.106980 1.162939 128 128 255 -0.200829 0.979626 0.000000
0.847117 0.105354 1.123457 128 128 255 -0.226782 0.973946 0.000000
0.811377 0.103708 1.080013 128 128 255 -0.046010 0.998941 0.000000
0.775183 0.102041 1.032637 128 128 255 -0.026516 0.999648 0.000000
0.682972 0.100353 0.981402 128 128 255 -0.025825 0.999666 0.000000
0.645849 0.098643 0.926427 128 128 255 -0.046010 0.998941 0.000000
0.608249 0.096911 0.867874 128 128 255 -0.150266 0.988646 0.000000
0.625720 0.095157 0.805943 128 128 255 -0.193900 0.981021 0.000000
0.587144 0.093380 0.740873 128 128 255 -0.046010 0.998941 0.000000
0.548067 0.091580 0.672936 128 128 255 -0.046010 0.998941 0.000000
0.508481 0.089757 0.602432 128 128 255 -0.028207 0.999602 0.000000
0.412822 0.087910 0.529690 128 128 255 -0.026016 0.999662 0.000000
0.372193 0.086039 0.455055 128 128 255 -0.046010 0.998941 0.000000
0.331027 0.084143 0.378893 128 128 255 -0.090187 0.995925 0.000000
0.344872 0.082221 0.301578 128 128 255 -0.144455 0.989511 0.000000
0.302606 0.080275 0.282565 128 128 255 -0.046010 0.998941 0.000000
0.259775 0.078302 0.262360 128 128 255 -0.026726 0.999643 0.000000
0.160811 0.076303 0.240548 128 128 255 -0.029006 0.999579 0.000000
0.116816 0.074276 0.216728 128 128 255 -0.046010 0.998941 0.000000
0.072222 0.072222 0.190513 128 128 255 0.854059 0.520176 0.000000
0.082560 0.125695 0.164083 128 128 255 0.806998 0.590555 0.000000
0.036695 0.123583 0.134595 128 128 255 -0.028622 0.999590 0.000000
-0.065388 0.121440 0.101746 128 128 255 -0.028959 0.999581 0.000000
-0.112591 0.119265 0.065269 128 128 255 -0.046010 0.998941 0.000000
-0.160484 0.117060 0.024935 128 128 255 -0.106964 0.994263 0.000000
-0.153524 0.114821 -0.019443 128 128 255 -0.107529 0.994202 0.000000
-0.202838 0.112550 -0.068006 128 128 255 -0.029701 0.999559 0.000000
-0.308438 0.110245 -0.120851 128 128 255 -0.029465 0.999566 0.000000
-0.359228 0.107906 -0.178025 128 128 255 -0.046010 0.998941 0.000000
-0.410776 0.105531 -0.239530 128 128 255 -0.095358 0.995443 0.000000
-0.407543 0.103121 -0.305318 128 128 255 -0.100722 0.994915 0.000000
-0.460651 0.100675 -0.375295 128 128 255 -0.030711 0.999528 0.000000
-0.570116 0.098192 -0.449327 128 128 255 -0.030007 0.999550 0.000000
-0.624841 0.095672 -0.527235 128 128 255 -0.087985 0.996122 0.000000
-0.624839 0.093113 -0.608807 128 128 255 -0.096527 0.995330 0.000000
-0.681238 0.090515 -0.693797 128 128 255 -0.046010 0.998941 0.000000
-0.624839 0.093113 -0.655135 128 128 255 0.084579 -0.996417 0.000000
-0.624841 0.095672 -0.619274 128 128 255 0.101932 -0.994791 0.000000
-0.570116 0.098192 -0.585852 128 128 255 0.031729 -0.999497 0.000000
-0.460651 0.100675 -0.554490 128 128 255 0.028744 -0.999587 0.000000
-0.407543 0.103121 -0.524797 128 128 255 0.074918 -0.997190 0.000000
-0.410776 0.105531 -0.496376 128 128 255 0.105435 -0.994426 0.000000
-0.359228 0.107906 -0.409745 128 128 255 0.046010 -0.998941 0.000000
-0.308438 0.110245 -0.324378 128 128 255 0.028488 -0.999594 0.000000
-0.202838 0.112550 -0.240664 128 128 255 0.030310 -0.999541 0.000000
-0.153524 0.114821 -0.158981 128 128 255 0.112888 -0.993608 0.000000
-0.160484 0.117060 -0.079689 128 128 255 0.103610 -0.994618 0.000000
-0.112591 0.119265 -0.003125 128 128 255 0.046010 -0.998941 0.000000
-0.065388 0.121440 0.070399 128 128 255 0.028791 -0.999585 0.000000
0.036695 0.123583 0.140606 128 128 255 0.028789 -0.999586 0.000000
0.082560 0.125695 0.207250 128 128 255 0.046011 -0.998941 0.000000
0.127778 0.127778 0.270126 128 128 255 -0.826428 -0.563043 0.000000
0.116816 0.074276 0.331579 128 128 255 -0.850367 -0.526190 0.000000
0.160811 0.076303 0.388949 128 128 255 0.028347 -0.999598 0.000000
0.259775 0.078302 0.442163 128 128 255 0.027760 -0.999615 0.000000
0.302606 0.080275 0.491196 128 128 255 0.046010 -0.998941 0.000000
0.344872 0.082221 0.536068 128 128 255 0.127131 -0.991886 0.000000
0.331027 0.084143 0.576847 128 128 255 0.149041 -0.988831 0.000000
0.372193 0.086039 0.613645 128 128 255 0.046010 -0.998941 0.000000
0.412822 0.087910 0.646620 128 128 255 0.027808 -0.999613 0.000000
0.508481 0.089757 0.675970 128 128 255 0.026552 -0.999647 0.000000
0.548067 0.091580 0.701935 128 128 255 0.046010 -0.998941 0.000000
0.587144 0.093380 0.724792 128 128 255 0.046010 -0.998941 0.000000
0.625720 0.095157 0.744851 128 128 255 0.135780 -0.990739 0.000000
0.608249 0.096911 0.762450 128 128 255 0.233399 -0.972381 0.000000
0.645849 0.098643 0.777953 128 128 255 0.046010 -0.998941 0.000000
0.682972 0.100353 0.791746 128 128 255 0.028587 -0.999591 0.000000
0.775183 0.102041 0.804228 128 128 255 0.022647 -0.999744 0.000000
0.811377 0.103708 0.815809 128 128 255 0.046010 -0.998941 0.000000
0.847117 0.105354 0.885981 128 128 255 0.743196 0.669074 0.000000
0.826855 0.106980 0.955283 128 128 255 0.141570 -0.989928 0.000000
0.861710 0.108585 1.023333 128 128 255 0.046010 -0.998941 0.000000
0.896134 0.110171 1.089764 128 128 255 0.046010 -0.998941 0.000000
0.930132 0.111737 1.154220 128 128 255 0.024867 -0.999691 0.000000
1.019268 0.113284 1.216366 128 128 255 0.025390 -0.999678 0.000000
1.052438 0.114811 1.275894 128 128 255 0.046010 -0.998941 0.000000
1.085204 0.116321 1.332524 128 128 255 0.046010 -0.998941 0.000000
1.117572 0.117811 1.386008 128 128 255 0.317100 -0.948392 0.000000
1.093994 0.119284 1.436136 128 128 255 0.358298 -0.933607 0.000000
1.125588 0.120739 1.482738 128 128 255 0.046010 -0.998941 0.000000
1.156804 0.122177 1.525686 128 128 255 0.046010 -0.998941 0.000000
1.187648 0.123598 1.564894 128 128 255 0.024409 -0.999702 0.000000
1.273684 0.125002 1.600324 128 128 255 0.023732 -0.999718 0.000000
1.303805 0.126389 1.631981 128 128 255 0.046011 -0.998941 0.000000
1.303805 0.126389 1.381957 128 128 255 -0.046011 0.998941 0.000000
1.273684 0.125002 1.383211 128 128 255 -0.021223 0.999775 0.000000
1.187648 0.123598 1.383647 128 128 255 -0.025700 0.999670 0.000000
1.156804 0.122177 1.382782 128 128 255 -0.046010 0.998941 0.000000
1.125588 0.120739 1.380149 128 128 255 -0.046010 0.998941 0.000000
1.093994 0.119284 1.375297 128 128 255 -0.403208 0.915108 0.000000
1.117572 0.117811 1.367800 128 128 255 -0.298486 0.954414 0.000000
1.085204 0.116321 1.357263 128 128 255 -0.046010 0.998941 0.000000
1.052438 0.114811 1.343324 128 128 255 -0.046010 0.998941 0.000000
1.019268 0.113284 1.325663 128 128 255 -0.025257 0.999681 0.000000
0.930132 0.111737 1.304002 128 128 255 -0.025079 0.999685 0.000000
0.896134 0.110171 1.278112 128 128 255 -0.046010 0.998941 0.000000
0.861710 0.108585 1.247815 128 128 255 -0.046010 0.998941 0.000000
0.826855 0.106980 1.212984 128 128 255 -0.194435 0.980915 0.000000
0.847117 0.105354 1.173547 128 128 255 -0.235425 0.971893 0.000000
0.811377 0.103708 1.129488 128 128 255 -0.046010 0.998941 0.000000
0.775183 0.102041 1.080843 128 128 255 -0.026628 0.999645 0.000000
0.682972 0.100353 1.027706 128 128 255 -0.025721 0.999669 0.000000
0.645849 0.098643 0.970222 128 128 255 -0.046010 0.998941 0.000000
0.608249 0.096911 0.908586 128 128 255 -0.147039 0.989131 0.000000
0.625720 0.095157 0.843042 128 128 255 -0.199394 0.979919 0.000000
0.587144 0.093380 0.773878 128 128 255 -0.046010 0.998941 0.000000
0.548067 0.091580 0.701421 128 128 255 -0.046010 0.998941 0.000000
0.508481 0.089757 0.626036 128 128 255 -0.028302 0.999599 0.000000
0.412822 0.087910 0.548115 128 128 255 -0.025948 0.999663 0.000000
0.372193 0.086039 0.468077 128 128 255 -0.046010 0.998941 0.000000
0.331027 0.084143 0.386361 128 128 255 -0.090905 0.995860 0.000000
0.344872 0.082221 0.303416 128 128 255 -0.148188 0.988959 0.000000
0.302606 0.080275 0.290104 128 128 255 -0.046010 0.998941 0.000000
0.259775 0.078302 0.275526 128 128 255 -0.026841 0.999640 0.000000
0.160811 0.076303 0.259192 128 128 255 -0.028884 0.999583 0.000000
0.116816 0.074276 0.240628 128 128 255 -0.046010 0.998941 0.000000
0.072222 0.072222 0.219377 128 128 255 0.847668 0.530527 0.000000
0.082560 0.125695 0.197554 128 128 255 0.814276 0.580478 0.000000
0.036695 0.123583 0.172253 128 128 255 -0.028727 0.999587 0.000000
-0.065388 0.121440 0.143118 128 128 255 -0.028852 0.999584 0.000000
-0.112591 0.119265 0.109830 128 128 255 -0.046010 0.998941 0.000000
-0.160484 0.117060 0.072118 128 128 255 -0.105596 0.994409 0.000000
-0.153524 0.114821 0.029762 128 128 255 -0.108945 0.994048 0.000000
-0.202838 0.112550 -0.017410 128 128 255 -0.029806 0.999556 0.000000
-0.308438 0.110245 -0.069512 128 128 255 -0.029364 0.999569 0.000000
-0.359228 0.107906 -0.126605 128 128 255 -0.046010 0.998941 0.000000
-0.410776 0.105531 -0.188692 128 128 255 -0.094357 0.995538 0.000000
-0.407543 0.103121 -0.255722 128 128 255 -0.101857 0.994799 0.000000
-0.460651 0.100675 -0.327588 128 128 255 -0.030813 0.999525 0.000000
-0.570116 0.098192 -0.404132 128 128 255 -0.029912 0.999553 0.000000
-0.624841 0.095672 -0.485148 128 128 255 -0.087207 0.996190 0.000000
-0.624839 0.093113 -0.570385 128 128 255 -0.097466 0.995239 0.000000
-0.681238 0.090515 -0.659549 128 128 255 -0.046010 0.998941 0.000000
-0.624839 0.093113 -0.625516 128 128 255 0.083910 -0.996473 0.000000
-0.624841 0.095672 -0.594676 128 128 255 0.102867 -0.994695 0.000000
-0.570116 0.098192 -0.566598 128 128 255 0.031813 -0.999494 0.000000
-0.460651 0.100675 -0.540827 128 128 255 0.028692 -0.999588 0.000000
-0.407543 0.103121 -0.516895 128 128 255 0.074965 -0.997186 0.000000
-0.410776 0.105531 -0.494322 128 128 255 0.107167 -0.994241 0.000000
-0.359228 0.107906 -0.402218 128 128 255 0.046010 -0.998941 0.000000
-0.308438 0.110245 -0.311456 128 128 255 0.028597 -0.999591 0.000000
-0.202838 0.112550 -0.222497 128 128 255 0.030193 -0.999544 0.000000
-0.153524 0.114821 -0.135790 128 128 255 0.111276 -0.993790 0.000000
-0.160484 0.117060 -0.051761 128 128 255 0.105000 -0.994472 0.000000
-0.112591 0.119265 0.029185 128 128 255 0.046010 -0.998941 0.000000
-0.065388 0.121440 0.106679 128 128 255 0.028902 -0.999582 0.000000
0.036695 0.123583 0.180386 128 128 255 0.028678 -0.999589 0.000000
0.082560 0.125695 0.250014 128 128 255 0.046011 -0.998941 0.000000
0.127778 0.127778 0.315315 128 128 255 -0.819031 -0.573749 0.000000
0.116816 0.074276 0.378598 128 128 255 -0.856978 -0.515353 0.000000
0.160811 0.076303 0.437178 128 128 255 0.028462 -0.999595 0.000000
0.259775 0.078302 0.490964 128 128 255 0.027651 -0.999618 0.000000
0.302606 0.080275 0.539921 128 128 255 0.046010 -0.998941 0.000000
0.344872 0.082221 0.584069 128 128 255 0.124797 -0.992182 0.000000
0.331027 0.084143 0.623484 128 128 255 0.152366 -0.988324 0.000000
0.372193 0.086039 0.658296 128 128 255 0.046010 -0.998941 0.000000
0.412822 0.087910 0.688688 128 128 255 0.027927 -0.999610 0.000000
0.508481 0.089757 0.714893 128 128 255 0.026444 -0.999650 0.000000
0.548067 0.091580 0.737192 128 128 255 0.046010 -0.998941 0.000000
0.587144 0.093380 0.755911 128 128 255 0.046010 -0.998941 0.000000
0.625720 0.095157 0.771415 128 128 255 0.132956 -0.991122 0.000000
0.608249 0.096911 0.784103 128 128 255 0.241905 -0.970300 0.000000
0.645849 0.098643 0.794406 128 128 255 0.046010 -0.998941 0.000000
0.682972 0.100353 0.802779 128 128 255 0.028701 -0.999588 0.000000
0.775183 0.102041 0.809694 128 128 255 0.022617 -0.999744 0.000000
0.811377 0.103708 0.815637 128 128 255 0.046010 -0.998941 0.000000
0.847117 0.105354 0.891504 128 128 255 0.805449 0.592664 0.000000
0.826855 0.106980 0.966427 128 128 255 0.145090 -0.989418 0.000000
0.861710 0.108585 1.039952 128 128 255 0.046010 -0.998941 0.000000
0.896134 0.110171 1.111634 128 128 255 0.046010 -0.998941 0.000000
0.930132 0.111737 1.181049 128 128 255 0.024980 -0.999688 0.000000
1.019268 0.113284 1.247794 128 128 255 0.025273 -0.999681 0.000000
1.052438 0.114811 1.311499 128 128 255 0.046010 -0.998941 0.000000
1.085204 0.116321 1.371827 128 128 255 0.046010 -0.998941 0.000000
1.117572 0.117811 1.428482 128 128 255 0.299893 -0.953973 0.000000
1.093994 0.119284 1.481210 128 128 255 0.382463 -0.923971 0.000000
1.125588 0.120739 1.529807 128 128 255 0.046010 -0.998941 0.000000
1.156804 0.122177 1.574118 128 128 255 0.046010 -0.998941 0.000000
1.187648 0.123598 1.614040 128 128 255 0.024527 -0.999699 0.000000
1.273684 0.125002 1.649524 128 128 255 0.023621 -0.999721 0.000000
1.303805 0.126389 1.680576 128 128 255 0.046011 -0.998941 0.000000
1.303805 0.126389 1.382560 128 128 255 -0.046011 0.998941 0.000000
1.273684 0.125002 1.388481 128 128 255 -0.021410 0.999771 0.000000
1.187648 0.123598 1.393518 128 128 255 -0.025491 0.999675 0.000000
1.156804 0.122177 1.397131 128 128 255 -0.046010 0.998941 0.000000
1.125588 0.120739 1.398790 128 128 255 -0.046010 0.998941 0.000000
1.093994 0.119284 1.397988 128 128 255 -0.364741 0.931109 0.000000
1.117572 0.117811 1.394245 128 128 255 -0.324478 0.945893 0.000000
1.085204 0.116321 1.387115 128 128 255 -0.046010 0.998941 0.000000
1.052438 0.114811 1.376193 128 128 255 -0.046010 0.998941 0.000000
1.019268 0.113284 1.361116 128 128 255 -0.025429 0.999677 0.000000
0.930132 0.111737 1.341573 128 128 255 -0.024913 0.999690 0.000000
0.896134 0.110171 1.317308 128 128 255 -0.046010 0.998941 0.000000
0.861710 0.108585 1.288120 128 128 255 -0.046010 0.998941 0.000000
0.826855 0.106980 1.253869 128 128 255 -0.185531 0.982638 0.000000
0.847117 0.105354 1.214475 128 128 255 -0.249693 0.968325 0.000000
0.811377 0.103708 1.169922 128 128 255 -0.046010 0.998941 0.000000
0.775183 0.102041 1.120255 128 128 255 -0.026797 0.999641 0.000000
0.682972 0.100353 1.065581 128 128 255 -0.025566 0.999673 0.000000
0.645849 0.098643 1.006066 128 128 255 -0.046010 0.998941 0.000000
0.608249 0.096911 0.941934 128 128 255 -0.142481 0.989798 0.000000
0.625720 0.095157 0.873463 128 128 255 -0.208121 0.978103 0.000000
0.587144 0.093380 0.800982 128 128 255 -0.046010 0.998941 0.000000
0.548067 0.091580 0.724864 128 128 255 -0.046010 0.998941 0.000000
0.508481 0.089757 0.645522 128 128 255 -0.028439 0.999596 0.000000
0.412822 0.087910 0.563405 128 128 255 -0.025854 0.999666 0.000000
0.372193 0.086039 0.478988 128 128 255 -0.046010 0.998941 0.000000
0.331027 0.084143 0.392770 128 128 255 -0.092097 0.995750 0.000000
0.344872 0.082221 0.305262 128 128 255 -0.152790 0.988259 0.000000
0.302606 0.080275 0.296579 128 128 255 -0.046010 0.998941 0.000000
0.259775 0.078302 0.286568 128 128 255 -0.027014 0.999635 0.000000
0.160811 0.076303 0.274681 128 128 255 -0.028705 0.999588 0.000000
0.116816 0.074276 0.260384 128 128 255 -0.046010 0.998941 0.000000
0.072222 0.072222 0.243164 128 128 255 0.837849 0.545902 0.000000
0.082560 0.125695 0.225080 128 128 255 0.824846 0.565358 0.000000
0.036695 0.123583 0.203179 128 128 255 -0.028886 0.999583 0.000000
-0.065388 0.121440 0.177056 128 128 255 -0.028694 0.999588 0.000000
-0.112591 0.119265 0.146356 128 128 255 -0.046010 0.998941 0.000000
-0.160484 0.117060 0.110771 128 128 255 -0.103615 0.994617 0.000000
-0.153524 0.114821 0.070052 128 128 255 -0.111131 0.993806 0.000000
-0.202838 0.112550 0.024005 128 128 255 -0.029963 0.999551 0.000000
-0.308438 0.110245 -0.027501 128 128 255 -0.029213 0.999573 0.000000
-0.359228 0.107906 -0.084535 128 128 255 -0.046010 0.998941 0.000000
-0.410776 0.105531 -0.147104 128 128 255 -0.092905 0.995675 0.000000
-0.407543 0.103121 -0.215152 128 128 255 -0.103592 0.994620 0.000000
-0.460651 0.100675 -0.288562 128 128 255 -0.030964 0.999520 0.000000
-0.570116 0.098192 -0.367159 128 128 255 -0.029772 0.999557 0.000000
-0.624841 0.095672 -0.450709 128 128 255 -0.086080 0.996288 0.000000
-0.624839 0.093113 -0.538931 128 128 255 -0.098885 0.995099 0.000000
-0.681238 0.090515 -0.631493 128 128 255 -0.046010 0.998941 0.000000
-0.624839 0.093113 -0.601225 128 128 255 0.082951 -0.996554 0.000000
-0.624841 0.095672 -0.574466 128 128 255 0.104249 -0.994551 0.000000
-0.570116 0.098192 -0.550729 128 128 255 0.031933 -0.999490 0.000000
-0.460651 0.100675 -0.529500 128 128 255 0.028625 -0.999590 0.000000
-0.407543 0.103121 -0.510248 128 128 255 0.075157 -0.997172 0.000000
-0.410776 0.105531 -0.492427 128 128 255 0.109527 -0.993984 0.000000
-0.359228 0.107906 -0.395893 128 128 255 0.046010 -0.998941 0.000000
-0.308438 0.110245 -0.300766 128 128 255 0.028764 -0.999586 0.000000
-0.202838 0.112550 -0.207564 128 128 255 0.030019 -0.999549 0.000000
-0.153524 0.114821 -0.116795 128 128 255 0.108917 -0.994051 0.000000
-0.160484 0.117060 -0.028939 128 128 255 0.107182 -0.994239 0.000000
-0.112591 0.119265 0.055548 128 128 255 0.046010 -0.998941 0.000000
-0.065388 0.121440 0.136247 128 128 255 0.029073 -0.999577 0.000000
0.036695 0.123583 0.212779 128 128 255 0.028512 -0.999593 0.000000
0.082560 0.125695 0.284813 128 128 255 0.046011 -0.998941 0.000000
0.127778 0.127778 0.352066 128 128 255 -0.807416 -0.589982 0.000000
0.116816 0.074276 0.416821 128 128 255 -0.866725 -0.498787 0.000000
0.160811 0.076303 0.476370 128 128 255 0.028640 -0.999590 0.000000
0.259775 0.078302 0.530609 128 128 255 0.027485 -0.999622 0.000000
0.302606 0.080275 0.579495 128 128 255 0.046010 -0.998941 0.000000
0.344872 0.082221 0.623047 128 128 255 0.121390 -0.992605 0.000000
0.331027 0.084143 0.661349 128 128 255 0.157740 -0.987481 0.000000
0.372193 0.086039 0.694545 128 128 255 0.046010 -0.998941 0.000000
0.412822 0.087910 0.722838 128 128 255 0.028111 -0.999605 0.000000
0.508481 0.089757 0.746488 128 128 255 0.026282 -0.999655 0.000000
0.548067 0.091580 0.765812 128 128 255 0.046010 -0.998941 0.000000
0.587144 0.093380 0.781173 128 128 255 0.046010 -0.998941 0.000000
0.625720 0.095157 0.792982 128 128 255 0.128867 -0.991662 0.000000
0.608249 0.096911 0.801689 128 128 255 0.256082 -0.966655 0.000000
0.645849 0.098643 0.807776 128 128 255 0.046010 -0.998941 0.000000
0.682972 0.100353 0.811756 128 128 255 0.028877 -0.999583 0.000000
0.775183 0.102041 0.814160 128 128 255 0.022567 -0.999745 0.000000
0.811377 0.103708 0.815535 128 128 255 0.046010 -0.998941 0.000000
0.847117 0.105354 0.896027 128 128 255 0.896079 0.443895 0.000000
0.826855 0.106980 0.975518 128 128 255 0.150765 -0.988570 0.000000
0.861710 0.108585 1.053490 128 128 255 0.046010 -0.998941 0.000000
0.896134 0.110171 1.129440 128 128 255 0.046010 -0.998941 0.000000
0.930132 0.111737 1.202885 128 128 255 0.025155 -0.999684 0.000000
1.019268 0.113284 1.273368 128 128 255 0.025097 -0.999685 0.000000
1.052438 0.114811 1.340470 128 128 255 0.046010 -0.998941 0.000000
1.085204 0.116321 1.403807 128 128 255 0.046010 -0.998941 0.000000
1.117572 0.117811 1.463043 128 128 255 0.276880 -0.960904 0.000000
1.093994 0.119284 1.517889 128 128 255 0.425437 -0.904988 0.000000
1.125588 0.120739 1.568114 128 128 255 0.046010 -0.998941 0.000000
1.156804 0.122177 1.613539 128 128 255 0.046010 -0.998941 0.000000
1.187648 0.123598 1.654048 128 128 255 0.024709 -0.999695 0.000000
1.273684 0.125002 1.689584 128 128 255 0.023456 -0.999725 0.000000
1.303805 0.126389 1.720154 128 128 255 0.046011 -0.998941 0.000000
1.303805 0.126389 1.383218 128 128 255 -0.046011 0.998941 0.000000
1.273684 0.125002 1.392593 128 128 255 -0.021749 0.999763 0.000000
1.187648 0.123598 1.401039 128 128 255 -0.025125 0.999684 0.000000
1.156804 0.122177 1.407967 128 128 255 -0.046010 0.998941 0.000000
1.125588 0.120739 1.412805 128 128 255 -0.046010 0.998941 0.000000
1.093994 0.119284 1.415003 128 128 255 -0.309876 0.950777 0.000000
1.117572 0.117811 1.414041 128 128 255 -0.384590 0.923087 0.000000
1.085204 0.116321 1.409436 128 128 255 -0.046010 0.998941 0.000000
1.052438 0.114811 1.400748 128 128 255 -0.046010 0.998941 0.000000
1.019268 0.113284 1.387588 128 128 255 -0.025749 0.999668 0.000000
0.930132 0.111737 1.369618 128 128 255 -0.024614 0.999697 0.000000
0.896134 0.110171 1.346561 128 128 255 -0.046010 0.998941 0.000000
0.861710 0.108585 1.318201 128 128 255 -0.046010 0.998941 0.000000
0.826855 0.106980 1.284387 128 128 255 -0.171212 0.985234 0.000000
0.847117 0.105354 1.245034 128 128 255 -0.280429 0.959875 0.000000
0.811377 0.103708 1.200125 128 128 255 -0.046010 0.998941 0.000000
0.775183 0.102041 1.149712 128 128 255 -0.027110 0.999632 0.000000
0.682972 0.100353 1.093912 128 128 255 -0.025292 0.999680 0.000000
0.645849 0.098643 1.032907 128 128 255 -0.046010 0.998941 0.000000
0.608249 0.096911 0.966943 128 128 255 -0.134980 0.990848 0.000000
0.625720 0.095157 0.896322 128 128 255 -0.225648 0.974209 0.000000
0.587144 0.093380 0.821402 128 128 255 -0.046010 0.998941 0.000000
0.548067 0.091580 0.742591 128 128 255 -0.046010 0.998941 0.000000
0.508481 0.089757 0.660339 128 128 255 -0.028676 0.999589 0.000000
0.412822 0.087910 0.575134 128 128 255 -0.025700 0.999670 0.000000
0.372193 0.086039 0.487495 128 128 255 -0.046010 0.998941 0.000000
0.331027 0.084143 0.397965 128 128 255 -0.094221 0.995551 0.000000
0.344872 0.082221 0.307100 128 128 255 -0.158858 0.987301 0.000000
0.302606 0.080275 0.301830 128 128 255 -0.046010 0.998941 0.000000
0.259775 0.078302 0.295189 128 128 255 -0.027316 0.999627 0.000000
0.160811 0.076303 0.286584 128 128 255 -0.028398 0.999597 0.000000
0.116816 0.074276 0.275435 128 128 255 -0.046010 0.998941 0.000000
0.072222 0.072222 0.261188 128 128 255 0.819500 0.573079 0.000000
0.082560 0.125695 0.245863 128 128 255 0.842868 0.538121 0.000000
0.036695 0.123583 0.226470 128 128 255 -0.029174 0.999574 0.000000
-0.065388 0.121440 0.202572 128 128 255 -0.028415 0.999596 0.000000
-0.112591 0.119265 0.173781 128 128 255 -0.046010 0.998941 0.000000
-0.160484 0.117060 0.139765 128 128 255 -0.100226 0.994965 0.000000
-0.153524 0.114821 0.100252 128 128 255 -0.115301 0.993331 0.000000
-0.202838 0.112550 0.055034 128 128 255 -0.030250 0.999542 0.000000
-0.308438 0.110245 0.003965 128 128 255 -0.028946 0.999581 0.000000
-0.359228 0.107906 -0.053030 128 128 255 -0.046010 0.998941 0.000000
-0.410776 0.105531 -0.115960 128 128 255 -0.090405 0.995905 0.000000
-0.407543 0.103121 -0.184766 128 128 255 -0.106856 0.994275 0.000000
-0.460651 0.100675 -0.259323 128 128 255 -0.031240 0.999512 0.000000
-0.570116 0.098192 -0.339442 128 128 255 -0.029525 0.999564 0.000000
-0.624841 0.095672 -0.424873 128 128 255 -0.084145 0.996454 0.000000
-0.624839 0.093113 -0.515307 128 128 255 -0.101501 0.994835 0.000000
-0.681238 0.090515 -0.610386 128 128 255 -0.046010 0.998941 0.000000
-0.624839 0.093113 -0.582906 128 128 255 0.081331 -0.996687 0.000000
-0.624841 0.095672 -0.559171 128 128 255 0.106707 -0.994290 0.000000
-0.570116 0.098192 -0.538649 128 128 255 0.032134 -0.999484 0.000000
-0.460651 0.100675 -0.520785 128 128 255 0.028522 -0.999593 0.000000
-0.407543 0.103121 -0.505000 128 128 255 0.075634 -0.997136 0.000000
-0.410776 0.105531 -0.490700 128 128 255 0.113027 -0.993592 0.000000
-0.359228 0.107906 -0.390922 128 128 255 0.046010 -0.998941 0.000000
-0.308438 0.110245 -0.292600 128 128 255 0.029073 -0.999577 0.000000
-0.202838 0.112550 -0.196296 128 128 255 0.029705 -0.999559 0.000000
-0.153524 0.114821 -0.102556 128 128 255 0.104836 -0.994490 0.000000
-0.160484 0.117060 -0.011903 128 128 255 0.111451 -0.993770 0.000000
-0.112591 0.119265 0.075170 128 128 255 0.046010 -0.998941 0.000000
-0.065388 0.121440 0.158207 128 128 255 0.029395 -0.999568 0.000000
0.036695 0.123583 0.236799 128 128 255 0.028208 -0.999602 0.000000
0.082560 0.125695 0.310585 128 128 255 0.046010 -0.998941 0.000000
0.127778 0.127778 0.379257 128 128 255 -0.784679 -0.619902 0.000000
0.116816 0.074276 0.445079 128 128 255 -0.883825 -0.467817 0.000000
0.160811 0.076303 0.505326 128 128 255 0.028979 -0.999580 0.000000
0.259775 0.078302 0.559884 128 128 255 0.027180 -0.999631 0.000000
0.302606 0.080275 0.608704 128 128 255 0.046010 -0.998941 0.000000
0.344872 0.082221 0.651807 128 128 255 0.115482 -0.993309 0.000000
0.331027 0.084143 0.689280 128 128 255 0.168879 -0.985637 0.000000
0.372193 0.086039 0.721277 128 128 255 0.046010 -0.998941 0.000000
0.412822 0.087910 0.748017 128 128 255 0.028462 -0.999595 0.000000
0.508481 0.089757 0.769782 128 128 255 0.025984 -0.999662 0.000000
0.548067 0.091580 0.786911 128 128 255 0.046010 -0.998941 0.000000
0.587144 0.093380 0.799799 128 128 255 0.046010 -0.998941 0.000000
0.625720 0.095157 0.808887 128 128 255 0.121877 -0.992545 0.000000
0.608249 0.096911 0.814662 128 128 255 0.287164 -0.957881 0.000000
0.645849 0.098643 0.817648 128 128 255 0.046010 -0.998941 0.000000
0.682972 0.100353 0.818396 128 128 255 0.029206 -0.999573 0.000000
0.775183 0.102041 0.817483 128 128 255 0.022474 -0.999747 0.000000
0.811377 0.103708 0.815500 128 128 255 0.046010 -0.998941 0.000000
0.847117 0.105354 0.899408 128 128 255 0.998662 0.051722 0.000000
0.826855 0.106980 0.982274 128 128 255 0.162648 -0.986684 0.000000
0.861710 0.108585 1.063533 128 128 255 0.046010 -0.998941 0.000000
0.896134 0.110171 1.142639 128 128 255 0.046010 -0.998941 0.000000
0.930132 0.111737 1.219064 128 128 255 0.025487 -0.999675 0.000000
1.019268 0.113284 1.292315 128 128 255 0.024776 -0.999693 0.000000
1.052438 0.114811 1.361931 128 128 255 0.046010 -0.998941 0.000000
1.085204 0.116321 1.427497 128 128 255 0.046010 -0.998941 0.000000
1.117572 0.117811 1.488647 128 128 255 0.242056 -0.970262 0.000000
1.093994 0.119284 1.545068 128 128 255 0.532076 -0.846697 0.000000
1.125588 0.120739 1.596503 128 128 255 0.046010 -0.998941 0.000000
1.156804 0.122177 1.642763 128 128 255 0.046010 -0.998941 0.000000
1.187648 0.123598 1.683716 128 128 255 0.025052 -0.999686 0.000000
1.273684 0.125002 1.719303 128 128 255 0.023157 -0.999732 0.000000
1.303805 0.126389 1.749528 128 128 255 0.046011 -0.998941 0.000000
1.303805 0.126389 1.383926 128 128 255 -0.046011 0.998941 0.000000
1.273684 0.125002 1.395444 128 128 255 -0.022589 0.999745 0.000000
1.187648 0.123598 1.406003 128 128 255 -0.024250 0.999706 0.000000
1.156804 0.122177 1.414985 128 128 255 -0.046010 0.998941 0.000000
1.125588 0.120739 1.421793 128 128 255 -0.046010 0.998941 0.000000
1.093994 0.119284 1.425850 128 128 255 -0.220051 0.975488 0.000000
1.117572 0.117811 1.426612 128 128 255 -0.696885 0.717183 0.000000
1.085204 0.116321 1.423574 128 128 255 -0.046010 0.998941 0.000000
1.052438 0.114811 1.416275 128 128 255 -0.046010 0.998941 0.000000
1.019268 0.113284 1.404307 128 128 255 -0.026647 0.999645 0.000000
0.930132 0.111737 1.387318 128 128 255 -0.023847 0.999716 0.000000
0.896134 0.110171 1.365017 128 128 255 -0.046010 0.998941 0.000000
0.861710 0.108585 1.337178 128 128 255 -0.046010 0.998941 0.000000
0.826855 0.106980 1.303646 128 128 255 -0.141888 0.989883 0.000000
0.847117 0.105354 1.264331 128 128 255 -0.411889 0.911234 0.000000
0.811377 0.103708 1.219217 128 128 255 -0.046010 0.998941 0.000000
0.775183 0.102041 1.168358 128 128 255 -0.027970 0.999609 0.000000
0.682972 0.100353 1.111879 128 128 255 -0.024599 0.999697 0.000000
0.645849 0.098643 1.049972 128 128 255 -0.046010 0.998941 0.000000
0.608249 0.096911 0.982893 128 128 255 -0.118866 0.992910 0.000000
0.625720 0.095157 0.910963 128 128 255 -0.286216 0.958165 0.000000
0.587144 0.093380 0.834558 128 128 255 -0.046010 0.998941 0.000000
0.548067 0.091580 0.754104 128 128 255 -0.046010 0.998941 0.000000
0.508481 0.089757 0.670076 128 128 255 -0.029248 0.999572 0.000000
0.412822 0.087910 0.582987 128 128 255 -0.025369 0.999678 0.000000
0.372193 0.086039 0.493382 128 128 255 -0.046010 0.998941 0.000000
0.331027 0.084143 0.401828 128 128 255 -0.098637 0.995123 0.000000
0.344872 0.082221 0.308913 128 128 255 -0.167628 0.985850 0.000000
0.302606 0.080275 0.305740 128 128 255 -0.046010 0.998941 0.000000
0.259775 0.078302 0.301169 128 128 255 -0.028011 0.999608 0.000000
0.160811 0.076303 0.294579 128 128 255 -0.027697 0.999616 0.000000
0.116816 0.074276 0.285364 128 128 255 -0.046010 0.998941 0.000000
0.072222 0.072222 0.272945 128 128 255 0.768811 0.639476 0.000000
0.082560 0.125695 0.259316 128 128 255 0.883505 0.468421 0.000000
0.036695 0.123583 0.241465 128 128 255 -0.029942 0.999552 0.000000
-0.065388 0.121440 0.218935 128 128 255 -0.027718 0.999616 0.000000
-0.112591 0.119265 0.191318 128 128 255 -0.046010 0.998941 0.000000
-0.160484 0.117060 0.158268 128 128 255 -0.092357 0.995726 0.000000
-0.153524 0.114821 0.119498 128 128 255 -0.127791 0.991801 0.000000
-0.202838 0.112550 0.074790 128 128 255 -0.031026 0.999519 0.000000
-0.308438 0.110245 0.023990 128 128 255 -0.028272 0.999600 0.000000
-0.359228 0.107906 -0.032982 128 128 255 -0.046010 0.998941 0.000000
-0.410776 0.105531 -0.096136 128 128 255 -0.084502 0.996423 0.000000
-0.407543 0.103121 -0.165412 128 128 255 -0.116326 0.993211 0.000000
-0.460651 0.100675 -0.240680 128 128 255 -0.031972 0.999489 0.000000
-0.570116 0.098192 -0.321742 128 128 255 -0.028911 0.999582 0.000000
-0.624841 0.095672 -0.408337 128 128 255 -0.079601 0.996827 0.000000
-0.624839 0.093113 -0.500144 128 128 255 -0.108727 0.994072 0.000000
-0.681238 0.090515 -0.596785 128 128 255 -0.046010 0.998941 0.000000
-0.624839 0.093113 -0.571036 128 128 255 0.077647 -0.996981 0.000000
-0.624841 0.095672 -0.549177 128 128 255 0.112999 -0.993595 0.000000
-0.570116 0.098192 -0.530653 128 128 255 0.032595 -0.999469 0.000000
-0.460651 0.100675 -0.514880 128 128 255 0.028316 -0.999599 0.000000
-0.407543 0.103121 -0.501251 128 128 255 0.076812 -0.997046 0.000000
-0.410776 0.105531 -0.489143 128 128 255 0.118949 -0.992900 0.000000
-0.359228 0.107906 -0.387415 128 128 255 0.046010 -0.998941 0.000000
-0.308438 0.110245 -0.287173 128 128 255 0.029868 -0.999554 0.000000
-0.202838 0.112550 -0.189006 128 128 255 0.028918 -0.999582 0.000000
-0.153524 0.114821 -0.093485 128 128 255 0.095284 -0.995450 0.000000
-0.160484 0.117060 -0.001156 128 128 255 0.124996 -0.992157 0.000000
-0.112591 0.119265 0.087464 128 128 255 0.046010 -0.998941 0.000000
-0.065388 0.121440 0.171899 128 128 255 0.030332 -0.999540 0.000000
0.036695 0.123583 0.251720 128 128 255 0.027388 -0.999625 0.000000
0.082560 0.125695 0.326547 128 128 255 0.046010 -0.998941 0.000000
0.127778 0.127778 0.396060 128 128 255 -0.713421 -0.700736 0.000000
0.116816 0.074276 0.462508 128 128 255 -0.924649 -0.380819 0.000000
0.160811 0.076303 0.523159 128 128 255 0.029987 -0.999550 0.000000
0.259775 0.078302 0.577891 128 128 255 0.026348 -0.999653 0.000000
0.302606 0.080275 0.626652 128 128 255 0.046010 -0.998941 0.000000
0.344872 0.082221 0.669464 128 128 255 0.101385 -0.994847 0.000000
0.331027 0.084143 0.706416 128 128 255 0.211270 -0.977428 0.000000
0.372193 0.086039 0.737669 128 128 255 0.046010 -0.998941 0.000000
0.412822 0.087910 0.763452 128 128 255 0.029513 -0.999564 0.000000
0.508481 0.089757 0.784057 128 128 255 0.025170 -0.999683 0.000000
0.548067 0.091580 0.799839 128 128 255 0.046010 -0.998941 0.000000
0.587144 0.093380 0.811212 128 128 255 0.046010 -0.998941 0.000000
0.625720 0.095157 0.818636 128 128 255 0.105699 -0.994398 0.000000
0.608249 0.096911 0.822621 128 128 255 0.428644 -0.903474 0.000000
0.645849 0.098643 0.823713 128 128 255 0.046010 -0.998941 0.000000
0.682972 0.100353 0.822490 128 128 255 0.030130 -0.999546 0.000000
0.775183 0.102041 0.819556 128 128 255 0.022240 -0.999753 0.000000
0.811377 0.103708 0.815527 128 128 255 0.046010 -0.998941 0.000000
0.847117 0.105354 0.901541 128 128 255 0.621323 -0.783555 0.000000
0.826855 0.106980 0.986488 128 128 255 0.210454 -0.977604 0.000000
0.861710 0.108585 1.069776 128 128 255 0.046010 -0.998941 0.000000
0.896134 0.110171 1.150829 128 128 255 0.046010 -0.998941 0.000000
0.930132 0.111737 1.229098 128 128 255 0.026482 -0.999649 0.000000
1.019268 0.113284 1.304060 128 128 255 0.023909 -0.999714 0.000000
1.052438 0.114811 1.375235 128 128 255 0.046010 -0.998941 0.000000
1.085204 0.116321 1.442185 128 128 255 0.046010 -0.998941 0.000000
1.117572 0.117811 1.504526 128 128 255 0.178338 -0.983969 0.000000
1.093994 0.119284 1.561928 128 128 255 0.995759 -0.092000 0.000000
1.125588 0.120739 1.614125 128 128 255 0.046010 -0.998941 0.000000
1.156804 0.122177 1.660913 128 128 255 0.046010 -0.998941 0.000000
1.187648 0.123598 1.702157 128 128 255 0.026054 -0.999661 0.000000
1.273684 0.125002 1.737792 128 128 255 0.022369 -0.999750 0.000000
1.303805 0.126389 1.767824 128 128 255 0.046011 -0.998941 0.000000
1.303805 0.126389 1.384683 128 128 255 -0.046011 0.998941 0.000000
1.273684 0.125002 1.396967 128 128 255 -0.028476 0.999594 0.000000
1.187648 0.123598 1.408280 128 128 255 -0.018552 0.999828 0.000000
1.156804 0.122177 1.417996 128 128 255 -0.046011 0.998941 0.000000
