ply
format ascii 1.0
element vertex 694
property float x
property float y
property float z
property uchar red
property uchar green
property uchar blue
property float nx
property float ny
property float nz
end_header
0.322444 -0.025477 -0.611177 128 128 255 -0.539872 0.799193 -0.264251
0.358244 0.004723 -0.621235 128 128 255 -0.761439 0.564171 -0.319253
0.380672 0.045176 -0.625401 128 128 255 -0.881540 0.292634 -0.370475
0.386793 0.090774 -0.621235 128 128 255 0.255769 -0.961536 0.100159
0.092804 0.006628 -0.311177 128 128 255 0.202512 -0.975649 0.084251
0.074444 0.048324 -0.305362 128 128 255 -0.823945 -0.521893 -0.220774
0.043693 0.080858 -0.302954 128 128 255 -0.579707 -0.781695 -0.229984
0.002175 0.102038 -0.305362 128 128 255 -0.271397 -0.930147 -0.247328
-0.047474 0.109791 -0.311177 128 128 255 0.029697 -0.966402 -0.255313
-0.100052 0.102167 -0.316992 128 128 255 0.306555 -0.920132 -0.243684
-0.147750 0.078818 -0.319401 128 128 255 0.575237 -0.790823 -0.209049
-0.182605 0.042410 -0.316992 128 128 255 0.823238 -0.546194 -0.154760
-0.199872 -0.001824 -0.311177 128 128 255 0.975552 -0.194455 -0.102398
-0.199441 -0.048232 -0.305362 128 128 255 0.983011 0.161691 -0.086862
-0.184149 -0.092451 -0.302954 128 128 255 0.883903 0.452085 -0.119726
-0.156970 -0.131136 -0.305362 128 128 255 0.703436 0.685768 -0.186816
-0.119918 -0.160576 -0.311177 128 128 255 0.438729 0.858943 -0.264072
-0.075272 -0.176465 -0.316992 128 128 255 0.122994 0.937837 -0.324553
-0.027118 -0.175617 -0.319401 128 128 255 -0.180456 0.917927 -0.353334
0.018813 -0.158040 -0.316992 128 128 255 -0.441977 0.825216 -0.351675
0.056928 -0.127264 -0.311177 128 128 255 -0.665721 0.670738 -0.326997
0.083412 -0.088508 -0.305362 128 128 255 -0.848982 0.441344 -0.290594
0.096367 -0.046308 -0.302954 128 128 255 -0.846034 0.477123 -0.237867
0.258964 0.368857 -0.009605 128 128 255 -0.872072 0.428705 -0.236013
0.247334 0.421487 -0.011177 128 128 255 -0.902428 -0.352376 -0.247901
0.221021 0.469054 -0.012749 128 128 255 -0.758650 -0.627064 -0.176749
0.181263 0.502519 -0.013401 128 128 255 -0.460342 -0.882914 -0.092460
0.133047 0.515158 -0.012749 128 128 255 -0.034219 -0.998848 -0.033640
0.083679 0.505839 -0.011177 128 128 255 0.361276 -0.931873 -0.033059
0.039877 0.478861 -0.009605 128 128 255 0.638839 -0.765060 -0.081041
0.005977 0.440620 -0.008954 128 128 255 0.820501 -0.551348 -0.150975
-0.015596 0.396264 -0.009605 128 128 255 0.932181 -0.289289 -0.217602
-0.023032 0.349043 -0.011177 128 128 255 0.966027 0.015879 -0.257953
-0.015036 0.301931 -0.012749 128 128 255 0.909916 0.321689 -0.261858
0.007954 0.259034 -0.013401 128 128 255 0.773989 0.586422 -0.238851
0.042910 0.225174 -0.012749 128 128 255 0.568882 0.795804 -0.207530
0.085034 0.204367 -0.011177 128 128 255 0.290591 0.938391 -0.187025
0.129654 0.198867 -0.009605 128 128 255 -0.051895 0.980014 -0.192041
0.173437 0.209423 -0.008954 128 128 255 -0.393469 0.892719 -0.219624
0.213810 0.235839 -0.009605 128 128 255 -0.657112 0.712141 -0.247099
0.247334 0.276598 -0.011177 128 128 255 -0.833517 0.490536 -0.254213
0.269035 0.327609 -0.012749 128 128 255 0.854287 0.506220 0.118049
0.442892 -0.130397 0.292599 128 128 255 0.866465 0.465878 0.179434
0.429575 -0.083517 0.291493 128 128 255 -0.876246 -0.455510 -0.157174
0.397324 -0.041501 0.288823 128 128 255 -0.664038 -0.716723 -0.212984
0.352853 -0.010869 0.286153 128 128 255 -0.416353 -0.870169 -0.263544
0.303459 0.004624 0.285046 128 128 255 -0.139674 -0.946389 -0.291273
0.254604 0.003814 0.286153 128 128 255 0.165353 -0.943514 -0.287122
0.210087 -0.012603 0.288823 128 128 255 0.466264 -0.846973 -0.255411
0.173402 -0.042169 0.291493 128 128 255 0.716733 -0.662449 -0.217842
0.148125 -0.080582 0.292599 128 128 255 0.892665 -0.403552 -0.200736
0.136950 -0.122562 0.291493 128 128 255 0.972191 -0.076035 -0.221501
0.140736 -0.163647 0.288823 128 128 255 0.922123 0.273607 -0.273547
0.158736 -0.201506 0.286153 128 128 255 0.774115 0.546394 -0.319688
0.189612 -0.235375 0.285046 128 128 255 0.610287 0.719643 -0.331156
0.231815 -0.263842 0.286153 128 128 255 0.441264 0.844149 -0.304464
0.282532 -0.282969 0.288823 128 128 255 0.218184 0.945045 -0.243488
0.336195 -0.286894 0.291493 128 128 255 -0.110317 0.981866 -0.154175
0.384604 -0.271114 0.292599 128 128 255 -0.520229 0.851841 -0.061064
0.419581 -0.236006 0.291493 128 128 255 -0.849599 0.527203 -0.015439
0.436448 -0.187513 0.288823 128 128 255 -0.660075 -0.736328 -0.148737
-0.105132 0.172222 0.581910 128 128 255 -0.647907 -0.731771 -0.211489
-0.112899 0.217575 0.579046 128 128 255 -0.885276 -0.328693 -0.329009
-0.136234 0.256839 0.581910 128 128 255 -0.744007 -0.605589 -0.282339
-0.172205 0.286441 0.588823 128 128 255 -0.512695 -0.817255 -0.263133
-0.215541 0.302528 0.595736 128 128 255 -0.199737 -0.934775 -0.293769
-0.259478 0.302315 0.598599 128 128 255 0.186578 -0.909271 -0.372041
-0.297930 0.285865 0.595736 128 128 255 0.543079 -0.707071 -0.452897
-0.327742 0.256339 0.588823 128 128 255 0.740994 -0.460229 -0.488997
-0.349167 0.218346 0.581910 128 128 255 0.821023 -0.306940 -0.481361
-0.363881 0.175881 0.579046 128 128 255 0.873505 -0.224022 -0.432207
-0.371919 0.131701 0.581910 128 128 255 0.933803 -0.098912 -0.343842
-0.370127 0.088519 0.588823 128 128 255 0.954456 0.177562 -0.239760
-0.353804 0.050546 0.595736 128 128 255 0.795723 0.582638 -0.165405
-0.320594 0.023369 0.598599 128 128 255 0.429126 0.888307 -0.163587
-0.273501 0.011810 0.595736 128 128 255 0.036014 0.975525 -0.216921
-0.220450 0.017591 0.588823 128 128 255 -0.280463 0.918535 -0.278629
-0.170836 0.038988 0.581910 128 128 255 -0.525798 0.788216 -0.319768
-0.132000 0.072488 0.579046 128 128 255 -0.727033 0.602793 -0.328730
-0.107905 0.114422 0.581910 128 128 255 -0.265055 0.954491 -0.136722
0.582391 0.314691 0.888823 128 128 255 -0.235245 0.966713 -0.100625
0.397118 0.100000 -0.620736 128 128 255 -0.956204 -0.194393 -0.218829
0.389432 0.147309 -0.630929 128 128 255 -0.886128 -0.362857 -0.288290
0.365249 0.189067 -0.635151 128 128 255 -0.714105 -0.609861 -0.343692
0.327335 0.220002 -0.630929 128 128 255 -0.508166 -0.781737 -0.361460
0.281427 0.237081 -0.620736 128 128 255 -0.265264 -0.900713 -0.344022
0.233872 0.239999 -0.610544 128 128 255 0.029599 -0.953618 -0.299560
0.189531 0.229871 -0.606322 128 128 255 0.355663 -0.901399 -0.246950
0.151542 0.207569 -0.610544 128 128 255 0.655754 -0.725536 -0.208770
0.122592 0.173559 -0.620736 128 128 255 0.868394 -0.455917 -0.195016
0.105868 0.129501 -0.630929 128 128 255 0.967762 -0.156758 -0.197141
0.104329 0.079924 -0.635151 128 128 255 0.971010 0.131248 -0.199782
0.118907 0.031856 -0.630929 128 128 255 0.891792 0.409796 -0.191767
0.147597 -0.007706 -0.620736 128 128 255 0.715353 0.678301 -0.167862
0.186465 -0.034329 -0.610544 128 128 255 0.436209 0.889553 -0.135708
0.231386 -0.046516 -0.606322 128 128 255 0.105931 0.987107 -0.119998
0.278558 -0.044175 -0.610544 128 128 255 -0.222143 0.964745 -0.141138
0.323559 -0.027408 -0.620736 128 128 255 -0.524212 0.827474 -0.201219
0.360719 0.002958 -0.630929 128 128 255 -0.757020 0.588363 -0.284165
0.384347 0.044010 -0.635151 128 128 255 -0.880832 0.306558 -0.360772
0.391168 0.090561 -0.630929 128 128 255 0.261254 -0.959446 0.105879
0.094821 0.006409 -0.320736 128 128 255 0.221719 -0.968436 0.113897
0.076016 0.049109 -0.314786 128 128 255 -0.832499 -0.533706 -0.148668
0.044663 0.082436 -0.312322 128 128 255 -0.590960 -0.790756 -0.159598
0.002569 0.104096 -0.314786 128 128 255 -0.284249 -0.941298 -0.182102
-0.047474 0.112020 -0.320736 128 128 255 0.021676 -0.981345 -0.191031
-0.100190 0.104330 -0.326687 128 128 255 0.307887 -0.935944 -0.170919
-0.147818 0.080782 -0.329151 128 128 255 0.587650 -0.800723 -0.116236
-0.182551 0.044114 -0.326687 128 128 255 0.840472 -0.540869 -0.032687
-0.199817 -0.000451 -0.320736 128 128 255 0.982919 -0.178820 0.043520
-0.199591 -0.047334 -0.314786 128 128 255 0.984051 0.166395 0.062894
-0.184668 -0.092259 -0.312322 128 128 255 0.897110 0.441566 0.014616
-0.157875 -0.131913 -0.314786 128 128 255 0.733480 0.674582 -0.083342
-0.121033 -0.162506 -0.320736 128 128 255 0.471456 0.858982 -0.199697
-0.076249 -0.179507 -0.326687 128 128 255 0.144476 0.945154 -0.292935
-0.027566 -0.179412 -0.329151 128 128 255 -0.170647 0.925355 -0.338523
0.019159 -0.161974 -0.326687 128 128 255 -0.441295 0.831070 -0.338499
0.058090 -0.130672 -0.320736 128 128 255 -0.673419 0.673965 -0.303773
0.085192 -0.090890 -0.314786 128 128 255 -0.861551 0.441550 -0.250526
0.098457 -0.047434 -0.312322 128 128 255 -0.867971 0.456341 -0.195907
0.261582 0.370111 -0.019029 128 128 255 -0.892618 0.406883 -0.194111
0.249264 0.422602 -0.020736 128 128 255 -0.910725 -0.369364 -0.184798
0.222170 0.469673 -0.022444 128 128 255 -0.758699 -0.646917 -0.076642
0.181712 0.502478 -0.023151 128 128 255 -0.447869 -0.892690 0.050180
0.132966 0.514556 -0.022444 128 128 255 -0.022455 -0.990593 0.134987
0.083206 0.504977 -0.020736 128 128 255 0.361439 -0.922324 0.136679
0.039041 0.478074 -0.019029 128 128 255 0.635396 -0.768833 0.071888
0.004713 0.440126 -0.018322 128 128 255 0.823124 -0.567198 -0.027464
-0.017359 0.396094 -0.019029 128 128 255 0.943217 -0.306584 -0.127858
-0.025261 0.349043 -0.020736 128 128 255 0.981236 0.006855 -0.192686
-0.017503 0.301838 -0.022444 128 128 255 0.924134 0.323220 -0.203729
0.005662 0.258606 -0.023151 128 128 255 0.783913 0.596013 -0.173924
0.041259 0.224313 -0.022444 128 128 255 0.572996 0.809111 -0.130437
0.084353 0.203157 -0.020736 128 128 255 0.290844 0.951423 -0.101018
0.130020 0.197502 -0.019029 128 128 255 -0.051748 0.992949 -0.106650
0.174678 0.208090 -0.018322 128 128 255 -0.394724 0.907416 -0.144184
0.215592 0.234629 -0.019029 128 128 255 -0.663611 0.725647 -0.181815
0.249264 0.275484 -0.020736 128 128 255 -0.845654 0.498935 -0.189560
0.270777 0.326481 -0.022444 128 128 255 0.886708 0.461086 0.033893
0.443333 -0.128836 0.282849 128 128 255 0.908754 0.408946 0.083241
0.429342 -0.081190 0.281799 128 128 255 -0.887228 -0.459866 -0.036724
0.396691 -0.038792 0.279264 128 128 255 -0.679281 -0.724720 -0.115578
0.352072 -0.008051 0.276728 128 128 255 -0.426376 -0.884070 -0.191372
0.302642 0.007364 0.275678 128 128 255 -0.138813 -0.961839 -0.235788
0.253707 0.006286 0.276728 128 128 255 0.177570 -0.955895 -0.233951
0.208973 -0.010672 0.279264 128 128 255 0.485672 -0.852824 -0.191870
0.171953 -0.041138 0.281799 128 128 255 0.735867 -0.662255 -0.141132
0.146356 -0.080781 0.282849 128 128 255 0.907539 -0.402847 -0.118691
0.135051 -0.124121 0.281799 128 128 255 0.985781 -0.078375 -0.148635
0.138997 -0.166393 0.279264 128 128 255 0.935434 0.273334 -0.224167
0.157417 -0.204993 0.276728 128 128 255 0.780583 0.552346 -0.292582
0.188835 -0.239008 0.275678 128 128 255 0.608024 0.730770 -0.310293
0.231526 -0.267020 0.276728 128 128 255 0.431175 0.860204 -0.272281
0.282532 -0.285198 0.279264 128 128 255 0.198516 0.963050 -0.182005
0.336225 -0.287906 0.281799 128 128 255 -0.137712 0.989394 -0.046212
0.384471 -0.270940 0.282849 128 128 255 -0.534691 0.839918 0.092963
0.419266 -0.234932 0.281799 128 128 255 -0.839676 0.519075 0.159705
0.436114 -0.185921 0.279264 128 128 255 -0.653728 -0.748659 -0.110224
-0.101420 0.171860 0.572486 128 128 255 -0.641867 -0.745584 -0.179196
-0.109670 0.217791 0.569678 128 128 255 -0.894047 -0.340342 -0.291287
-0.133853 0.257838 0.572486 128 128 255 -0.747706 -0.624368 -0.226054
-0.171091 0.288371 0.579264 128 128 255 -0.512029 -0.835066 -0.201221
-0.216081 0.305341 0.586041 128 128 255 -0.203643 -0.947493 -0.246548
-0.261851 0.305685 0.588849 128 128 255 0.174889 -0.917047 -0.358384
-0.301940 0.289247 0.586041 128 128 255 0.528048 -0.703571 -0.475556
-0.332815 0.259158 0.579264 128 128 255 0.723646 -0.444674 -0.527827
-0.354508 0.220191 0.572486 128 128 255 0.806250 -0.286080 -0.517803
-0.368681 0.176599 0.569678 128 128 255 0.868511 -0.199278 -0.453847
-0.375504 0.131376 0.572486 128 128 255 0.939775 -0.065093 -0.335539
-0.372057 0.087405 0.579264 128 128 255 0.956902 0.224424 -0.184314
-0.353957 0.048971 0.586041 128 128 255 0.782125 0.619616 -0.066002
-0.319192 0.021634 0.588849 128 128 255 0.425284 0.903606 -0.051275
-0.271017 0.010103 0.586041 128 128 255 0.045024 0.991640 -0.120924
-0.217412 0.015990 0.579264 128 128 255 -0.276067 0.937755 -0.210718
-0.167664 0.037532 0.572486 128 128 255 -0.531677 0.801276 -0.274367
-0.128959 0.071275 0.569678 128 128 255 -0.741099 0.604751 -0.291632
-0.105174 0.113663 0.572486 128 128 255 -0.277772 0.954047 -0.112412
0.584620 0.314691 0.879264 128 128 255 -0.244852 0.966122 -0.081590
0.398717 0.100000 -0.630421 128 128 255 -0.973566 -0.159616 -0.163377
0.392116 0.148016 -0.640751 128 128 255 -0.906500 -0.340969 -0.248996
0.368513 0.190711 -0.645029 128 128 255 -0.729670 -0.603643 -0.321243
0.330463 0.222506 -0.640751 128 128 255 -0.514783 -0.785038 -0.344549
0.283778 0.240058 -0.630421 128 128 255 -0.262191 -0.909415 -0.322832
0.235096 0.242921 -0.620091 128 128 255 0.039729 -0.962971 -0.266661
0.189614 0.232268 -0.615813 128 128 255 0.363889 -0.909681 -0.200164
0.150720 0.209175 -0.620091 128 128 255 0.657250 -0.738400 -0.150957
0.121208 0.174358 -0.630421 128 128 255 0.870624 -0.474165 -0.131080
0.104240 0.129705 -0.640751 128 128 255 0.976676 -0.170025 -0.131133
0.102653 0.079850 -0.645029 128 128 255 0.982438 0.131613 -0.132265
0.117244 0.031753 -0.640751 128 128 255 0.897749 0.423875 -0.119899
0.145962 -0.007788 -0.630421 128 128 255 0.711148 0.697515 -0.087990
0.184951 -0.034531 -0.620091 128 128 255 0.429978 0.901524 -0.048717
0.230239 -0.047050 -0.615813 128 128 255 0.113894 0.992955 -0.032691
0.278170 -0.045172 -0.620091 128 128 255 -0.199366 0.978022 -0.061048
0.324358 -0.028792 -0.630421 128 128 255 -0.502729 0.853606 -0.136457
0.362974 0.001509 -0.640751 128 128 255 -0.749317 0.616365 -0.242112
0.387962 0.042977 -0.645029 128 128 255 -0.882377 0.324731 -0.340529
0.395629 0.090364 -0.640751 128 128 255 0.259664 -0.959968 0.105056
0.096271 0.005808 -0.330421 128 128 255 0.233077 -0.963312 0.133064
0.077059 0.049462 -0.324334 128 128 255 -0.836752 -0.541938 -0.078411
0.045184 0.083526 -0.321813 128 128 255 -0.599411 -0.795316 -0.090440
0.002679 0.105591 -0.324334 128 128 255 -0.295908 -0.948076 -0.116574
-0.047474 0.113619 -0.330421 128 128 255 0.013986 -0.991911 -0.126161
-0.099933 0.105863 -0.336508 128 128 255 0.308649 -0.946006 -0.099039
-0.147058 0.082236 -0.339029 128 128 255 0.596216 -0.802343 -0.027800
-0.181312 0.045553 -0.336508 128 128 255 0.846259 -0.527036 0.077970
-0.198401 0.000977 -0.330421 128 128 255 0.972374 -0.161560 0.168486
-0.198425 -0.046074 -0.324334 128 128 255 0.968145 0.164903 0.188422
-0.184108 -0.091496 -0.321813 128 128 255 0.897782 0.420543 0.130886
-0.158064 -0.132056 -0.324334 128 128 255 0.758570 0.651466 0.012820
-0.121832 -0.163891 -0.330421 128 128 255 0.507705 0.851094 -0.133698
-0.077271 -0.182205 -0.336508 128 128 255 0.171855 0.951497 -0.255185
-0.028314 -0.183099 -0.339029 128 128 255 -0.158112 0.935650 -0.315531
0.019060 -0.165986 -0.336508 128 128 255 -0.441453 0.839596 -0.316540
0.058743 -0.134250 -0.330421 128 128 255 -0.682857 0.677719 -0.272768
0.086426 -0.093459 -0.324334 128 128 255 -0.873832 0.440692 -0.205447
0.099972 -0.048743 -0.321813 128 128 255 -0.889027 0.432748 -0.149534
0.263762 0.371501 -0.028577 128 128 255 -0.911369 0.383370 -0.149781
0.250649 0.423401 -0.030421 128 128 255 -0.913283 -0.388825 -0.121365
0.222771 0.469458 -0.032266 128 128 255 -0.747502 -0.664055 0.016487
0.181763 0.501136 -0.033029 128 128 255 -0.423754 -0.889345 0.171751
0.132769 0.512371 -0.032266 128 128 255 -0.007907 -0.963045 0.269223
0.082950 0.502509 -0.030421 128 128 255 0.354739 -0.894624 0.271676
0.038710 0.475912 -0.028577 128 128 255 0.618949 -0.759426 0.200436
0.004129 0.438667 -0.027813 128 128 255 0.811881 -0.577671 0.084529
-0.018408 0.395448 -0.028577 128 128 255 0.944754 -0.325234 -0.040776
-0.026860 0.349043 -0.030421 128 128 255 0.991956 -0.005317 -0.126473
-0.019496 0.302133 -0.032266 128 128 255 0.935530 0.322491 -0.144165
0.003682 0.258822 -0.033029 128 128 255 0.790269 0.602979 -0.109045
0.039798 0.224226 -0.032266 128 128 255 0.573240 0.817458 -0.056203
0.083782 0.202759 -0.030421 128 128 255 0.289041 0.957101 -0.020314
0.130417 0.196929 -0.028577 128 128 255 -0.050531 0.998378 -0.026236
0.175828 0.207479 -0.027813 128 128 255 -0.392875 0.916864 -0.070781
0.217085 0.233997 -0.028577 128 128 255 -0.666905 0.736024 -0.116219
0.250649 0.274684 -0.030421 128 128 255 -0.854396 0.504508 -0.124415
0.271715 0.325276 -0.032266 128 128 255 0.910204 0.411572 -0.046242
0.442525 -0.126985 0.272970 128 128 255 0.938761 0.344272 -0.014311
0.427779 -0.078777 0.271977 128 128 255 -0.885022 -0.460151 0.070688
0.394883 -0.036245 0.269579 128 128 255 -0.687214 -0.726099 -0.022727
0.350450 -0.005604 0.267181 128 128 255 -0.434006 -0.893095 -0.118407
0.301403 0.009607 0.266187 128 128 255 -0.136900 -0.974561 -0.177454
0.252795 0.008213 0.267181 128 128 255 0.191160 -0.965289 -0.177973
0.208173 -0.009288 0.269579 128 128 255 0.504908 -0.853689 -0.127609
0.171034 -0.040646 0.271977 128 128 255 0.751367 -0.656457 -0.067167
0.145224 -0.081525 0.272970 128 128 255 0.916371 -0.398201 -0.041226
0.133817 -0.126234 0.271977 128 128 255 0.993796 -0.079599 -0.077673
0.137910 -0.169657 0.269579 128 128 255 0.946741 0.272637 -0.171318
0.156705 -0.208865 0.267181 128 128 255 0.787248 0.559548 -0.259126
0.188565 -0.242775 0.266187 128 128 255 0.604422 0.744627 -0.283204
0.231552 -0.269972 0.267181 128 128 255 0.416791 0.877909 -0.235713
0.282532 -0.286797 0.269579 128 128 255 0.172187 0.977732 -0.119967
0.335827 -0.287939 0.271977 128 128 255 -0.169354 0.984150 0.052619
0.383450 -0.269607 0.272970 128 128 255 -0.543663 0.810018 0.219775
0.417687 -0.232750 0.271977 128 128 255 -0.815691 0.496888 0.296227
0.434336 -0.183485 0.269579 128 128 255 -0.646394 -0.759311 -0.074981
-0.097945 0.171300 0.562938 128 128 255 -0.634675 -0.758931 -0.145641
-0.106699 0.217560 0.560187 128 128 255 -0.902314 -0.353430 -0.246811
-0.131742 0.258270 0.562938 128 128 255 -0.748752 -0.641631 -0.166376
-0.170291 0.289756 0.569579 128 128 255 -0.510640 -0.848668 -0.137871
-0.217038 0.307741 0.576220 128 128 255 -0.209688 -0.958184 -0.194715
-0.264778 0.308818 0.578970 128 128 255 0.160793 -0.929244 -0.332643
-0.306616 0.292540 0.576220 128 128 255 0.514834 -0.710178 -0.480201
-0.338563 0.261969 0.569579 128 128 255 0.713462 -0.438282 -0.546701
-0.360384 0.222061 0.562938 128 128 255 0.800710 -0.268904 -0.535307
-0.373727 0.177375 0.560187 128 128 255 0.871171 -0.171565 -0.460030
-0.378946 0.131197 0.562938 128 128 255 0.948115 -0.023362 -0.317067
-0.373442 0.086605 0.569579 128 128 255 0.952405 0.277185 -0.126858
-0.353262 0.047940 0.576220 128 128 255 0.757477 0.652449 0.023214
-0.316833 0.020661 0.578970 128 128 255 0.413510 0.909221 0.048234
-0.267689 0.009281 0.576220 128 128 255 0.051654 0.998241 -0.029111
-0.213813 0.015247 0.569579 128 128 255 -0.270523 0.952517 -0.139744
-0.164288 0.036769 0.562938 128 128 255 -0.537103 0.813363 -0.223518
-0.126058 0.070510 0.560187 128 128 255 -0.756146 0.605193 -0.248967
-0.102865 0.113098 0.562938 128 128 255 -0.290611 0.952943 -0.086287
0.586219 0.314691 0.869579 128 128 255 -0.254592 0.965088 -0.061550
0.399679 0.100000 -0.640190 128 128 255 -0.987391 -0.119712 -0.103572
0.394396 0.148551 -0.650657 128 128 255 -0.927860 -0.314161 -0.200947
0.371615 0.192091 -0.654993 128 128 255 -0.749015 -0.597459 -0.286390
0.333627 0.224704 -0.650657 128 128 255 -0.522878 -0.792636 -0.313573
0.286297 0.242708 -0.640190 128 128 255 -0.257408 -0.922451 -0.287793
0.236575 0.245486 -0.629722 128 128 255 0.051960 -0.973497 -0.222719
0.190034 0.234279 -0.625386 128 128 255 0.372383 -0.916359 -0.147031
0.150334 0.210394 -0.629722 128 128 255 0.657171 -0.748253 -0.090796
0.120374 0.174839 -0.640190 128 128 255 0.869405 -0.489596 -0.066563
0.103258 0.129761 -0.650657 128 128 255 0.981127 -0.182128 -0.064964
0.101649 0.079890 -0.654993 128 128 255 0.989183 0.131509 -0.064982
0.116171 0.032060 -0.650657 128 128 255 0.898764 0.435659 -0.049244
0.144733 -0.007209 -0.640190 128 128 255 0.702512 0.711576 -0.011658
0.183601 -0.033927 -0.629722 128 128 255 0.421825 0.906139 0.031240
0.229024 -0.046761 -0.625386 128 128 255 0.122185 0.991440 0.046027
0.277542 -0.045443 -0.629722 128 128 255 -0.174318 0.984600 0.013294
0.324839 -0.029626 -0.640190 128 128 255 -0.476448 0.876377 -0.070430
0.364929 0.000410 -0.650657 128 128 255 -0.738349 0.646819 -0.190959
0.391360 0.042109 -0.654993 128 128 255 -0.886714 0.346377 -0.306205
0.399962 0.090191 -0.650657 128 128 255 0.250566 -0.963188 0.097392
0.097142 0.004889 -0.340190 128 128 255 0.237066 -0.961087 0.141816
0.077577 0.049406 -0.333964 128 128 255 -0.837070 -0.547003 -0.010081
0.045277 0.084124 -0.331386 128 128 255 -0.605124 -0.795809 -0.022644
0.002529 0.106511 -0.333964 128 128 255 -0.306362 -0.950557 -0.050831
-0.047474 0.114581 -0.340190 128 128 255 0.006438 -0.998115 -0.061025
-0.099335 0.106765 -0.346415 128 128 255 0.308688 -0.950709 -0.029398
-0.145591 0.083171 -0.348993 128 128 255 0.601495 -0.797137 0.052684
-0.179070 0.046695 -0.346415 128 128 255 0.844229 -0.508061 0.170739
-0.195832 0.002395 -0.340190 128 128 255 0.953112 -0.145132 0.265545
-0.196133 -0.044546 -0.333964 128 128 255 0.945509 0.159367 0.283926
-0.182606 -0.090255 -0.331386 128 128 255 0.891632 0.393817 0.223385
-0.157601 -0.131623 -0.333964 128 128 255 0.778708 0.619799 0.097278
-0.122313 -0.164724 -0.340190 128 128 255 0.545514 0.835450 -0.066618
-0.078286 -0.184472 -0.346415 128 128 255 0.204189 0.956412 -0.208764
-0.029301 -0.186520 -0.348993 128 128 255 -0.143544 0.948976 -0.280785
0.018564 -0.169884 -0.346415 128 128 255 -0.443244 0.850892 -0.281989
0.058904 -0.137819 -0.340190 128 128 255 -0.694329 0.681725 -0.230561
0.087112 -0.096080 -0.333964 128 128 255 -0.885533 0.438632 -0.153081
0.100898 -0.050156 -0.331386 128 128 255 -0.908861 0.405574 -0.097371
0.265451 0.372950 -0.038207 128 128 255 -0.928367 0.357475 -0.101715
0.251482 0.423882 -0.040190 128 128 255 -0.910354 -0.409778 -0.057767
0.222857 0.468507 -0.042172 128 128 255 -0.727636 -0.678794 0.098920
0.181457 0.498690 -0.042993 128 128 255 -0.393511 -0.879846 0.266495
0.132477 0.508866 -0.042172 128 128 255 0.007735 -0.930876 0.365252
0.082898 0.498715 -0.040190 128 128 255 0.346303 -0.862859 0.368170
0.038844 0.472616 -0.038207 128 128 255 0.596829 -0.744763 0.298535
0.004177 0.436409 -0.037386 128 128 255 0.791386 -0.584576 0.178826
-0.018769 0.394404 -0.038207 128 128 255 0.937861 -0.344647 0.040438
-0.027822 0.349043 -0.040190 128 128 255 0.998009 -0.020225 -0.059747
-0.020972 0.302763 -0.042172 128 128 255 0.943949 0.319586 -0.082616
0.002075 0.259609 -0.042993 128 128 255 0.793218 0.607349 -0.043963
0.038576 0.224841 -0.042172 128 128 255 0.570222 0.821360 0.014627
0.083335 0.203112 -0.040190 128 128 255 0.285685 0.956800 0.054012
0.130825 0.197100 -0.038207 128 128 255 -0.048539 0.997662 0.048118
0.176844 0.207549 -0.037386 128 128 255 -0.388429 0.921479 -0.000028
0.218253 0.233911 -0.038207 128 128 255 -0.667074 0.743286 -0.050386
0.251482 0.274203 -0.040190 128 128 255 -0.859657 0.507440 -0.059119
0.271892 0.324055 -0.042172 128 128 255 0.925020 0.361098 -0.118097
0.440637 -0.124954 0.263007 128 128 255 0.954929 0.277559 -0.105221
0.425095 -0.076394 0.262071 128 128 255 -0.874398 -0.458309 0.159316
0.392102 -0.033953 0.259810 128 128 255 -0.688972 -0.722232 0.060823
0.348147 -0.003593 0.257550 128 128 255 -0.439160 -0.897192 -0.046746
0.299839 0.011307 0.256614 128 128 255 -0.133991 -0.984113 -0.116478
0.251911 0.009568 0.257550 128 128 255 0.205703 -0.971363 -0.118911
0.207692 -0.008455 0.259810 128 128 255 0.523281 -0.849834 -0.062924
0.170636 -0.040661 0.262071 128 128 255 0.763169 -0.646192 0.003109
0.144718 -0.082729 0.263007 128 128 255 0.920006 -0.390696 0.030744
0.133240 -0.128751 0.262071 128 128 255 0.996758 -0.079973 -0.008798
0.137462 -0.173238 0.259810 128 128 255 0.955783 0.271338 -0.113382
0.156572 -0.212908 0.257550 128 128 255 0.794337 0.567715 -0.216169
0.188765 -0.246492 0.256614 128 128 255 0.600036 0.761039 -0.246529
0.231862 -0.272590 0.257550 128 128 255 0.398629 0.896742 -0.192220
0.282532 -0.287759 0.259810 128 128 255 0.140302 0.988441 -0.057438
0.335065 -0.287095 0.262071 128 128 255 -0.203525 0.969314 0.137868
0.381678 -0.267296 0.263007 128 128 255 -0.551249 0.772806 0.314477
0.415049 -0.229675 0.262071 128 128 255 -0.790872 0.470359 0.391516
0.431343 -0.180402 0.259810 128 128 255 -0.638086 -0.768783 -0.042642
-0.094831 0.170586 0.553308 128 128 255 -0.626125 -0.771826 -0.110690
-0.104088 0.216939 0.550614 128 128 255 -0.909541 -0.367249 -0.194584
-0.129966 0.258175 0.553308 128 128 255 -0.747000 -0.656706 -0.103573
-0.169810 0.290589 0.559810 128 128 255 -0.508276 -0.858070 -0.073295
-0.218326 0.309661 0.566313 128 128 255 -0.216766 -0.966558 -0.137032
-0.268071 0.311595 0.569007 128 128 255 0.145387 -0.945368 -0.291790
-0.311680 0.295600 0.566313 128 128 255 0.504830 -0.728035 -0.463802
-0.344659 0.264644 0.559810 128 128 255 0.712789 -0.442671 -0.544035
-0.366475 0.223868 0.553308 128 128 255 0.806737 -0.256905 -0.532143
-0.378766 0.178169 0.550614 128 128 255 0.882876 -0.142393 -0.447499
-0.382103 0.131159 0.553308 128 128 255 0.958287 0.024405 -0.284765
-0.374275 0.086124 0.559810 128 128 255 0.940776 0.332310 -0.067165
-0.351836 0.047441 0.566313 128 128 255 0.726023 0.680447 0.099415
-0.313719 0.020410 0.569007 128 128 255 0.396915 0.908486 0.130814
-0.263749 0.009283 0.566313 128 128 255 0.055964 0.996987 0.053709
-0.209869 0.015303 0.559810 128 128 255 -0.263794 0.962185 -0.067919
-0.160877 0.036660 0.553308 128 128 255 -0.541502 0.823968 -0.166888
-0.123409 0.070178 0.550614 128 128 255 -0.771592 0.604024 -0.199501
-0.101035 0.112732 0.553308 128 128 255 -0.303670 0.951013 -0.057959
0.587181 0.314691 0.859810 128 128 255 -0.264530 0.963536 -0.040273
0.400000 0.100000 -0.650000 128 128 255 -0.996296 -0.076484 -0.039309
0.396170 0.148898 -0.660607 128 128 255 -0.948486 -0.283093 -0.142243
0.374383 0.193140 -0.665000 128 128 255 -0.771046 -0.591534 -0.235745
0.336635 0.226484 -0.660607 128 128 255 -0.531427 -0.804675 -0.264733
0.288823 0.244889 -0.650000 128 128 255 -0.250065 -0.939179 -0.235392
0.238207 0.247562 -0.639393 128 128 255 0.066207 -0.984025 -0.165263
0.190746 0.235810 -0.635000 128 128 255 0.380350 -0.920815 -0.086215
0.150375 0.211181 -0.639393 128 128 255 0.654877 -0.755224 -0.027807
0.120096 0.175000 -0.650000 128 128 255 0.864581 -0.502490 -0.001707
0.102923 0.129677 -0.660607 128 128 255 0.981159 -0.193199 0.000716
0.101309 0.080029 -0.665000 128 128 255 0.991394 0.130905 0.001124
0.115688 0.032718 -0.660607 128 128 255 0.895221 0.445232 0.018644
0.143934 -0.006066 -0.650000 128 128 255 0.690365 0.721071 0.058762
0.182474 -0.032628 -0.639393 128 128 255 0.412563 0.905228 0.101754
0.227813 -0.045742 -0.635000 128 128 255 0.130356 0.984836 0.114476
0.276728 -0.045037 -0.639393 128 128 255 -0.148575 0.985609 0.080619
0.325000 -0.029904 -0.650000 128 128 255 -0.446698 0.894677 -0.003765
0.366492 -0.000301 -0.660607 128 128 255 -0.723873 0.677703 -0.129328
0.394354 0.041449 -0.665000 128 128 255 -0.893369 0.370259 -0.254558
0.403917 0.090051 -0.660607 128 128 255 0.234996 -0.968386 0.083703
0.097415 0.003725 -0.350000 128 128 255 0.234592 -0.961846 0.140781
0.077568 0.048970 -0.343636 128 128 255 -0.833750 -0.549268 0.056261
0.044964 0.084227 -0.341000 128 128 255 -0.608160 -0.792613 0.043658
0.002146 0.106843 -0.343636 128 128 255 -0.315613 -0.948770 0.014969
-0.047474 0.114902 -0.350000 128 128 255 -0.001225 -0.999991 0.004091
-0.098457 0.107040 -0.356364 128 128 255 0.307797 -0.950731 0.037040
-0.143564 0.083583 -0.359000 128 128 255 0.604333 -0.787179 0.123009
-0.176044 0.047505 -0.356364 128 128 255 0.838622 -0.487477 0.243062
-0.192363 0.003725 -0.350000 128 128 255 0.933266 -0.131180 0.334374
-0.192950 -0.042859 -0.343636 128 128 255 0.924229 0.151799 0.350368
-0.180335 -0.088651 -0.341000 128 128 255 0.883913 0.365635 0.291563
-0.156569 -0.130691 -0.343636 128 128 255 0.794555 0.583542 0.167810
-0.122474 -0.165002 -0.350000 128 128 255 0.582571 0.812780 0.000758
-0.079237 -0.186207 -0.356364 128 128 255 0.240013 0.958871 -0.151523
-0.030453 -0.189491 -0.359000 128 128 255 -0.127635 0.964590 -0.230817
0.017722 -0.173442 -0.356364 128 128 255 -0.447010 0.864114 -0.231275
0.058592 -0.141164 -0.350000 128 128 255 -0.707347 0.685029 -0.174346
0.087240 -0.098593 -0.343636 128 128 255 -0.895728 0.435003 -0.091892
0.101218 -0.051583 -0.341000 128 128 255 -0.926580 0.374121 -0.038506
0.266585 0.374370 -0.047879 128 128 255 -0.943259 0.328465 -0.048712
0.251760 0.424043 -0.050000 128 128 255 -0.902399 -0.430863 0.005814
0.222466 0.466936 -0.052121 128 128 255 -0.702304 -0.691624 0.168598
0.180844 0.495377 -0.053000 128 128 255 -0.361837 -0.870237 0.334308
0.132115 0.504360 -0.052121 128 128 255 0.023456 -0.903838 0.427232
0.083034 0.493932 -0.050000 128 128 255 0.339573 -0.836291 0.430474
0.039390 0.468477 -0.047879 128 128 255 0.574959 -0.731276 0.366958
0.004796 0.433550 -0.047000 128 128 255 0.766734 -0.590055 0.252893
-0.018483 0.393055 -0.047879 128 128 255 0.924404 -0.364175 0.113373
-0.028144 0.349043 -0.050000 128 128 255 0.999284 -0.037192 0.007004
-0.021883 0.303667 -0.052121 128 128 255 0.949024 0.314647 -0.018718
0.000910 0.260883 -0.053000 128 128 255 0.792797 0.609109 0.021408
0.037651 0.226081 -0.052121 128 128 255 0.564531 0.821359 0.081692
0.083034 0.204154 -0.050000 128 128 255 0.281249 0.951911 0.121510
0.131219 0.197959 -0.047879 128 128 255 -0.046064 0.992190 0.115915
0.177674 0.208252 -0.047000 128 128 255 -0.381902 0.921727 0.067609
0.219051 0.234340 -0.047879 128 128 255 -0.664145 0.747443 0.015527
0.251760 0.274043 -0.050000 128 128 255 -0.861320 0.508027 0.006028
0.271364 0.322887 -0.052121 128 128 255 0.932746 0.312943 -0.179028
0.437873 -0.122871 0.253000 128 128 255 0.959294 0.215182 -0.182898
0.421547 -0.074166 0.252121 128 128 255 -0.860259 -0.456185 0.227706
0.388598 -0.032014 0.250000 128 128 255 -0.686397 -0.715084 0.132340
0.345355 -0.002085 0.247879 128 128 255 -0.441952 -0.896771 0.021932
0.298068 0.012424 0.247000 128 128 255 -0.130159 -0.990073 -0.053044
0.251101 0.010324 0.247879 128 128 255 0.220656 -0.973710 -0.056568
0.207532 -0.008176 0.250000 128 128 255 0.540056 -0.841627 0.001870
0.170742 -0.041147 0.252121 128 128 255 0.771343 -0.632650 0.069164
0.144829 -0.084291 0.253000 128 128 255 0.919338 -0.381344 0.096927
0.133317 -0.131498 0.252121 128 128 255 0.995134 -0.079731 0.057888
0.137643 -0.176903 0.250000 128 128 255 0.961824 0.269181 -0.049365
0.156994 -0.216870 0.247879 128 128 255 0.801404 0.576063 -0.160943
0.189393 -0.249942 0.247000 128 128 255 0.595092 0.779148 -0.196964
0.232416 -0.274744 0.247879 128 128 255 0.377349 0.915521 -0.139387
0.282532 -0.288080 0.250000 128 128 255 0.104584 0.994501 0.005402
0.334011 -0.285495 0.252121 128 128 255 -0.238449 0.948763 0.207344
0.379323 -0.264225 0.253000 128 128 255 -0.560615 0.736334 0.378845
0.411597 -0.225961 0.252121 128 128 255 -0.773152 0.445671 0.451236
0.427421 -0.176903 0.250000 128 128 255 -0.628736 -0.777515 -0.012657
-0.092214 0.169773 0.543636 128 128 255 -0.615992 -0.784246 -0.074239
-0.101946 0.215999 0.541000 128 128 255 -0.914856 -0.380901 -0.133990
-0.128595 0.257605 0.543636 128 128 255 -0.742297 -0.668985 -0.038136
-0.169650 0.290868 0.550000 128 128 255 -0.504570 -0.863336 -0.007783
-0.219846 0.311024 0.556364 128 128 255 -0.223686 -0.971929 -0.072933
-0.271513 0.313874 0.559000 128 128 255 0.129549 -0.963674 -0.233558
-0.316805 0.298259 0.556364 128 128 255 0.498359 -0.756972 -0.422649
-0.350716 0.267030 0.550000 128 128 255 0.722808 -0.458833 -0.516740
-0.372404 0.225507 0.543636 128 128 255 0.825655 -0.251002 -0.505265
-0.383499 0.178932 0.541000 128 128 255 0.903953 -0.112852 -0.412471
-0.384813 0.131252 0.543636 128 128 255 0.968896 0.075880 -0.235547
-0.374554 0.085964 0.550000 128 128 255 0.922510 0.385933 -0.005478
-0.349824 0.047455 0.556364 128 128 255 0.691906 0.703541 0.162161
-0.310093 0.020829 0.559000 128 128 255 0.378448 0.904653 0.195906
-0.259473 0.010030 0.556364 128 128 255 0.058318 0.990461 0.124848
-0.205827 0.016075 0.550000 128 128 255 -0.255982 0.966678 0.002683
-0.157619 0.037145 0.543636 128 128 255 -0.544200 0.832447 -0.104296
-0.121134 0.070256 0.541000 128 128 255 -0.786515 0.601010 -0.142061
-0.099745 0.112567 0.543636 128 128 255 -0.317040 0.948027 -0.027015
0.587502 0.314691 0.850000 128 128 255 -0.274733 0.961361 -0.017501
0.399679 0.100000 -0.659810 128 128 255 -0.999066 -0.032106 0.028911
0.397326 0.149035 -0.670556 128 128 255 -0.965919 -0.248658 -0.071896
0.376632 0.193792 -0.675007 128 128 255 -0.793482 -0.585384 -0.166466
0.339281 0.227722 -0.670556 128 128 255 -0.538460 -0.819843 -0.194723
0.291182 0.246450 -0.659810 128 128 255 -0.239040 -0.957224 -0.163042
0.239880 0.249007 -0.649065 128 128 255 0.082135 -0.992269 -0.093038
0.191697 0.236760 -0.644614 128 128 255 0.386796 -0.922003 -0.017290
0.150835 0.211492 -0.649065 128 128 255 0.649606 -0.759316 0.038099
0.120374 0.174839 -0.659810 128 128 255 0.855952 -0.513172 0.063259
0.103226 0.129467 -0.670556 128 128 255 0.976892 -0.203451 0.065500
0.101619 0.080255 -0.675007 128 128 255 0.989377 0.129760 0.065544
0.115789 0.033665 -0.670556 128 128 255 0.887736 0.452823 0.082919
0.143590 -0.004469 -0.659810 128 128 255 0.675759 0.726938 0.122108
0.181626 -0.030762 -0.649065 128 128 255 0.402871 0.900784 0.162123
0.226684 -0.044100 -0.644614 128 128 255 0.137970 0.975280 0.172607
0.275792 -0.044010 -0.649065 128 128 255 -0.123520 0.982312 0.140731
0.324839 -0.029626 -0.659810 128 128 255 -0.414944 0.907674 0.062838
0.367566 -0.000581 -0.670556 128 128 255 -0.705463 0.706458 -0.056915
0.396742 0.041040 -0.675007 128 128 255 -0.900514 0.394458 -0.182967
0.407222 0.089953 -0.670556 128 128 255 0.214987 -0.974414 0.065562
0.097067 0.002395 -0.359810 128 128 255 0.226866 -0.965064 0.131082
0.077034 0.048181 -0.353308 128 128 255 -0.827055 -0.549066 0.120445
0.044267 0.083831 -0.350614 128 128 255 -0.608583 -0.786071 0.108251
0.001559 0.106576 -0.353308 128 128 255 -0.323665 -0.942737 0.080546
-0.047474 0.114581 -0.359810 128 128 255 -0.009301 -0.997577 0.068940
-0.097370 0.106698 -0.366313 128 128 255 0.305699 -0.946881 0.099820
-0.141137 0.083476 -0.369007 128 128 255 0.605532 -0.774616 0.182486
-0.172476 0.047954 -0.366313 128 128 255 0.832852 -0.468042 0.295456
-0.188273 0.004889 -0.359810 128 128 255 0.917898 -0.120458 0.378092
-0.189136 -0.041131 -0.353308 128 128 255 0.908823 0.143622 0.391680
-0.177481 -0.086805 -0.350614 128 128 255 0.878042 0.338951 0.337868
-0.155062 -0.129340 -0.353308 128 128 255 0.806958 0.546366 0.224282
-0.122313 -0.164724 -0.359810 128 128 255 0.616532 0.784429 0.067524
-0.080061 -0.187303 -0.366313 128 128 255 0.277245 0.957284 -0.082116
-0.031690 -0.191812 -0.369007 128 128 255 -0.111093 0.980412 -0.162636
0.016593 -0.176416 -0.366313 128 128 255 -0.452419 0.877061 -0.161495
0.057826 -0.144055 -0.359810 128 128 255 -0.720461 0.685886 -0.102456
0.086800 -0.100825 -0.353308 128 128 255 -0.902930 0.429251 -0.021442
0.100914 -0.052929 -0.350614 128 128 255 -0.940784 0.337913 0.027206
0.267097 0.375667 -0.057550 128 128 255 -0.955240 0.295659 0.010107
0.251482 0.423882 -0.059810 128 128 255 -0.890135 -0.450417 0.069170
0.221646 0.464875 -0.062071 128 128 255 -0.674727 -0.702906 0.225092
0.179980 0.491459 -0.063007 128 128 255 -0.331899 -0.864261 0.378016
0.131710 0.499205 -0.062071 128 128 255 0.038716 -0.886434 0.461234
0.083335 0.488528 -0.059810 128 128 255 0.336131 -0.819154 0.464760
0.040289 0.463812 -0.057550 128 128 255 0.556850 -0.722670 0.409470
0.005915 0.430308 -0.056614 128 128 255 0.742141 -0.595775 0.307050
-0.017598 0.391502 -0.057550 128 128 255 0.906645 -0.383104 0.176711
-0.027822 0.349043 -0.059810 128 128 255 0.995778 -0.055289 0.073270
-0.022176 0.304781 -0.062071 128 128 255 0.950238 0.307869 0.047581
0.000266 0.262557 -0.063007 128 128 255 0.788990 0.608234 0.086875
0.037089 0.227862 -0.062071 128 128 255 0.556720 0.817998 0.144716
0.082898 0.205816 -0.059810 128 128 255 0.276131 0.943701 0.182155
0.131571 0.199450 -0.057550 128 128 255 -0.043370 0.983239 0.177086
0.178263 0.209536 -0.056614 128 128 255 -0.373800 0.918104 0.131753
0.219430 0.235244 -0.057550 128 128 255 -0.658136 0.748505 0.081228
0.251482 0.274203 -0.059810 128 128 255 -0.859242 0.506651 0.070764
0.270197 0.321847 -0.062071 128 128 255 0.935551 0.269507 -0.228279
0.434460 -0.120874 0.242993 128 128 255 0.956131 0.162093 -0.244006
0.417414 -0.072226 0.242172 128 128 255 -0.846208 -0.454942 0.277417
0.384639 -0.030530 0.240190 128 128 255 -0.681359 -0.706521 0.191254
0.342284 -0.001145 0.238207 128 128 255 -0.442623 -0.892508 0.086681
0.296215 0.012916 0.237386 128 128 255 -0.125521 -0.992009 0.012747
0.250414 0.010459 0.238207 128 128 255 0.235332 -0.971872 0.009140
0.207692 -0.008455 0.240190 128 128 255 0.554483 -0.829537 0.066462
0.171339 -0.042061 0.242172 128 128 255 0.776043 -0.616961 0.130831
0.145544 -0.086104 0.242993 128 128 255 0.915189 -0.370999 0.157443
0.134045 -0.134287 0.242172 128 128 255 0.989349 -0.079064 0.122218
0.138444 -0.180402 0.240190 128 128 255 0.963784 0.265871 0.020801
0.157941 -0.220481 0.238207 128 128 255 0.807154 0.583200 -0.091544
0.190404 -0.252892 0.237386 128 128 255 0.589312 0.797107 -0.131650
0.233174 -0.276299 0.238207 128 128 255 0.353794 0.932290 -0.075274
0.282532 -0.287759 0.240190 128 128 255 0.067355 0.995390 0.068277
0.332748 -0.283279 0.242172 128 128 255 -0.272400 0.926131 0.260921
0.376569 -0.260634 0.242993 128 128 255 -0.573306 0.705153 0.417229
0.407604 -0.221885 0.242172 128 128 255 -0.765611 0.425631 0.482367
0.422877 -0.173238 0.240190 128 128 255 -0.618184 -0.785876 0.015707
-0.090228 0.168919 0.533964 128 128 255 -0.604041 -0.796132 -0.036184
-0.100387 0.214818 0.531386 128 128 255 -0.917113 -0.393312 -0.064884
-0.127699 0.256616 0.533964 128 128 255 -0.734515 -0.677959 0.029318
-0.169810 0.290589 0.540190 128 128 255 -0.499122 -0.864568 0.058305
-0.221494 0.311748 0.546415 128 128 255 -0.229289 -0.973355 -0.002608
-0.274870 0.315503 0.548993 128 128 255 0.113972 -0.981040 -0.156752
-0.321643 0.300334 0.546415 128 128 255 0.494382 -0.794786 -0.351996
-0.356318 0.268961 0.540190 128 128 255 0.743065 -0.486973 -0.459034
-0.377765 0.226865 0.533964 128 128 255 0.857248 -0.251634 -0.449229
-0.387609 0.179613 0.531386 128 128 255 0.932909 -0.083788 -0.350230
-0.386902 0.131469 0.533964 128 128 255 0.977537 0.128158 -0.167325
-0.374275 0.086124 0.540190 128 128 255 0.898849 0.434454 0.057614
-0.347383 0.047959 0.546415 128 128 255 0.658430 0.721942 0.212767
-0.306216 0.021854 0.548993 128 128 255 0.360333 0.899982 0.245341
-0.255154 0.011427 0.546415 128 128 255 0.059264 0.981166 0.183853
-0.201951 0.017467 0.540190 128 128 255 -0.247263 0.966377 0.070549
-0.154712 0.038156 0.533964 128 128 255 -0.544432 0.838043 -0.035753
-0.119358 0.070718 0.531386 128 128 255 -0.799572 0.595783 -0.075679
-0.099054 0.112607 0.533964 128 128 255 -0.330806 0.943673 0.006998
0.587181 0.314691 0.840190 128 128 255 -0.285266 0.958422 0.007056
0.398717 0.100000 -0.669579 128 128 255 -0.994922 0.011109 0.100030
0.397759 0.148943 -0.680462 128 128 255 -0.977207 -0.212066 0.009696
0.378177 0.193976 -0.684970 128 128 255 -0.812577 -0.577731 -0.077113
0.341361 0.228299 -0.680462 128 128 255 -0.540864 -0.834933 -0.101753
0.293203 0.247241 -0.669579 128 128 255 -0.223066 -0.972275 -0.070162
0.241484 0.249679 -0.658695 128 128 255 0.099128 -0.995052 -0.006650
0.192839 0.237029 -0.654187 128 128 255 0.390654 -0.918641 0.059053
0.151700 0.211284 -0.658695 128 128 255 0.640603 -0.760445 0.106541
0.121208 0.174358 -0.669579 128 128 255 0.843290 -0.521972 0.128091
0.104159 0.129142 -0.680462 128 128 255 0.968438 -0.213130 0.129242
0.102561 0.080550 -0.684970 128 128 255 0.983442 0.128031 0.128254
0.116466 0.034835 -0.680462 128 128 255 0.876911 0.458725 0.143525
0.143720 -0.002530 -0.669579 128 128 255 0.659551 0.730166 0.178468
0.181115 -0.028457 -0.658695 128 128 255 0.393093 0.894462 0.213110
0.225714 -0.041941 -0.654187 128 128 255 0.144608 0.964354 0.221608
0.274793 -0.042421 -0.658695 128 128 255 -0.100208 0.975807 0.194316
0.324358 -0.028792 -0.669579 128 128 255 -0.382607 0.914902 0.128709
0.368054 -0.000394 -0.680462 128 128 255 -0.682706 0.730258 0.025209
0.398326 0.040924 -0.684970 128 128 255 -0.904786 0.416181 -0.090312
0.409608 0.089908 -0.680462 128 128 255 0.192861 -0.980204 0.044785
0.096080 0.000977 -0.369579 128 128 255 0.215240 -0.969858 0.114221
0.075974 0.047072 -0.362938 128 128 255 -0.817259 -0.546728 0.182143
0.043212 0.082933 -0.360187 128 128 255 -0.606483 -0.776534 0.170803
0.000799 0.105699 -0.362938 128 128 255 -0.330513 -0.932523 0.145470
-0.047474 0.113619 -0.369579 128 128 255 -0.018079 -0.990911 0.133301
-0.096144 0.105752 -0.376220 128 128 255 0.302037 -0.939939 0.159022
-0.138475 0.082853 -0.378971 128 128 255 0.605612 -0.761264 0.231758
-0.168611 0.048012 -0.376220 128 128 255 0.828933 -0.451469 0.330221
-0.183845 0.005808 -0.369579 128 128 255 0.909165 -0.113097 0.400784
-0.184951 -0.039479 -0.362938 128 128 255 0.900884 0.135729 0.412292
-0.174238 -0.084843 -0.360187 128 128 255 0.875535 0.315550 0.365878
-0.153173 -0.127657 -0.362938 128 128 255 0.816585 0.511188 0.268097
-0.121832 -0.163891 -0.369579 128 128 255 0.645355 0.752244 0.132837
-0.080695 -0.187657 -0.376220 128 128 255 0.313193 0.949690 -0.000533
-0.032933 -0.193288 -0.378971 128 128 255 -0.094701 0.992708 -0.074589
0.015233 -0.178564 -0.376220 128 128 255 -0.458294 0.885930 -0.071381
0.056627 -0.146263 -0.369579 128 128 255 -0.731292 0.681896 -0.015151
0.085785 -0.102607 -0.362938 128 128 255 -0.905362 0.420756 0.057306
0.099971 -0.054096 -0.360187 128 128 255 -0.949780 0.296876 0.098904
0.266926 0.376746 -0.067181 128 128 255 -0.963078 0.258548 0.075061
0.250649 0.423401 -0.069579 128 128 255 -0.874548 -0.466599 0.132100
0.220445 0.462456 -0.071977 128 128 255 -0.647759 -0.712658 0.269306
0.178923 0.487200 -0.072971 128 128 255 -0.305607 -0.863460 0.401300
0.131290 0.493752 -0.071977 128 128 255 0.053130 -0.879746 0.472466
0.083782 0.482875 -0.069579 128 128 255 0.336325 -0.812456 0.476236
0.041477 0.458939 -0.067181 128 128 255 0.544063 -0.720332 0.430253
0.007459 0.426901 -0.066187 128 128 255 0.720475 -0.602557 0.343280
-0.016163 0.389848 -0.067181 128 128 255 0.886834 -0.400619 0.230284
-0.026860 0.349043 -0.069579 128 128 255 0.987631 -0.073390 0.138560
-0.021805 0.306038 -0.071977 128 128 255 0.947024 0.299511 0.115929
0.000216 0.264538 -0.072971 128 128 255 0.781808 0.604722 0.151941
0.036951 0.230100 -0.071977 128 128 255 0.547306 0.811822 0.203471
0.082950 0.208028 -0.069579 128 128 255 0.270650 0.933254 0.236190
0.131855 0.201513 -0.067181 128 128 255 -0.040689 0.971903 0.231838
0.178557 0.211348 -0.066187 128 128 255 -0.364617 0.911124 0.192113
0.219347 0.236585 -0.067181 128 128 255 -0.649106 0.746502 0.146277
0.250649 0.274684 -0.069579 128 128 255 -0.853266 0.503731 0.134876
0.268460 0.321006 -0.071977 128 128 255 0.935439 0.231975 -0.266723
0.430626 -0.119099 0.233029 128 128 255 0.949827 0.120743 -0.288532
0.412980 -0.070705 0.232266 128 128 255 -0.834237 -0.454960 0.311545
0.380498 -0.029599 0.230421 128 128 255 -0.675285 -0.697857 0.238718
0.339142 -0.000835 0.228577 128 128 255 -0.441440 -0.885102 0.147394
0.294406 0.012747 0.227813 128 128 255 -0.120245 -0.989445 0.080863
0.249899 0.009953 0.228577 128 128 255 0.248890 -0.965376 0.078121
0.208173 -0.009288 0.230421 128 128 255 0.565836 -0.814115 0.130561
0.172407 -0.043363 0.232266 128 128 255 0.777449 -0.600118 0.188232
0.146852 -0.088059 0.233029 128 128 255 0.908258 -0.360341 0.212656
0.135416 -0.136932 0.232266 128 128 255 0.979836 -0.078129 0.183895
0.139854 -0.183485 0.230421 128 128 255 0.960507 0.261140 0.096084
0.159386 -0.223470 0.228577 128 128 255 0.809450 0.587139 -0.007636
0.191752 -0.255112 0.227813 128 128 255 0.581812 0.811849 -0.048947
0.234094 -0.277120 0.228577 128 128 255 0.329046 0.944313 0.001029
0.282532 -0.286797 0.230421 128 128 255 0.031378 0.990903 0.130870
0.331358 -0.280587 0.232266 128 128 255 -0.303698 0.904303 0.300006
0.373602 -0.256766 0.233029 128 128 255 -0.589434 0.681244 0.434137
0.403343 -0.217726 0.232266 128 128 255 -0.768434 0.411070 0.490439
0.418026 -0.169657 0.230421 128 128 255 -0.606172 -0.794151 0.043345
-0.089007 0.168081 0.524334 128 128 255 -0.590030 -0.807374 0.003567
-0.099518 0.213476 0.521813 128 128 255 -0.915000 -0.403265 0.012314
-0.127350 0.255271 0.524334 128 128 255 -0.723568 -0.683242 0.098133
-0.170291 0.289756 0.530421 128 128 255 -0.491557 -0.861891 0.124559
-0.223163 0.311754 0.536508 128 128 255 -0.232550 -0.969842 0.072984
-0.277907 0.316334 0.539029 128 128 255 0.099247 -0.993131 -0.061973
-0.325843 0.301644 0.536508 128 128 255 0.490095 -0.835904 -0.247127
-0.361054 0.270275 0.530421 128 128 255 0.769929 -0.525368 -0.362213
-0.382154 0.227833 0.524334 128 128 255 0.898058 -0.258504 -0.355903
-0.390777 0.180160 0.521813 128 128 255 0.965136 -0.056107 -0.255665
-0.388198 0.131800 0.524334 128 128 255 0.980853 0.177673 -0.079743
-0.373442 0.086605 0.530421 128 128 255 0.871555 0.475028 0.121411
-0.344671 0.048927 0.536508 128 128 255 0.627856 0.735879 0.253532
-0.302352 0.023417 0.539029 128 128 255 0.344004 0.895583 0.282120
-0.251087 0.013377 0.536508 128 128 255 0.059404 0.970901 0.231998
-0.198505 0.019381 0.530421 128 128 255 -0.237798 0.961892 0.134968
-0.152355 0.039624 0.524334 128 128 255 -0.541365 0.839908 0.038449
-0.118205 0.071534 0.521813 128 128 255 -0.808952 0.587874 0.000144
-0.099020 0.112850 0.524334 128 128 255 -0.345029 0.937533 0.044567
0.586219 0.314691 0.830421 128 128 255 -0.296202 0.954530 0.033730
0.397118 0.100000 -0.679264 128 128 255 -0.983666 0.051025 0.172618
0.397371 0.148607 -0.690284 128 128 255 -0.979458 -0.174872 0.100407
0.378852 0.193635 -0.694849 128 128 255 -0.823343 -0.566698 0.030993
0.342688 0.228106 -0.690284 128 128 255 -0.534699 -0.844948 0.012629
0.294726 0.247129 -0.679264 128 128 255 -0.201148 -0.978730 0.040340
0.242913 0.249454 -0.668243 128 128 255 0.116316 -0.989048 0.090856
0.194122 0.236531 -0.663678 128 128 255 0.390974 -0.909547 0.140937
0.152956 0.210520 -0.668243 128 128 255 0.627238 -0.758520 0.176691
0.122592 0.173559 -0.679264 128 128 255 0.826375 -0.529190 0.192517
0.105711 0.128713 -0.690284 128 128 255 0.955843 -0.222468 0.192019
0.104118 0.080903 -0.694849 128 128 255 0.973775 0.125681 0.189651
0.117711 0.036167 -0.690284 128 128 255 0.863127 0.463215 0.201106
0.144347 -0.000350 -0.679264 128 128 255 0.642181 0.731566 0.228945
0.180995 -0.025831 -0.668243 128 128 255 0.383189 0.887340 0.256504
0.224977 -0.039368 -0.663678 128 128 255 0.149869 0.952960 0.263453
0.273790 -0.040326 -0.668243 128 128 255 -0.079320 0.966864 0.242655
0.323559 -0.027408 -0.679264 128 128 255 -0.350882 0.916252 0.193299
0.367870 0.000296 -0.690284 128 128 255 -0.655463 0.746496 0.114510
0.398928 0.041139 -0.694849 128 128 255 -0.901668 0.431887 0.021636
0.410832 0.089923 -0.690284 128 128 255 0.170653 -0.985063 0.022988
0.094441 -0.000451 -0.379264 128 128 255 0.201070 -0.975255 0.091920
0.074396 0.045672 -0.372486 128 128 255 -0.804690 -0.542620 0.240912
0.041825 0.081536 -0.369678 128 128 255 -0.601983 -0.764396 0.230901
-0.000104 0.104209 -0.372486 128 128 255 -0.336143 -0.918281 0.209207
-0.047474 0.112020 -0.379264 128 128 255 -0.027799 -0.980016 0.196967
-0.094845 0.104214 -0.386041 128 128 255 0.296383 -0.930507 0.215206
-0.135730 0.081719 -0.388849 128 128 255 0.604686 -0.748401 0.272488
-0.164676 0.047649 -0.386041 128 128 255 0.827532 -0.438540 0.350534
-0.179340 0.006409 -0.379264 128 128 255 0.907163 -0.108850 0.406456
-0.180639 -0.038013 -0.372486 128 128 255 0.900091 0.128712 0.416257
-0.170782 -0.082880 -0.369678 128 128 255 0.876465 0.296448 0.379377
