ply
format ascii 1.0
element vertex 695
property float x
property float y
property float z
property uchar red
property uchar green
property uchar blue
property float nx
property float ny
property float nz
end_header
-0.116737 0.116568 -0.009456 128 128 255 -0.177259 0.319279 -0.930935
-0.117530 0.115735 -0.009602 128 128 255 -0.187503 0.309084 -0.932368
-0.118282 0.114864 -0.009752 128 128 255 -0.197820 0.298820 -0.933581
-0.118989 0.113958 -0.009905 128 128 255 -0.208266 0.288437 -0.934574
-0.119652 0.113017 -0.010060 128 128 255 -0.218899 0.277879 -0.935343
-0.120268 0.112046 -0.010218 128 128 255 -0.229775 0.267092 -0.935877
-0.120835 0.111045 -0.010377 128 128 255 -0.240968 0.256001 -0.936161
-0.121352 0.110018 -0.010538 128 128 255 -0.252542 0.244546 -0.936173
-0.121818 0.108967 -0.010701 128 128 255 -0.264570 0.232648 -0.935883
-0.122233 0.107894 -0.010864 128 128 255 -0.277160 0.220198 -0.935251
-0.122594 0.106802 -0.011028 128 128 255 -0.290396 0.207107 -0.934225
-0.122900 0.105693 -0.011191 128 128 255 -0.304406 0.193235 -0.932736
-0.123153 0.104571 -0.011354 128 128 255 -0.319315 0.178443 -0.930696
-0.123349 0.103438 -0.011517 128 128 255 -0.335285 0.162547 -0.927988
-0.123490 0.102297 -0.011678 128 128 255 -0.352489 0.145341 -0.924461
-0.123575 0.101150 -0.011838 128 128 255 -0.371141 0.126562 -0.919911
-0.123603 0.100000 -0.011995 128 128 255 -0.391511 0.105866 -0.914063
-0.123575 0.098850 -0.012151 128 128 255 -0.413870 0.082884 -0.906555
-0.123490 0.097703 -0.012303 128 128 255 -0.438560 0.057117 -0.896885
-0.123349 0.096562 -0.012453 128 128 255 -0.465978 0.027939 -0.884355
-0.123153 0.095429 -0.012599 128 128 255 -0.496542 -0.005410 -0.867996
-0.122900 0.094307 -0.012741 128 128 255 -0.530681 -0.043874 -0.846435
-0.122594 0.093198 -0.012879 128 128 255 -0.568729 -0.088559 -0.817744
-0.122233 0.092106 -0.013013 128 128 255 -0.610790 -0.140746 -0.779183
-0.121818 0.091033 -0.013142 128 128 255 -0.656351 -0.201646 -0.727009
-0.121352 0.089982 -0.013266 128 128 255 -0.703729 -0.272024 -0.656329
-0.120835 0.088955 -0.013385 128 128 255 -0.749201 -0.351332 -0.561483
-0.120268 0.087954 -0.013497 128 128 255 -0.786174 -0.436287 -0.437703
-0.119652 0.086983 -0.013604 128 128 255 -0.805576 -0.519830 -0.284297
-0.118989 0.086042 -0.013705 128 128 255 -0.798814 -0.591658 -0.108801
-0.118282 0.085136 -0.013799 128 128 255 -0.762871 -0.642415 0.073016
-0.117530 0.084265 -0.013887 128 128 255 -0.703095 -0.668361 0.242798
-0.116737 0.083432 -0.013967 128 128 255 -0.630083 -0.672628 0.388029
-0.115903 0.082639 -0.014041 128 128 255 -0.554095 -0.661870 0.504883
-0.115032 0.081888 -0.014107 128 128 255 -0.481891 -0.642613 0.595675
-0.114125 0.081181 -0.014166 128 128 255 -0.416618 -0.619568 0.665256
-0.113184 0.080518 -0.014217 128 128 255 -0.359082 -0.595585 0.718567
-0.112212 0.079903 -0.014261 128 128 255 -0.308919 -0.572192 0.759714
-0.111211 0.079336 -0.014297 128 128 255 -0.265277 -0.550092 0.791850
-0.110183 0.078819 -0.014325 128 128 255 -0.227229 -0.529556 0.817274
-0.109131 0.078353 -0.014345 128 128 255 -0.193877 -0.510602 0.837674
-0.108057 0.077940 -0.014357 128 128 255 -0.164449 -0.493150 0.854260
-0.106965 0.077579 -0.014361 128 128 255 -0.138312 -0.477066 0.867916
-0.105856 0.077272 -0.014357 128 128 255 -0.114913 -0.462206 0.879296
-0.104733 0.077020 -0.014345 128 128 255 -0.093826 -0.448424 0.888883
-0.103600 0.076824 -0.014325 128 128 255 -0.074691 -0.435596 0.897038
-0.102458 0.076683 -0.014297 128 128 255 -0.057197 -0.423592 0.904045
-0.101310 0.076599 -0.014261 128 128 255 -0.041110 -0.412318 0.910112
-0.100160 0.076570 -0.014217 128 128 255 -0.026217 -0.401667 0.915410
-0.099010 0.076599 -0.014166 128 128 255 -0.012352 -0.391565 0.920068
-0.097862 0.076683 -0.014107 128 128 255 0.000628 -0.381939 0.924187
-0.096720 0.076824 -0.014041 128 128 255 0.012856 -0.372717 0.927856
-0.095587 0.077021 -0.013967 128 128 255 0.024423 -0.363852 0.931136
-0.094464 0.077273 -0.013887 128 128 255 0.035427 -0.355285 0.934086
-0.093355 0.077580 -0.013799 128 128 255 0.045945 -0.346972 0.936750
-0.092263 0.077941 -0.013705 128 128 255 0.056047 -0.338866 0.939164
-0.091189 0.078354 -0.013604 128 128 255 0.065784 -0.330940 0.941356
-0.090137 0.078821 -0.013497 128 128 255 0.075225 -0.323142 0.943356
-0.089109 0.079338 -0.013385 128 128 255 0.084404 -0.315450 0.945181
-0.088108 0.079904 -0.013266 128 128 255 0.093372 -0.307825 0.946850
-0.087136 0.080520 -0.013142 128 128 255 0.102171 -0.300236 0.948377
-0.086196 0.081182 -0.013013 128 128 255 0.110832 -0.292656 0.949773
-0.085289 0.081889 -0.012879 128 128 255 0.119390 -0.285056 0.951046
-0.084417 0.082641 -0.012741 128 128 255 0.127885 -0.277396 0.952206
-0.083584 0.083434 -0.012599 128 128 255 0.136341 -0.269657 0.953256
-0.082791 0.084266 -0.012453 128 128 255 0.144792 -0.261801 0.954199
-0.082039 0.085137 -0.012303 128 128 255 0.153269 -0.253796 0.955037
-0.081331 0.086044 -0.012151 128 128 255 0.161803 -0.245605 0.955771
-0.080669 0.086984 -0.011995 128 128 255 0.170425 -0.237195 0.956396
-0.080053 0.087955 -0.011838 128 128 255 0.179164 -0.228525 0.956910
-0.079486 0.088956 -0.011678 128 128 255 0.188061 -0.219545 0.957305
-0.078969 0.089983 -0.011517 128 128 255 0.197143 -0.210215 0.957572
-0.078503 0.091034 -0.011354 128 128 255 0.206456 -0.200475 0.957698
-0.078089 0.092107 -0.011191 128 128 255 0.216035 -0.190269 0.957667
-0.077728 0.093199 -0.011028 128 128 255 0.225940 -0.179515 0.957458
-0.077421 0.094307 -0.010864 128 128 255 0.236199 -0.168158 0.957044
-0.077169 0.095429 -0.010701 128 128 255 0.246885 -0.156088 0.956391
-0.076972 0.096562 -0.010538 128 128 255 0.258060 -0.143208 0.955456
-0.076831 0.097704 -0.010377 128 128 255 0.269794 -0.129394 0.954185
-0.076747 0.098850 -0.010218 128 128 255 0.282169 -0.114502 0.952507
-0.076718 0.100000 -0.010060 128 128 255 0.109331 -0.113066 0.987554
-0.480454 0.510820 0.222622 128 128 255 0.396481 -0.096981 0.912906
-0.480497 0.512576 0.222775 128 128 255 0.426654 -0.083500 0.900552
-0.480627 0.514327 0.222925 128 128 255 0.453717 -0.058087 0.889251
-0.480842 0.516070 0.223071 128 128 255 0.484039 -0.029152 0.874561
-0.481143 0.517801 0.223213 128 128 255 0.518157 0.004148 0.855275
-0.481528 0.519514 0.223351 128 128 255 0.556593 0.042843 0.829680
-0.481996 0.521207 0.223485 128 128 255 0.599760 0.088179 0.795306
-0.482548 0.522875 0.223614 128 128 255 0.647686 0.141546 0.748644
-0.483180 0.524513 0.223738 128 128 255 0.699432 0.204138 0.684925
-0.483892 0.526119 0.223857 128 128 255 0.752229 0.276359 0.598145
-0.484682 0.527688 0.223969 128 128 255 0.800304 0.356638 0.481998
-0.485548 0.529216 0.224076 128 128 255 0.834139 0.439666 0.333026
-0.486487 0.530700 0.224177 128 128 255 0.842446 0.515854 0.155499
-0.487499 0.532135 0.224271 128 128 255 0.817904 0.574243 -0.035750
-0.488580 0.533520 0.224359 128 128 255 0.762913 0.608123 -0.219431
-0.489727 0.534850 0.224439 128 128 255 0.688553 0.618548 -0.378541
-0.490938 0.536122 0.224513 128 128 255 0.607671 0.611859 -0.506324
-0.492210 0.537333 0.224579 128 128 255 0.529420 0.595184 -0.604541
-0.493540 0.538480 0.224638 128 128 255 0.458410 0.573906 -0.678596
-0.494925 0.539561 0.224689 128 128 255 0.396023 0.551321 -0.734310
-0.496361 0.540572 0.224733 128 128 255 0.341929 0.529157 -0.776581
-0.497844 0.541512 0.224769 128 128 255 0.295211 0.508230 -0.809044
-0.499373 0.542378 0.224797 128 128 255 0.254782 0.488834 -0.834342
-0.500941 0.543167 0.224817 128 128 255 0.219578 0.470990 -0.854374
-0.502547 0.543879 0.224829 128 128 255 0.188748 0.454631 -0.870451
-0.504185 0.544511 0.224833 128 128 255 0.161541 0.439614 -0.883541
-0.505853 0.545062 0.224829 128 128 255 0.137344 0.425791 -0.894337
-0.507546 0.545531 0.224817 128 128 255 0.115664 0.413022 -0.903347
-0.509259 0.545915 0.224797 128 128 255 0.096093 0.401170 -0.910949
-0.510989 0.546216 0.224769 128 128 255 0.078301 0.390120 -0.917429
-0.512732 0.546431 0.224733 128 128 255 0.062022 0.379767 -0.923001
-0.514484 0.546560 0.224689 128 128 255 0.047029 0.370021 -0.927832
-0.516239 0.546603 0.224638 128 128 255 0.033131 0.360798 -0.932055
-0.517995 0.546560 0.224579 128 128 255 0.020189 0.352038 -0.935768
-0.519746 0.546431 0.224513 128 128 255 0.008056 0.343671 -0.939056
-0.521489 0.546216 0.224439 128 128 255 -0.003380 0.335640 -0.941984
-0.523220 0.545916 0.224359 128 128 255 -0.014211 0.327899 -0.944606
-0.524933 0.545531 0.224271 128 128 255 -0.024514 0.320407 -0.946963
-0.526625 0.545063 0.224177 128 128 255 -0.034363 0.313125 -0.949090
-0.528293 0.544512 0.224076 128 128 255 -0.043820 0.306014 -0.951018
-0.529931 0.543880 0.223969 128 128 255 -0.052947 0.299040 -0.952771
-0.531537 0.543169 0.223857 128 128 255 -0.061789 0.292168 -0.954369
-0.533105 0.542379 0.223738 128 128 255 -0.070386 0.285378 -0.955827
-0.534633 0.541514 0.223614 128 128 255 -0.078777 0.278638 -0.957160
-0.536117 0.540574 0.223485 128 128 255 -0.087003 0.271920 -0.958379
-0.537552 0.539563 0.223351 128 128 255 -0.095096 0.265198 -0.959493
-0.538937 0.538483 0.223213 128 128 255 -0.103089 0.258441 -0.960511
-0.540266 0.537336 0.223071 128 128 255 -0.111004 0.251634 -0.961436
-0.541538 0.536125 0.222925 128 128 255 -0.118871 0.244743 -0.962274
-0.542749 0.534853 0.222775 128 128 255 -0.126725 0.237738 -0.963027
-0.543896 0.533523 0.222622 128 128 255 -0.134585 0.230595 -0.963697
-0.544976 0.532139 0.222467 128 128 255 -0.142477 0.223285 -0.964284
-0.545988 0.530703 0.222309 128 128 255 -0.150429 0.215773 -0.964787
-0.546927 0.529220 0.222150 128 128 255 -0.158467 0.208026 -0.965201
-0.547793 0.527692 0.221989 128 128 255 -0.166622 0.200005 -0.965523
-0.548582 0.526123 0.221826 128 128 255 -0.174922 0.191669 -0.965746
-0.549294 0.524518 0.221663 128 128 255 -0.183389 0.182980 -0.965861
-0.549926 0.522880 0.221500 128 128 255 -0.192066 0.173881 -0.965855
-0.550476 0.521212 0.221336 128 128 255 -0.200989 0.164313 -0.965715
-0.550945 0.519520 0.221173 128 128 255 -0.210193 0.154219 -0.965420
-0.551330 0.517806 0.221010 128 128 255 -0.219726 0.143519 -0.964947
-0.551630 0.516076 0.220849 128 128 255 -0.229632 0.132133 -0.964267
-0.551845 0.514333 0.220690 128 128 255 -0.239968 0.119965 -0.963340
-0.551974 0.512582 0.220532 128 128 255 -0.250790 0.106908 -0.962120
-0.552017 0.510827 0.220377 128 128 255 -0.262180 0.092813 -0.960545
-0.551974 0.509071 0.220224 128 128 255 -0.274222 0.077527 -0.958536
-0.551845 0.507320 0.220074 128 128 255 -0.286991 0.060877 -0.955997
-0.551630 0.505577 0.219928 128 128 255 -0.300605 0.042632 -0.952795
-0.551329 0.503847 0.219786 128 128 255 -0.315192 0.022520 -0.948761
-0.550945 0.502133 0.219648 128 128 255 -0.330895 0.000215 -0.943667
-0.550476 0.500441 0.219514 128 128 255 -0.347870 -0.024671 -0.937218
-0.549925 0.498773 0.219385 128 128 255 -0.366303 -0.052618 -0.929007
-0.549293 0.497135 0.219261 128 128 255 -0.386401 -0.084221 -0.918478
-0.548581 0.495530 0.219142 128 128 255 -0.408362 -0.120173 -0.904875
-0.547792 0.493961 0.219030 128 128 255 -0.432389 -0.161340 -0.887136
-0.546926 0.492433 0.218923 128 128 255 -0.458603 -0.208692 -0.863789
-0.545986 0.490949 0.218822 128 128 255 -0.486973 -0.263303 -0.832784
-0.544975 0.489514 0.218728 128 128 255 -0.517143 -0.326200 -0.791301
-0.543895 0.488129 0.218640 128 128 255 -0.548136 -0.398034 -0.735606
-0.542747 0.486799 0.218560 128 128 255 -0.577949 -0.478485 -0.661081
-0.541536 0.485527 0.218486 128 128 255 -0.603049 -0.565185 -0.562936
-0.540264 0.484316 0.218420 128 128 255 -0.618290 -0.652685 -0.437857
-0.538934 0.483169 0.218361 128 128 255 -0.617783 -0.732089 -0.287036
-0.537550 0.482089 0.218310 128 128 255 -0.597352 -0.793149 -0.118683
-0.536114 0.481077 0.218266 128 128 255 -0.557276 -0.828635 0.052981
-0.534630 0.480138 0.218230 128 128 255 -0.502726 -0.837804 0.212957
-0.533102 0.479272 0.218202 128 128 255 -0.441180 -0.825815 0.351269
-0.531533 0.478482 0.218182 128 128 255 -0.379203 -0.800162 0.464700
-0.529927 0.477771 0.218170 128 128 255 -0.320929 -0.767508 0.554920
-0.528288 0.477138 0.218166 128 128 255 -0.268202 -0.732465 0.625750
-0.526621 0.476587 0.218170 128 128 255 -0.221453 -0.697763 0.681238
-0.524928 0.476119 0.218182 128 128 255 -0.180330 -0.664786 0.724942
-0.523214 0.475734 0.218202 128 128 255 -0.144186 -0.634110 0.759681
-0.521484 0.475433 0.218230 128 128 255 -0.112332 -0.605885 0.787582
-0.519741 0.475218 0.218266 128 128 255 -0.084089 -0.580009 0.810258
-0.517989 0.475089 0.218310 128 128 255 -0.058880 -0.556294 0.828897
-0.516233 0.475046 0.218361 128 128 255 -0.036211 -0.534517 0.844382
-0.514477 0.475088 0.218420 128 128 255 -0.015672 -0.514449 0.857378
-0.512726 0.475217 0.218486 128 128 255 0.003077 -0.495884 0.868384
-0.510983 0.475432 0.218560 128 128 255 0.020321 -0.478621 0.877786
-0.509252 0.475732 0.218640 128 128 255 0.036299 -0.462493 0.885879
-0.507538 0.476117 0.218728 128 128 255 0.051196 -0.447356 0.892890
-0.505846 0.476585 0.218822 128 128 255 0.065189 -0.433068 0.899001
-0.504178 0.477135 0.218923 128 128 255 0.078418 -0.419515 0.904355
-0.502539 0.477767 0.219030 128 128 255 0.090998 -0.406601 0.909063
-0.500934 0.478479 0.219142 128 128 255 0.103037 -0.394232 0.913217
-0.499365 0.479268 0.219261 128 128 255 0.114631 -0.382324 0.916891
-0.497837 0.480133 0.219385 128 128 255 0.125857 -0.370808 0.920142
-0.496353 0.481073 0.219514 128 128 255 0.136795 -0.359614 0.923019
-0.494917 0.482084 0.219648 128 128 255 0.147512 -0.348681 0.925560
-0.493533 0.483164 0.219786 128 128 255 0.158063 -0.337961 0.927792
-0.492203 0.484311 0.219928 128 128 255 0.168520 -0.327387 0.929741
-0.490931 0.485522 0.220074 128 128 255 0.178938 -0.316911 0.931423
-0.489720 0.486793 0.220224 128 128 255 0.189373 -0.306483 0.932848
-0.488573 0.488123 0.220377 128 128 255 0.199885 -0.296049 0.934024
-0.487493 0.489507 0.220532 128 128 255 0.210539 -0.285553 0.934951
-0.486482 0.490943 0.220690 128 128 255 0.221395 -0.274939 0.935624
-0.485542 0.492426 0.220849 128 128 255 0.232517 -0.264152 0.936034
-0.484677 0.493954 0.221010 128 128 255 0.243984 -0.253119 0.936164
-0.483887 0.495523 0.221173 128 128 255 0.255876 -0.241771 0.935988
-0.483176 0.497128 0.221336 128 128 255 0.268280 -0.230028 0.935475
-0.482544 0.498767 0.221500 128 128 255 0.281300 -0.217795 0.934578
-0.481993 0.500434 0.221663 128 128 255 0.295059 -0.204954 0.933238
-0.481525 0.502127 0.221826 128 128 255 0.309683 -0.191388 0.931379
-0.481140 0.503840 0.221989 128 128 255 0.325324 -0.176950 0.928899
-0.480841 0.505570 0.222150 128 128 255 0.342179 -0.161444 0.925662
-0.480626 0.507313 0.222309 128 128 255 0.360458 -0.144653 0.921491
-0.480497 0.509065 0.222467 128 128 255 0.380420 -0.126302 0.916149
-0.480454 0.510820 0.222622 128 128 255 0.404355 -0.109154 0.908065
-0.429067 0.510809 0.192795 128 128 255 -0.765214 0.001409 -0.643774
-0.429173 0.515086 0.192945 128 128 255 -0.725019 -0.014013 -0.688586
-0.429489 0.519352 0.193091 128 128 255 -0.723449 -0.050192 -0.688550
-0.430014 0.523598 0.193233 128 128 255 -0.720070 -0.086311 -0.688513
-0.430746 0.527814 0.193371 128 128 255 -0.714881 -0.122275 -0.688472
-0.431685 0.531988 0.193505 128 128 255 -0.707887 -0.157987 -0.688430
-0.432827 0.536112 0.193634 128 128 255 -0.699098 -0.193358 -0.688386
-0.434170 0.540174 0.193758 128 128 255 -0.688527 -0.228296 -0.688340
-0.435711 0.544166 0.193877 128 128 255 -0.676195 -0.262705 -0.688292
-0.437445 0.548077 0.193989 128 128 255 -0.662127 -0.296495 -0.688243
-0.439369 0.551899 0.194096 128 128 255 -0.646350 -0.329581 -0.688192
-0.441479 0.555622 0.194197 128 128 255 -0.628903 -0.361865 -0.688139
-0.443769 0.559236 0.194291 128 128 255 -0.609823 -0.393262 -0.688085
-0.446233 0.562735 0.194379 128 128 255 -0.589155 -0.423689 -0.688029
-0.448865 0.566108 0.194459 128 128 255 -0.566948 -0.453063 -0.687971
-0.451660 0.569347 0.194533 128 128 255 -0.543258 -0.481297 -0.687912
-0.454610 0.572446 0.194599 128 128 255 -0.518141 -0.508320 -0.687852
-0.457709 0.575396 0.194658 128 128 255 -0.491666 -0.534052 -0.687789
-0.460949 0.578191 0.194709 128 128 255 -0.463894 -0.558424 -0.687724
-0.464322 0.580823 0.194753 128 128 255 -0.434899 -0.581367 -0.687659
-0.467820 0.583287 0.194789 128 128 255 -0.404757 -0.602819 -0.687591
-0.471434 0.585576 0.194817 128 128 255 -0.373546 -0.622719 -0.687521
-0.475156 0.587684 0.194837 128 128 255 -0.341349 -0.641009 -0.687450
-0.478978 0.589608 0.194849 128 128 255 -0.308252 -0.657643 -0.687377
-0.482889 0.591342 0.194853 128 128 255 -0.274342 -0.672571 -0.687302
-0.486880 0.592881 0.194849 128 128 255 -0.239717 -0.685752 -0.687226
-0.490942 0.594223 0.194837 128 128 255 -0.204454 -0.697156 -0.687148
-0.495064 0.595364 0.194817 128 128 255 -0.168661 -0.706745 -0.687069
-0.499238 0.596302 0.194789 128 128 255 -0.132435 -0.714498 -0.686989
-0.503453 0.597033 0.194753 128 128 255 -0.095871 -0.720393 -0.686908
-0.507698 0.597557 0.194709 128 128 255 -0.059062 -0.724419 -0.686825
-0.511964 0.597871 0.194658 128 128 255 -0.022112 -0.726565 -0.686742
-0.516240 0.597976 0.194599 128 128 255 0.014881 -0.726826 -0.686660
-0.520516 0.597871 0.194533 128 128 255 0.051812 -0.725209 -0.686576
-0.524782 0.597556 0.194459 128 128 255 0.088593 -0.721719 -0.686494
-0.529027 0.597032 0.194379 128 128 255 0.125118 -0.716369 -0.686411
-0.533241 0.596301 0.194291 128 128 255 0.161292 -0.709180 -0.686329
-0.537414 0.595363 0.194197 128 128 255 0.197022 -0.700174 -0.686250
-0.541537 0.594222 0.194096 128 128 255 0.232213 -0.689381 -0.686171
-0.545598 0.592880 0.193989 128 128 255 0.266772 -0.676836 -0.686095
-0.549588 0.591341 0.193877 128 128 255 0.300614 -0.662577 -0.686020
-0.553499 0.589607 0.193758 128 128 255 0.333651 -0.646646 -0.685949
-0.557319 0.587683 0.193634 128 128 255 0.365807 -0.629090 -0.685879
-0.561041 0.585575 0.193505 128 128 255 0.396984 -0.609969 -0.685815
-0.564654 0.583286 0.193371 128 128 255 0.427121 -0.589331 -0.685753
-0.568151 0.580823 0.193233 128 128 255 0.456139 -0.567238 -0.685695
-0.571523 0.578191 0.193091 128 128 255 0.483968 -0.543756 -0.685642
-0.574762 0.575397 0.192945 128 128 255 0.510544 -0.518948 -0.685593
-0.577859 0.572448 0.192795 128 128 255 0.535804 -0.492886 -0.685550
-0.580809 0.569349 0.192642 128 128 255 0.559691 -0.465641 -0.685511
-0.583603 0.566110 0.192487 128 128 255 0.582150 -0.437289 -0.685478
-0.586234 0.562738 0.192329 128 128 255 0.603134 -0.407909 -0.685449
-0.588697 0.559241 0.192170 128 128 255 0.622599 -0.377573 -0.685426
-0.590986 0.555627 0.192009 128 128 255 0.640503 -0.346366 -0.685410
-0.593094 0.551905 0.191846 128 128 255 0.656810 -0.314373 -0.685397
-0.595017 0.548085 0.191683 128 128 255 0.671487 -0.281678 -0.685392
-0.596751 0.544174 0.191519 128 128 255 0.684512 -0.248357 -0.685392
-0.598291 0.540184 0.191356 128 128 255 0.695860 -0.214497 -0.685397
-0.599633 0.536122 0.191193 128 128 255 0.705512 -0.180190 -0.685408
-0.600774 0.532000 0.191030 128 128 255 0.713454 -0.145517 -0.685425
-0.601711 0.527826 0.190869 128 128 255 0.719680 -0.110560 -0.685447
-0.602443 0.523612 0.190710 128 128 255 0.724182 -0.075409 -0.685474
-0.602967 0.519367 0.190552 128 128 255 0.726959 -0.040145 -0.685507
-0.603282 0.515101 0.190397 128 128 255 0.728015 -0.004856 -0.685544
-0.603387 0.510825 0.190244 128 128 255 0.727359 0.030380 -0.685585
-0.603282 0.506549 0.190094 128 128 255 0.724998 0.065479 -0.685631
-0.602968 0.502284 0.189948 128 128 255 0.720950 0.100362 -0.685681
-0.602445 0.498038 0.189806 128 128 255 0.715233 0.134944 -0.685735
-0.601714 0.493824 0.189668 128 128 255 0.707866 0.169156 -0.685793
-0.600777 0.489651 0.189534 128 128 255 0.698879 0.202912 -0.685853
-0.599636 0.485528 0.189405 128 128 255 0.688299 0.236140 -0.685917
-0.598295 0.481467 0.189281 128 128 255 0.676155 0.268778 -0.685983
-0.596755 0.477476 0.189162 128 128 255 0.662485 0.300743 -0.686052
-0.595022 0.473565 0.189050 128 128 255 0.647324 0.331972 -0.686124
-0.593099 0.469745 0.188943 128 128 255 0.630715 0.362399 -0.686197
-0.590991 0.466023 0.188842 128 128 255 0.612700 0.391958 -0.686271
-0.588702 0.462409 0.188748 128 128 255 0.593321 0.420592 -0.686347
-0.586239 0.458912 0.188660 128 128 255 0.572633 0.448233 -0.686424
-0.583607 0.455539 0.188580 128 128 255 0.550682 0.474830 -0.686502
-0.580813 0.452300 0.188506 128 128 255 0.527516 0.500332 -0.686582
-0.577863 0.449202 0.188440 128 128 255 0.503197 0.524681 -0.686660
-0.574765 0.446252 0.188381 128 128 255 0.477775 0.547831 -0.686740
-0.571525 0.443458 0.188330 128 128 255 0.451306 0.569737 -0.686820
-0.568153 0.440826 0.188286 128 128 255 0.423859 0.590349 -0.686900
-0.564655 0.438363 0.188250 128 128 255 0.395487 0.609631 -0.686979
-0.561040 0.436074 0.188222 128 128 255 0.366252 0.627543 -0.687059
-0.557317 0.433965 0.188202 128 128 255 0.336219 0.644049 -0.687137
-0.553496 0.432042 0.188190 128 128 255 0.305453 0.659115 -0.687216
-0.549584 0.430308 0.188186 128 128 255 0.274022 0.672711 -0.687293
-0.545592 0.428768 0.188190 128 128 255 0.241988 0.684810 -0.687370
-0.541530 0.427425 0.188202 128 128 255 0.209424 0.695384 -0.687447
-0.537406 0.426284 0.188222 128 128 255 0.176393 0.704415 -0.687521
-0.533231 0.425346 0.188250 128 128 255 0.142970 0.711878 -0.687596
-0.529015 0.424614 0.188286 128 128 255 0.109226 0.717761 -0.687669
-0.524769 0.424090 0.188330 128 128 255 0.075231 0.722048 -0.687741
-0.520502 0.423775 0.188381 128 128 255 0.041052 0.724728 -0.687812
-0.516224 0.423669 0.188440 128 128 255 0.006767 0.725791 -0.687882
-0.511947 0.423773 0.188506 128 128 255 -0.027554 0.725236 -0.687949
-0.507679 0.424087 0.188580 128 128 255 -0.061836 0.723057 -0.688015
-0.503433 0.424610 0.188660 128 128 255 -0.096006 0.719256 -0.688080
-0.499217 0.425340 0.188748 128 128 255 -0.129993 0.713836 -0.688142
-0.495042 0.426277 0.188842 128 128 255 -0.163718 0.706804 -0.688204
-0.490919 0.427417 0.188943 128 128 255 -0.197111 0.698171 -0.688262
-0.486856 0.428758 0.189050 128 128 255 -0.230099 0.687948 -0.688318
-0.482864 0.430297 0.189162 128 128 255 -0.262607 0.676152 -0.688372
-0.478952 0.432029 0.189281 128 128 255 -0.294557 0.662804 -0.688424
-0.475131 0.433952 0.189405 128 128 255 -0.325884 0.647924 -0.688472
-0.471408 0.436060 0.189534 128 128 255 -0.356511 0.631541 -0.688518
-0.467793 0.438347 0.189668 128 128 255 -0.386365 0.613684 -0.688559
-0.464296 0.440810 0.189806 128 128 255 -0.415380 0.594383 -0.688599
-0.460923 0.443441 0.189948 128 128 255 -0.443482 0.573678 -0.688634
-0.457683 0.446234 0.190094 128 128 255 -0.470604 0.551607 -0.688666
-0.454585 0.449183 0.190244 128 128 255 -0.496679 0.528214 -0.688694
-0.451635 0.452281 0.190397 128 128 255 -0.521641 0.503545 -0.688719
-0.448841 0.455519 0.190552 128 128 255 -0.545424 0.477651 -0.688739
-0.446210 0.458891 0.190710 128 128 255 -0.567969 0.450586 -0.688756
-0.443747 0.462388 0.190869 128 128 255 -0.589214 0.422405 -0.688768
-0.441458 0.466002 0.191030 128 128 255 -0.609103 0.393167 -0.688776
-0.439350 0.469724 0.191193 128 128 255 -0.627580 0.362940 -0.688780
-0.437427 0.473544 0.191356 128 128 255 -0.644591 0.331788 -0.688781
-0.435695 0.477455 0.191519 128 128 255 -0.660090 0.299779 -0.688777
-0.434156 0.481446 0.191683 128 128 255 -0.674028 0.266988 -0.688769
-0.432815 0.485508 0.191846 128 128 255 -0.686364 0.233489 -0.688758
-0.431674 0.489631 0.192009 128 128 255 -0.697058 0.199358 -0.688743
-0.430738 0.493805 0.192170 128 128 255 -0.706072 0.164681 -0.688725
-0.430008 0.498020 0.192329 128 128 255 -0.713379 0.129533 -0.688703
-0.429485 0.502265 0.192487 128 128 255 -0.718948 0.094002 -0.688678
-0.429171 0.506532 0.192642 128 128 255 -0.722756 0.058177 -0.688650
-0.429067 0.510809 0.192795 128 128 255 -0.663661 0.050817 -0.746306
-0.398265 0.510798 0.142926 128 128 255 -0.976592 -0.018890 -0.214271
-0.398409 0.516587 0.143072 128 128 255 -0.957312 -0.041210 -0.286104
-0.398836 0.522361 0.143215 128 128 255 -0.954128 -0.088331 -0.286074
-0.399547 0.528108 0.143353 128 128 255 -0.948623 -0.135254 -0.286042
-0.400538 0.533813 0.143486 128 128 255 -0.940810 -0.181865 -0.286010
-0.401809 0.539462 0.143615 128 128 255 -0.930705 -0.228049 -0.285975
-0.403355 0.545043 0.143739 128 128 255 -0.918331 -0.273689 -0.285941
-0.405172 0.550541 0.143858 128 128 255 -0.903716 -0.318679 -0.285906
-0.407258 0.555943 0.143971 128 128 255 -0.886893 -0.362904 -0.285870
-0.409605 0.561237 0.144078 128 128 255 -0.867902 -0.406257 -0.285834
-0.412210 0.566409 0.144178 128 128 255 -0.846786 -0.448635 -0.285797
-0.415065 0.571448 0.144272 128 128 255 -0.823597 -0.489928 -0.285760
-0.418163 0.576340 0.144360 128 128 255 -0.798389 -0.530035 -0.285723
-0.421498 0.581074 0.144441 128 128 255 -0.771222 -0.568859 -0.285685
-0.425061 0.585639 0.144514 128 128 255 -0.742162 -0.606301 -0.285648
-0.428844 0.590024 0.144580 128 128 255 -0.711278 -0.642270 -0.285610
-0.432837 0.594217 0.144639 128 128 255 -0.678645 -0.676676 -0.285572
-0.437030 0.598210 0.144691 128 128 255 -0.644342 -0.709432 -0.285534
-0.441415 0.601992 0.144734 128 128 255 -0.608454 -0.740456 -0.285496
-0.445979 0.605555 0.144770 128 128 255 -0.571069 -0.769672 -0.285457
-0.450713 0.608889 0.144798 128 128 255 -0.532272 -0.797008 -0.285419
-0.455604 0.611986 0.144818 128 128 255 -0.492168 -0.822393 -0.285379
-0.460642 0.614840 0.144830 128 128 255 -0.450852 -0.845762 -0.285340
-0.465813 0.617443 0.144834 128 128 255 -0.408424 -0.867060 -0.285300
-0.471106 0.619790 0.144830 128 128 255 -0.364990 -0.886233 -0.285260
-0.476507 0.621873 0.144818 128 128 255 -0.320659 -0.903232 -0.285220
-0.482004 0.623689 0.144798 128 128 255 -0.275545 -0.918013 -0.285180
-0.487583 0.625233 0.144770 128 128 255 -0.229746 -0.930544 -0.285140
-0.493231 0.626501 0.144734 128 128 255 -0.183385 -0.940791 -0.285099
-0.498934 0.627491 0.144691 128 128 255 -0.136583 -0.948729 -0.285058
-0.504679 0.628199 0.144639 128 128 255 -0.089450 -0.954340 -0.285017
-0.510452 0.628625 0.144580 128 128 255 -0.042098 -0.957609 -0.284977
-0.516239 0.628766 0.144514 128 128 255 0.005349 -0.958531 -0.284937
-0.522025 0.628624 0.144441 128 128 255 0.052772 -0.957104 -0.284897
-0.527798 0.628198 0.144360 128 128 255 0.100063 -0.953333 -0.284857
-0.533542 0.627488 0.144272 128 128 255 0.147091 -0.947229 -0.284818
-0.539245 0.626498 0.144178 128 128 255 0.193751 -0.938808 -0.284780
-0.544893 0.625229 0.144078 128 128 255 0.239923 -0.928094 -0.284743
-0.550471 0.623685 0.143971 128 128 255 0.285500 -0.915113 -0.284707
-0.555967 0.621868 0.143858 128 128 255 0.330356 -0.899904 -0.284671
-0.561367 0.619784 0.143739 128 128 255 0.374396 -0.882502 -0.284638
-0.566658 0.617438 0.143615 128 128 255 0.417509 -0.862952 -0.284605
-0.571828 0.614835 0.143486 128 128 255 0.459588 -0.841306 -0.284575
-0.576864 0.611981 0.143353 128 128 255 0.500531 -0.817620 -0.284546
-0.581755 0.608884 0.143215 128 128 255 0.540238 -0.791954 -0.284519
-0.586487 0.605550 0.143072 128 128 255 0.578618 -0.764371 -0.284494
-0.591050 0.601988 0.142926 128 128 255 0.615575 -0.734944 -0.284472
-0.595433 0.598207 0.142776 128 128 255 0.651023 -0.703745 -0.284451
-0.599625 0.594215 0.142624 128 128 255 0.684877 -0.670851 -0.284433
-0.603616 0.590022 0.142468 128 128 255 0.717056 -0.636346 -0.284418
-0.607397 0.585639 0.142311 128 128 255 0.747486 -0.600315 -0.284406
-0.610958 0.581075 0.142151 128 128 255 0.776095 -0.562847 -0.284396
-0.614291 0.576342 0.141990 128 128 255 0.802814 -0.524036 -0.284387
-0.617388 0.571452 0.141828 128 128 255 0.827583 -0.483976 -0.284383
-0.620242 0.566415 0.141664 128 128 255 0.850347 -0.442761 -0.284382
-0.622844 0.561245 0.141501 128 128 255 0.871047 -0.400505 -0.284381
-0.625191 0.555953 0.141337 128 128 255 0.889643 -0.357296 -0.284385
-0.627274 0.550552 0.141174 128 128 255 0.906090 -0.313246 -0.284391
-0.629091 0.545056 0.141012 128 128 255 0.920351 -0.268461 -0.284399
-0.630635 0.539477 0.140851 128 128 255 0.932393 -0.223054 -0.284411
-0.631904 0.533829 0.140691 128 128 255 0.942194 -0.177125 -0.284424
-0.632894 0.528126 0.140533 128 128 255 0.949730 -0.130792 -0.284440
-0.633604 0.522381 0.140378 128 128 255 0.954987 -0.084162 -0.284458
-0.634030 0.516609 0.140225 128 128 255 0.957955 -0.037349 -0.284478
-0.634173 0.510822 0.140076 128 128 255 0.958629 0.009534 -0.284499
-0.634032 0.505036 0.139930 128 128 255 0.957010 0.056376 -0.284523
-0.633607 0.499263 0.139787 128 128 255 0.953105 0.103069 -0.284548
-0.632899 0.493518 0.139649 128 128 255 0.946925 0.149497 -0.284576
-0.631910 0.487815 0.139515 128 128 255 0.938487 0.195555 -0.284605
-0.630643 0.482167 0.139386 128 128 255 0.927815 0.241128 -0.284635
-0.629099 0.476589 0.139262 128 128 255 0.914936 0.286109 -0.284666
-0.627284 0.471092 0.139144 128 128 255 0.899881 0.330396 -0.284698
-0.625202 0.465692 0.139031 128 128 255 0.882689 0.373883 -0.284731
-0.622856 0.460400 0.138924 128 128 255 0.863405 0.416463 -0.284765
-0.620254 0.455229 0.138823 128 128 255 0.842072 0.458043 -0.284800
-0.617401 0.450193 0.138729 128 128 255 0.818748 0.498518 -0.284835
-0.614304 0.445302 0.138642 128 128 255 0.793483 0.537804 -0.284871
-0.610971 0.440569 0.138561 128 128 255 0.766343 0.575800 -0.284908
-0.607410 0.436006 0.138488 128 128 255 0.737395 0.612417 -0.284945
-0.603628 0.431622 0.138421 128 128 255 0.706705 0.647575 -0.284983
-0.599636 0.427430 0.138362 128 128 255 0.674347 0.681189 -0.285020
-0.595443 0.423438 0.138311 128 128 255 0.640400 0.713183 -0.285058
-0.591060 0.419656 0.138267 128 128 255 0.604944 0.743480 -0.285097
-0.586495 0.416095 0.138232 128 128 255 0.568062 0.772012 -0.285136
-0.581761 0.412761 0.138204 128 128 255 0.529845 0.798711 -0.285174
-0.576870 0.409663 0.138184 128 128 255 0.490380 0.823517 -0.285214
-0.571832 0.406810 0.138172 128 128 255 0.449759 0.846373 -0.285254
-0.566660 0.404206 0.138168 128 128 255 0.408080 0.867224 -0.285294
-0.561366 0.401860 0.138172 128 128 255 0.365442 0.886023 -0.285334
-0.555964 0.399776 0.138184 128 128 255 0.321941 0.902727 -0.285375
-0.550465 0.397959 0.138204 128 128 255 0.277681 0.917295 -0.285416
-0.544884 0.396414 0.138232 128 128 255 0.232766 0.929696 -0.285457
-0.539234 0.395145 0.138267 128 128 255 0.187300 0.939898 -0.285499
-0.533529 0.394154 0.138311 128 128 255 0.141388 0.947879 -0.285542
-0.527781 0.393445 0.138362 128 128 255 0.095138 0.953620 -0.285584
-0.522006 0.393018 0.138421 128 128 255 0.048659 0.957105 -0.285626
-0.516217 0.392875 0.138488 128 128 255 0.002056 0.958326 -0.285669
-0.510428 0.393016 0.138561 128 128 255 -0.044559 0.957279 -0.285711
-0.504652 0.393440 0.138642 128 128 255 -0.091079 0.953965 -0.285754
-0.498905 0.394148 0.138729 128 128 255 -0.137390 0.948391 -0.285796
-0.493199 0.395136 0.138823 128 128 255 -0.183393 0.940566 -0.285838
-0.487549 0.396403 0.138924 128 128 255 -0.228972 0.930508 -0.285879
-0.481968 0.397946 0.139031 128 128 255 -0.274023 0.918238 -0.285919
-0.476469 0.399761 0.139144 128 128 255 -0.318439 0.903783 -0.285959
-0.471067 0.401843 0.139262 128 128 255 -0.362116 0.887174 -0.285997
-0.465773 0.404187 0.139386 128 128 255 -0.404948 0.868448 -0.286034
-0.460601 0.406789 0.139515 128 128 255 -0.446834 0.847646 -0.286069
-0.455563 0.409641 0.139649 128 128 255 -0.487672 0.824816 -0.286102
-0.450671 0.412737 0.139787 128 128 255 -0.527366 0.800008 -0.286134
-0.445937 0.416069 0.139930 128 128 255 -0.565819 0.773279 -0.286162
-0.441372 0.419629 0.140076 128 128 255 -0.602937 0.744690 -0.286188
-0.436988 0.423410 0.140225 128 128 255 -0.638631 0.714306 -0.286212
-0.432795 0.427400 0.140378 128 128 255 -0.672814 0.682197 -0.286233
-0.428803 0.431592 0.140533 128 128 255 -0.705399 0.648439 -0.286251
-0.425022 0.435975 0.140691 128 128 255 -0.736307 0.613111 -0.286265
-0.421460 0.440538 0.140851 128 128 255 -0.765462 0.576293 -0.286276
-0.418127 0.445270 0.141012 128 128 255 -0.792791 0.538074 -0.286284
-0.415031 0.450160 0.141174 128 128 255 -0.818225 0.498545 -0.286288
-0.412178 0.455197 0.141337 128 128 255 -0.841701 0.457797 -0.286289
-0.409576 0.460367 0.141501 128 128 255 -0.863157 0.415932 -0.286287
-0.407231 0.465660 0.141664 128 128 255 -0.882542 0.373044 -0.286281
-0.405149 0.471061 0.141828 128 128 255 -0.899805 0.329239 -0.286272
-0.403334 0.476558 0.141990 128 128 255 -0.914902 0.284623 -0.286260
-0.401791 0.482137 0.142151 128 128 255 -0.927792 0.239301 -0.286245
-0.400524 0.487786 0.142311 128 128 255 -0.938443 0.193385 -0.286227
-0.399536 0.493490 0.142468 128 128 255 -0.946827 0.146985 -0.286207
-0.398829 0.499236 0.142624 128 128 255 -0.952920 0.100209 -0.286184
-0.398405 0.505010 0.142776 128 128 255 -0.956705 0.053177 -0.286159
-0.398265 0.510798 0.142926 128 128 255 -0.931043 0.033415 -0.363376
-0.395325 0.510797 0.084827 128 128 255 -0.962030 -0.031123 0.271162
-0.395472 0.516730 0.084970 128 128 255 -0.979908 -0.052140 0.192515
-0.395911 0.522648 0.085108 128 128 255 -0.976190 -0.099996 0.192492
-0.396639 0.528538 0.085241 128 128 255 -0.970140 -0.147597 0.192469
-0.397655 0.534385 0.085370 128 128 255 -0.961773 -0.194830 0.192445
-0.398957 0.540175 0.085494 128 128 255 -0.951110 -0.241588 0.192420
-0.400542 0.545895 0.085613 128 128 255 -0.938179 -0.287757 0.192395
-0.402405 0.551530 0.085726 128 128 255 -0.923014 -0.333226 0.192370
-0.404542 0.557067 0.085833 128 128 255 -0.905650 -0.377891 0.192344
-0.406948 0.562493 0.085933 128 128 255 -0.886130 -0.421649 0.192317
-0.409617 0.567794 0.086027 128 128 255 -0.864501 -0.464394 0.192291
-0.412544 0.572958 0.086115 128 128 255 -0.840815 -0.506028 0.192265
-0.415720 0.577972 0.086196 128 128 255 -0.815130 -0.546450 0.192239
-0.419137 0.582825 0.086269 128 128 255 -0.787504 -0.585570 0.192211
-0.422789 0.587503 0.086335 128 128 255 -0.758008 -0.623289 0.192186
-0.426666 0.591997 0.086394 128 128 255 -0.726708 -0.659523 0.192158
-0.430758 0.596295 0.086446 128 128 255 -0.693677 -0.694188 0.192132
-0.435057 0.600388 0.086489 128 128 255 -0.658998 -0.727199 0.192105
-0.439550 0.604264 0.086525 128 128 255 -0.622748 -0.758479 0.192078
-0.444229 0.607915 0.086553 128 128 255 -0.585016 -0.787955 0.192051
-0.449080 0.611332 0.086573 128 128 255 -0.545888 -0.815557 0.192024
-0.454094 0.614507 0.086585 128 128 255 -0.505458 -0.841219 0.191997
-0.459257 0.617432 0.086589 128 128 255 -0.463825 -0.864878 0.191970
-0.464557 0.620100 0.086585 128 128 255 -0.421080 -0.886481 0.191942
-0.469981 0.622505 0.086573 128 128 255 -0.377335 -0.905973 0.191915
-0.475517 0.624640 0.086553 128 128 255 -0.332682 -0.923310 0.191888
-0.481151 0.626502 0.086525 128 128 255 -0.287235 -0.938449 0.191860
-0.486869 0.628084 0.086489 128 128 255 -0.241095 -0.951353 0.191833
-0.492657 0.629384 0.086446 128 128 255 -0.194375 -0.961992 0.191805
-0.498503 0.630398 0.086394 128 128 255 -0.147185 -0.970339 0.191777
-0.504391 0.631124 0.086335 128 128 255 -0.099646 -0.976372 0.191750
-0.510308 0.631560 0.086269 128 128 255 -0.051854 -0.980078 0.191723
-0.516238 0.631705 0.086196 128 128 255 -0.003933 -0.981447 0.191695
-0.522169 0.631559 0.086115 128 128 255 0.043997 -0.980473 0.191669
-0.528085 0.631122 0.086027 128 128 255 0.091838 -0.977159 0.191643
-0.533973 0.630395 0.085933 128 128 255 0.139464 -0.971511 0.191616
-0.539818 0.629380 0.085833 128 128 255 0.186764 -0.963541 0.191591
-0.545606 0.628080 0.085726 128 128 255 0.233625 -0.953269 0.191566
-0.551324 0.626497 0.085613 128 128 255 0.279941 -0.940715 0.191542
-0.556956 0.624635 0.085494 128 128 255 0.325589 -0.925911 0.191519
-0.562491 0.622499 0.085370 128 128 255 0.370464 -0.908892 0.191498
-0.567914 0.620094 0.085241 128 128 255 0.414469 -0.889692 0.191476
-0.573213 0.617426 0.085108 128 128 255 0.457489 -0.868359 0.191456
-0.578375 0.614501 0.084970 128 128 255 0.499419 -0.844945 0.191437
-0.583386 0.611327 0.084827 128 128 255 0.540163 -0.819501 0.191420
-0.588237 0.607910 0.084681 128 128 255 0.579625 -0.792085 0.191405
-0.592913 0.604259 0.084531 128 128 255 0.617703 -0.762767 0.191390
-0.597405 0.600384 0.084379 128 128 255 0.654309 -0.731611 0.191378
-0.601702 0.596292 0.084223 128 128 255 0.689351 -0.698694 0.191367
-0.605793 0.591995 0.084066 128 128 255 0.722750 -0.664090 0.191358
-0.609668 0.587503 0.083906 128 128 255 0.754422 -0.627879 0.191351
-0.613318 0.582825 0.083745 128 128 255 0.784290 -0.590149 0.191345
-0.616734 0.577974 0.083583 128 128 255 0.812277 -0.550994 0.191342
-0.619908 0.572962 0.083419 128 128 255 0.838318 -0.510501 0.191340
-0.622832 0.567800 0.083256 128 128 255 0.862351 -0.468764 0.191341
-0.625500 0.562501 0.083092 128 128 255 0.884314 -0.425884 0.191342
-0.627905 0.557077 0.082929 128 128 255 0.904149 -0.381969 0.191346
-0.630040 0.551542 0.082767 128 128 255 0.921811 -0.337119 0.191352
-0.631902 0.545908 0.082606 128 128 255 0.937254 -0.291441 0.191359
-0.633485 0.540191 0.082446 128 128 255 0.950438 -0.245045 0.191368
-0.634786 0.534402 0.082288 128 128 255 0.961329 -0.198042 0.191379
-0.635801 0.528557 0.082133 128 128 255 0.969900 -0.150546 0.191391
-0.636528 0.522669 0.081980 128 128 255 0.976127 -0.102668 0.191404
-0.636965 0.516753 0.081831 128 128 255 0.979992 -0.054531 0.191420
-0.637111 0.510822 0.081685 128 128 255 0.981485 -0.006249 0.191437
-0.636967 0.504891 0.081542 128 128 255 0.980600 0.042064 0.191454
-0.636531 0.498975 0.081404 128 128 255 0.977336 0.090289 0.191473
-0.635806 0.493087 0.081270 128 128 255 0.971700 0.138306 0.191493
-0.634792 0.487242 0.081141 128 128 255 0.963704 0.186001 0.191514
-0.633493 0.481453 0.081017 128 128 255 0.953365 0.233259 0.191536
-0.631911 0.475735 0.080899 128 128 255 0.940707 0.279955 0.191558
-0.630051 0.470102 0.080786 128 128 255 0.925760 0.325983 0.191581
-0.627917 0.464567 0.080679 128 128 255 0.908556 0.371232 0.191605
-0.625513 0.459143 0.080578 128 128 255 0.889141 0.415579 0.191629
-0.622846 0.453844 0.080484 128 128 255 0.867558 0.458924 0.191654
-0.619922 0.448682 0.080397 128 128 255 0.843861 0.501156 0.191679
-0.616748 0.443669 0.080316 128 128 255 0.818105 0.542174 0.191704
-0.613332 0.438819 0.080243 128 128 255 0.790354 0.581877 0.191730
-0.609681 0.434141 0.080176 128 128 255 0.760676 0.620162 0.191756
-0.605806 0.429649 0.080117 128 128 255 0.729142 0.656941 0.191782
-0.601715 0.425352 0.080066 128 128 255 0.695830 0.692120 0.191808
-0.597417 0.421260 0.080022 128 128 255 0.660821 0.725614 0.191834
-0.592924 0.417385 0.079987 128 128 255 0.624202 0.757338 0.191861
-0.588246 0.413734 0.079959 128 128 255 0.586062 0.787216 0.191888
-0.583394 0.410317 0.079939 128 128 255 0.546495 0.815176 0.191915
-0.578381 0.407143 0.079927 128 128 255 0.505600 0.841146 0.191942
-0.573217 0.404218 0.079922 128 128 255 0.463474 0.865066 0.191970
-0.567916 0.401550 0.079927 128 128 255 0.420224 0.886876 0.191997
-0.562491 0.399145 0.079939 128 128 255 0.375952 0.906524 0.192024
-0.556953 0.397009 0.079959 128 128 255 0.330769 0.923963 0.192053
-0.551318 0.395147 0.079987 128 128 255 0.284787 0.939149 0.192080
-0.545598 0.393563 0.080022 128 128 255 0.238115 0.952048 0.192109
-0.539807 0.392262 0.080066 128 128 255 0.190872 0.962627 0.192137
-0.533959 0.391247 0.080117 128 128 255 0.143169 0.970863 0.192166
-0.528069 0.390520 0.080176 128 128 255 0.095122 0.976736 0.192195
-0.522149 0.390082 0.080243 128 128 255 0.046852 0.980232 0.192224
-0.516216 0.389936 0.080316 128 128 255 -0.001526 0.981344 0.192253
-0.510282 0.390080 0.080397 128 128 255 -0.049896 0.980070 0.192282
-0.504363 0.390515 0.080484 128 128 255 -0.098136 0.976415 0.192311
-0.498473 0.391240 0.080578 128 128 255 -0.146131 0.970387 0.192340
-0.492625 0.392253 0.080679 128 128 255 -0.193764 0.962003 0.192368
-0.486834 0.393552 0.080786 128 128 255 -0.240923 0.951283 0.192396
-0.481114 0.395133 0.080899 128 128 255 -0.287487 0.938256 0.192424
-0.475478 0.396993 0.081017 128 128 255 -0.333350 0.922952 0.192451
-0.469941 0.399127 0.081141 128 128 255 -0.378397 0.905411 0.192476
-0.464515 0.401530 0.081270 128 128 255 -0.422518 0.885676 0.192501
-0.459214 0.404196 0.081404 128 128 255 -0.465610 0.863795 0.192525
-0.454050 0.407119 0.081542 128 128 255 -0.507565 0.839823 0.192547
-0.449036 0.410292 0.081685 128 128 255 -0.548282 0.813821 0.192568
-0.444184 0.413708 0.081831 128 128 255 -0.587666 0.785849 0.192586
-0.439506 0.417357 0.081980 128 128 255 -0.625619 0.755980 0.192604
-0.435013 0.421231 0.082133 128 128 255 -0.662048 0.724286 0.192619
-0.430715 0.425321 0.082288 128 128 255 -0.696868 0.690846 0.192632
-0.426624 0.429617 0.082446 128 128 255 -0.729993 0.655743 0.192643
-0.422748 0.434109 0.082606 128 128 255 -0.761346 0.619062 0.192651
-0.419098 0.438786 0.082767 128 128 255 -0.790851 0.580894 0.192658
-0.415682 0.443636 0.082929 128 128 255 -0.818438 0.541332 0.192661
-0.412508 0.448648 0.083092 128 128 255 -0.844040 0.500477 0.192663
-0.409584 0.453810 0.083256 128 128 255 -0.867598 0.458427 0.192662
-0.406918 0.459110 0.083419 128 128 255 -0.889057 0.415283 0.192658
-0.404514 0.464534 0.083583 128 128 255 -0.908366 0.371155 0.192653
-0.402380 0.470069 0.083745 128 128 255 -0.925482 0.326145 0.192644
-0.400520 0.475703 0.083906 128 128 255 -0.940364 0.280369 0.192635
-0.398939 0.481422 0.084066 128 128 255 -0.952981 0.233933 0.192622
-0.397641 0.487211 0.084223 128 128 255 -0.963302 0.186954 0.192608
-0.396628 0.493058 0.084379 128 128 255 -0.971306 0.139543 0.192593
-0.395903 0.498947 0.084531 128 128 255 -0.976978 0.091812 0.192575
-0.395469 0.504865 0.084681 128 128 255 -0.980305 0.043877 0.192556
-0.395325 0.510797 0.084827 128 128 255 -0.992844 0.021189 0.117520
-0.420942 0.510806 0.032253 128 128 255 -0.729435 -0.042979 0.682699
-0.421058 0.515482 0.032391 128 128 255 -0.783100 -0.054442 0.619508
-0.421403 0.520146 0.032525 128 128 255 -0.779602 -0.092134 0.619461
-0.421977 0.524788 0.032654 128 128 255 -0.774302 -0.129568 0.619410
-0.422778 0.529396 0.032778 128 128 255 -0.767215 -0.166661 0.619359
-0.423804 0.533960 0.032896 128 128 255 -0.758366 -0.203329 0.619304
-0.425052 0.538468 0.033009 128 128 255 -0.747778 -0.239497 0.619249
-0.426521 0.542909 0.033116 128 128 255 -0.735483 -0.275076 0.619192
-0.428205 0.547273 0.033217 128 128 255 -0.721511 -0.309993 0.619133
-0.430101 0.551549 0.033311 128 128 255 -0.705898 -0.344176 0.619073
-0.432205 0.555727 0.033399 128 128 255 -0.688681 -0.377549 0.619011
-0.434511 0.559797 0.033479 128 128 255 -0.669904 -0.410037 0.618950
-0.437014 0.563748 0.033553 128 128 255 -0.649612 -0.441571 0.618886
-0.439708 0.567572 0.033619 128 128 255 -0.627848 -0.472088 0.618821
-0.442586 0.571260 0.033678 128 128 255 -0.604666 -0.501518 0.618756
-0.445641 0.574802 0.033729 128 128 255 -0.580120 -0.529797 0.618689
-0.448867 0.578189 0.033773 128 128 255 -0.554261 -0.556868 0.618621
-0.452254 0.581414 0.033809 128 128 255 -0.527148 -0.582673 0.618553
-0.455796 0.584469 0.033837 128 128 255 -0.498844 -0.607152 0.618484
-0.459483 0.587347 0.033857 128 128 255 -0.469407 -0.630256 0.618413
-0.463307 0.590040 0.033869 128 128 255 -0.438906 -0.651931 0.618342
-0.467258 0.592542 0.033873 128 128 255 -0.407407 -0.672132 0.618270
-0.471328 0.594848 0.033869 128 128 255 -0.374977 -0.690814 0.618197
-0.475505 0.596951 0.033857 128 128 255 -0.341682 -0.707938 0.618124
-0.479780 0.598846 0.033837 128 128 255 -0.307606 -0.723459 0.618050
-0.484143 0.600529 0.033809 128 128 255 -0.272818 -0.737345 0.617975
-0.488584 0.601996 0.033773 128 128 255 -0.237386 -0.749565 0.617900
-0.493091 0.603243 0.033729 128 128 255 -0.201400 -0.760086 0.617825
-0.497653 0.604268 0.033678 128 128 255 -0.164932 -0.768884 0.617750
-0.502261 0.605068 0.033619 128 128 255 -0.128061 -0.775937 0.617675
-0.506902 0.605640 0.033553 128 128 255 -0.090867 -0.781226 0.617599
-0.511565 0.605984 0.033479 128 128 255 -0.053443 -0.784733 0.617525
-0.516240 0.606098 0.033399 128 128 255 -0.015857 -0.786450 0.617451
-0.520914 0.605983 0.033311 128 128 255 0.021797 -0.786364 0.617379
-0.525577 0.605639 0.033217 128 128 255 0.059435 -0.784475 0.617306
-0.530218 0.605066 0.033116 128 128 255 0.096983 -0.780778 0.617236
-0.534825 0.604267 0.033009 128 128 255 0.134344 -0.775278 0.617167
-0.539387 0.603242 0.032896 128 128 255 0.171437 -0.767982 0.617101
-0.543894 0.601994 0.032778 128 128 255 0.208174 -0.758900 0.617036
-0.548333 0.600527 0.032654 128 128 255 0.244479 -0.748046 0.616974
-0.552696 0.598844 0.032525 128 128 255 0.280253 -0.735441 0.616915
-0.556970 0.596949 0.032391 128 128 255 0.315422 -0.721105 0.616860
-0.561147 0.594846 0.032253 128 128 255 0.349901 -0.705067 0.616806
-0.565215 0.592541 0.032111 128 128 255 0.383606 -0.687355 0.616758
-0.569165 0.590039 0.031965 128 128 255 0.416457 -0.668004 0.616713
-0.572988 0.587346 0.031815 128 128 255 0.448376 -0.647051 0.616672
-0.576674 0.584469 0.031662 128 128 255 0.479277 -0.624543 0.616635
-0.580215 0.581414 0.031507 128 128 255 0.509087 -0.600526 0.616603
-0.583601 0.578190 0.031349 128 128 255 0.537730 -0.575048 0.616576
-0.586825 0.574803 0.031190 128 128 255 0.565136 -0.548164 0.616553
-0.589880 0.571262 0.031029 128 128 255 0.591233 -0.519929 0.616536
-0.592757 0.567576 0.030866 128 128 255 0.615953 -0.490408 0.616523
-0.595449 0.563752 0.030703 128 128 255 0.639228 -0.459669 0.616516
-0.597951 0.559802 0.030539 128 128 255 0.660996 -0.427779 0.616514
-0.600256 0.555733 0.030376 128 128 255 0.681201 -0.394806 0.616518
-0.602358 0.551556 0.030213 128 128 255 0.699785 -0.360829 0.616526
-0.604253 0.547282 0.030050 128 128 255 0.716695 -0.325926 0.616539
-0.605937 0.542919 0.029889 128 128 255 0.731883 -0.290180 0.616558
-0.607404 0.538479 0.029730 128 128 255 0.745301 -0.253680 0.616581
-0.608651 0.533972 0.029572 128 128 255 0.756914 -0.216503 0.616610
-0.609676 0.529410 0.029417 128 128 255 0.766683 -0.178743 0.616643
-0.610476 0.524803 0.029264 128 128 255 0.774575 -0.140496 0.616680
-0.611049 0.520162 0.029114 128 128 255 0.780564 -0.101853 0.616722
-0.611393 0.515499 0.028968 128 128 255 0.784628 -0.062907 0.616767
-0.611508 0.510825 0.028826 128 128 255 0.786748 -0.023762 0.616817
-0.611394 0.506150 0.028688 128 128 255 0.786912 0.015487 0.616870
-0.611051 0.501487 0.028554 128 128 255 0.785115 0.054745 0.616925
-0.610479 0.496846 0.028425 128 128 255 0.781351 0.093911 0.616986
-0.609680 0.492239 0.028301 128 128 255 0.775627 0.132874 0.617047
-0.608655 0.487677 0.028182 128 128 255 0.767949 0.171545 0.617112
-0.607409 0.483170 0.028070 128 128 255 0.758332 0.209818 0.617178
-0.605942 0.478730 0.027963 128 128 255 0.746796 0.247594 0.617246
-0.604259 0.474367 0.027862 128 128 255 0.733364 0.284777 0.617316
-0.602365 0.470093 0.027768 128 128 255 0.718068 0.321266 0.617387
-0.600262 0.465916 0.027680 128 128 255 0.700945 0.356961 0.617459
-0.597958 0.461847 0.027600 128 128 255 0.682033 0.391772 0.617532
-0.595456 0.457896 0.027526 128 128 255 0.661379 0.425607 0.617606
-0.592763 0.454073 0.027460 128 128 255 0.639034 0.458375 0.617679
-0.589886 0.450387 0.027401 128 128 255 0.615054 0.489988 0.617754
-0.586832 0.446846 0.027350 128 128 255 0.589501 0.520363 0.617828
-0.583607 0.443459 0.027306 128 128 255 0.562437 0.549419 0.617903
-0.580220 0.440234 0.027270 128 128 255 0.533937 0.577075 0.617977
-0.576678 0.437180 0.027242 128 128 255 0.504070 0.603264 0.618050
-0.572991 0.434302 0.027222 128 128 255 0.472915 0.627912 0.618124
-0.569167 0.431609 0.027210 128 128 255 0.440556 0.650955 0.618197
-0.565216 0.429107 0.027206 128 128 255 0.407079 0.672332 0.618269
-0.561146 0.426802 0.027210 128 128 255 0.372562 0.691990 0.618342
-0.556968 0.424699 0.027222 128 128 255 0.337106 0.709876 0.618413
-0.552692 0.422803 0.027242 128 128 255 0.300806 0.725942 0.618485
-0.548328 0.421120 0.027270 128 128 255 0.263746 0.740154 0.618555
-0.543887 0.419652 0.027306 128 128 255 0.226034 0.752471 0.618625
-0.539379 0.418405 0.027350 128 128 255 0.187766 0.762864 0.618694
-0.534815 0.417379 0.027401 128 128 255 0.149043 0.771310 0.618762
-0.530206 0.416579 0.027460 128 128 255 0.109965 0.777790 0.618830
-0.525564 0.416006 0.027526 128 128 255 0.070632 0.782290 0.618897
-0.520899 0.415661 0.027600 128 128 255 0.031151 0.784803 0.618962
-0.516222 0.415546 0.027680 128 128 255 -0.008377 0.785324 0.619028
-0.511546 0.415660 0.027768 128 128 255 -0.047851 0.783860 0.619092
