ply
format ascii 1.0
element vertex 696
property float x
property float y
property float z
property uchar red
property uchar green
property uchar blue
property float nx
property float ny
property float nz
end_header
-0.117480 0.557170 -0.437918 128 128 255 0.573915 0.303937 0.760423
-0.076388 0.507575 -0.437856 128 128 255 0.328203 0.427750 0.842207
-0.029032 0.490033 -0.437812 128 128 255 0.006159 0.446588 0.894719
0.014801 0.507570 -0.437785 128 128 255 -0.323253 0.374895 0.868885
0.046272 0.557164 -0.437776 128 128 255 0.735293 0.191000 -0.650279
0.042580 -0.201412 -0.612785 128 128 255 0.699848 0.152429 -0.697838
0.026034 -0.163485 -0.612812 128 128 255 -0.579320 -0.476229 0.661509
-0.015541 -0.132818 -0.612856 128 128 255 -0.331945 -0.735841 0.590213
-0.071005 -0.120980 -0.612918 128 128 255 -0.007117 -0.783312 0.621588
-0.122593 -0.132818 -0.612997 128 128 255 0.310065 -0.619392 0.721258
-0.153580 -0.163485 -0.613093 128 128 255 0.553942 -0.281149 0.783648
-0.155662 -0.201410 -0.613206 128 128 255 0.680381 0.194764 0.706505
-0.131185 -0.234757 -0.613334 128 128 255 0.588349 0.684300 0.430790
-0.089611 -0.256267 -0.613478 128 128 255 0.309334 0.934306 0.177156
-0.042079 -0.263527 -0.613637 128 128 255 0.001431 0.983547 0.180648
0.001579 -0.256269 -0.613810 128 128 255 -0.324579 0.846472 0.422058
0.032566 -0.234760 -0.613996 128 128 255 -0.480466 -0.762086 0.434025
0.538732 0.100000 0.610805 128 128 255 -0.472241 -0.780779 0.409111
0.531124 0.100000 0.604367 128 128 255 -0.529915 0.011703 0.847970
0.533674 0.147373 0.604145 128 128 255 -0.413104 -0.097294 0.905472
0.508963 0.184102 0.603914 128 128 255 -0.238448 -0.307777 0.921095
0.463612 0.197977 0.603673 128 128 255 -0.012333 -0.502303 0.864604
0.411825 0.184095 0.603425 128 128 255 0.311687 -0.599922 0.736848
0.369531 0.147366 0.603170 128 128 255 0.574663 -0.444506 0.687151
0.348063 0.100000 0.602909 128 128 255 0.607742 -0.129719 0.783468
0.351119 0.055869 0.602643 128 128 255 0.485295 0.170066 0.857652
0.375828 0.025612 0.602374 128 128 255 0.309081 0.464310 0.829991
0.415571 0.014968 0.602103 128 128 255 0.008459 0.788459 0.615029
0.461751 0.025607 0.601830 128 128 255 -0.392693 0.856443 0.335107
0.504047 0.055863 0.601558 128 128 255 -0.551834 -0.833922 -0.007297
-0.212246 0.469864 0.426286 128 128 255 -0.555691 -0.723438 0.409689
-0.236005 0.530344 0.426017 128 128 255 -0.541755 -0.332698 0.771889
-0.279973 0.576676 0.425752 128 128 255 -0.257596 -0.371189 0.892111
-0.332370 0.594073 0.425491 128 128 255 -0.012660 -0.297452 0.954653
-0.377107 0.576693 0.425236 128 128 255 0.175311 -0.207650 0.962365
-0.400150 0.530383 0.424987 128 128 255 0.385978 -0.079679 0.919061
-0.395320 0.469920 0.424747 128 128 255 0.617424 0.167687 0.768550
-0.365957 0.412686 0.424515 128 128 255 0.614146 0.454471 0.645198
-0.321981 0.372833 0.424294 128 128 255 0.317656 0.519319 0.793349
-0.275180 0.358670 0.424083 128 128 255 0.011112 0.393997 0.919045
-0.236046 0.372804 0.423884 128 128 255 -0.211104 0.263354 0.941318
-0.213011 0.412634 0.423698 128 128 255 0.634975 0.455881 -0.623682
0.248368 -0.547836 0.248525 128 128 255 0.611420 0.422881 -0.668833
0.240916 -0.523351 0.248366 128 128 255 -0.684784 -0.581076 0.439797
0.208889 -0.503368 0.248222 128 128 255 -0.280100 -0.798751 -0.532486
0.160871 -0.495616 0.248093 128 128 255 0.002672 -0.700313 -0.713831
0.111778 -0.503360 0.247981 128 128 255 0.268907 -0.797860 -0.539545
0.076812 -0.523339 0.247885 128 128 255 0.649674 -0.677630 0.344587
0.065343 -0.547826 0.247806 128 128 255 0.673702 0.005214 0.738985
0.078395 -0.569073 0.247744 128 128 255 0.603238 0.757028 -0.251023
0.110419 -0.582574 0.247699 128 128 255 0.123578 0.522668 -0.843532
0.152836 -0.587083 0.247673 128 128 255 -0.006639 0.449367 -0.893323
0.196330 -0.582578 0.247664 128 128 255 -0.132037 0.534754 -0.834628
0.231297 -0.569080 0.247673 128 128 255 -0.772679 0.339801 0.536192
0.615021 0.652386 0.072699 128 128 255 -0.656456 0.291347 0.695833
0.620536 0.719293 0.072744 128 128 255 -0.352716 -0.047355 0.934532
0.597996 0.770318 0.072806 128 128 255 -0.166578 -0.152718 0.974130
0.553449 0.789432 0.072885 128 128 255 -0.005675 -0.228801 0.973457
0.500879 0.770324 0.072981 128 128 255 0.211610 -0.301763 0.929602
0.456413 0.719280 0.073093 128 128 255 0.491361 -0.291196 0.820835
0.431959 0.652339 0.073222 128 128 255 0.568436 -0.107036 0.815735
0.432023 0.588636 0.073366 128 128 255 0.388514 0.080921 0.917883
0.454542 0.544067 0.073525 128 128 255 0.189235 0.190412 0.963293
0.493488 0.528205 0.073698 128 128 255 0.002714 0.289403 0.957203
0.540478 0.544109 0.073884 128 128 255 -0.264760 0.405147 0.875076
0.584966 0.588697 0.074083 128 128 255 0.397154 -0.485087 -0.779076
-0.493840 -0.021228 -0.100706 128 128 255 0.414317 -0.594246 -0.689357
-0.527547 0.021855 -0.100485 128 128 255 -0.655690 -0.714372 0.244424
-0.578808 0.055446 -0.100253 128 128 255 -0.388781 -0.876309 0.284485
-0.633877 0.068176 -0.100013 128 128 255 -0.004242 -0.596171 0.802847
-0.675945 0.055445 -0.099764 128 128 255 0.192774 -0.248040 0.949376
-0.691700 0.021850 -0.099509 128 128 255 0.334299 -0.011919 0.942392
-0.676928 -0.021240 -0.099248 128 128 255 0.590746 0.371219 0.716391
-0.637634 -0.061094 -0.098983 128 128 255 0.593501 0.786749 -0.169654
-0.586390 -0.088216 -0.098714 128 128 255 0.317697 0.864090 -0.390406
-0.536925 -0.097706 -0.098442 128 128 255 0.000368 0.938124 0.346298
-0.500443 -0.088205 -0.098170 128 128 255 -0.249917 0.360517 0.898648
-0.484671 -0.061079 -0.097897 128 128 255 0.116302 0.990465 -0.073842
0.740258 -0.249064 -0.272626 128 128 255 0.111996 0.990991 -0.073437
0.750201 -0.214030 -0.272357 128 128 255 -0.362072 -0.053788 0.930597
0.730908 -0.186332 -0.272091 128 128 255 -0.274143 -0.440658 0.854790
0.687543 -0.175759 -0.271830 128 128 255 -0.005592 -0.971505 0.236952
0.633775 -0.186326 -0.271575 128 128 255 0.342867 -0.910845 -0.229792
0.586068 -0.214019 -0.271327 128 128 255 0.627635 -0.757631 0.179083
0.557208 -0.249052 -0.271086 128 128 255 0.563063 -0.272318 0.780258
0.552876 -0.280854 -0.270855 128 128 255 0.442348 0.126790 0.887836
0.572177 -0.302087 -0.270633 128 128 255 0.398844 0.789181 0.467030
0.609940 -0.309428 -0.270422 128 128 255 -0.001175 0.795786 -0.605577
0.658097 -0.302093 -0.270223 128 128 255 -0.207797 0.684195 -0.699069
0.705796 -0.280865 -0.270037 128 128 255 -0.830849 -0.488704 0.266192
0.049344 0.628875 -0.444864 128 128 255 -0.688856 -0.365645 0.625924
0.034859 0.694948 -0.444705 128 128 255 -0.437816 -0.190935 0.878556
-0.002316 0.745357 -0.444561 128 128 255 -0.196768 -0.241860 0.950150
-0.052220 0.764235 -0.444433 128 128 255 -0.004734 -0.233598 0.972322
-0.099433 0.745349 -0.444320 128 128 255 0.176128 -0.204714 0.962845
-0.129254 0.694941 -0.444224 128 128 255 0.402485 -0.124838 0.906874
-0.133690 0.628875 -0.444145 128 128 255 0.592177 0.067004 0.803017
-0.113599 0.566034 -0.444083 128 128 255 0.509676 0.269859 0.816950
-0.076420 0.522078 -0.444039 128 128 255 0.243691 0.326848 0.913118
-0.032115 0.506420 -0.444012 128 128 255 0.006245 0.304440 0.952511
0.009493 0.522073 -0.444003 128 128 255 -0.214119 0.268036 0.939314
0.039309 0.566029 -0.444012 128 128 255 0.710555 0.192593 -0.676771
0.034975 -0.201412 -0.619039 128 128 255 0.660173 0.160984 -0.733659
0.019982 -0.164692 -0.619083 128 128 255 -0.620882 -0.482415 0.617885
-0.017568 -0.135760 -0.619145 128 128 255 -0.392479 -0.838921 0.377057
-0.067611 -0.124737 -0.619224 128 128 255 -0.007525 -0.904235 0.426969
-0.114689 -0.135760 -0.619320 128 128 255 0.325543 -0.642777 0.693440
-0.144134 -0.164691 -0.619433 128 128 255 0.498409 -0.267665 0.824587
-0.148057 -0.201410 -0.619561 128 128 255 0.641840 0.135911 0.754699
-0.127459 -0.234893 -0.619705 128 128 255 0.683379 0.694119 0.226256
-0.089910 -0.257353 -0.619864 128 128 255 0.319838 0.868777 -0.378062
-0.045472 -0.265142 -0.620037 128 128 255 -0.005298 0.911095 -0.412163
-0.003999 -0.257355 -0.620223 128 128 255 -0.391933 0.916025 0.085361
0.025447 -0.234896 -0.620422 128 128 255 -0.210776 -0.911147 0.354097
0.531124 0.100000 0.604367 128 128 255 -0.295498 -0.883456 0.363574
0.523123 0.100000 0.598428 128 128 255 -0.463034 -0.057024 0.884504
0.519816 0.142556 0.598196 128 128 255 -0.337974 -0.117051 0.933848
0.493998 0.174720 0.597956 128 128 255 -0.192395 -0.266878 0.944331
0.452588 0.186705 0.597707 128 128 255 -0.013565 -0.444283 0.895784
0.407695 0.174715 0.597452 128 128 255 0.312785 -0.591729 0.742982
0.372362 0.142550 0.597191 128 128 255 0.600000 -0.425694 0.677336
0.356057 0.100000 0.596926 128 128 255 0.564385 -0.079500 0.821674
0.362133 0.059048 0.596657 128 128 255 0.403618 0.170432 0.898913
0.387949 0.030080 0.596385 128 128 255 0.258138 0.398052 0.880295
0.426588 0.019689 0.596113 128 128 255 0.009303 0.746789 0.664996
0.468712 0.030075 0.595840 128 128 255 -0.441893 0.875628 0.194952
0.504047 0.059043 0.595569 128 128 255 -0.517915 -0.847374 -0.117136
-0.220241 0.469865 0.420300 128 128 255 -0.546593 -0.735983 0.399455
-0.237793 0.519522 0.420034 128 128 255 -0.519901 -0.308790 0.796462
-0.274037 0.556893 0.419774 128 128 255 -0.215469 -0.319952 0.922607
-0.319262 0.570793 0.419518 128 128 255 -0.013323 -0.239261 0.970864
-0.360340 0.556913 0.419270 128 128 255 0.118947 -0.175710 0.977230
-0.385252 0.519561 0.419030 128 128 255 0.283776 -0.101449 0.953509
-0.387321 0.469917 0.418798 128 128 255 0.556349 0.093103 0.825716
-0.367002 0.421866 0.418576 128 128 255 0.624760 0.421127 0.657516
-0.330752 0.387698 0.418366 128 128 255 0.277551 0.453429 0.846976
-0.288288 0.375396 0.418167 128 128 255 0.011166 0.311572 0.950157
-0.249977 0.387670 0.417980 128 128 255 -0.144571 0.216993 0.965408
-0.225071 0.421818 0.417807 128 128 255 0.591217 0.440496 -0.675593
0.240371 -0.547835 0.242648 128 128 255 0.563496 0.408724 -0.717926
0.231650 -0.517653 0.242504 128 128 255 -0.721862 -0.502152 0.476192
0.201874 -0.494539 0.242376 128 128 255 -0.259359 -0.596523 -0.759535
0.159025 -0.485860 0.242263 128 128 255 0.004655 -0.461032 -0.887371
0.115596 -0.494531 0.242167 128 128 255 0.241577 -0.556915 -0.794661
0.084233 -0.517642 0.242088 128 128 255 0.751147 -0.602758 0.269186
0.073339 -0.547825 0.242026 128 128 255 0.619739 -0.006307 0.784782
0.084824 -0.576406 0.241982 128 128 255 0.753555 0.633448 -0.175780
0.114597 -0.596314 0.241955 128 128 255 0.140984 0.380083 -0.914145
0.154681 -0.603386 0.241946 128 128 255 -0.006044 0.307114 -0.951654
0.195348 -0.596316 0.241955 128 128 255 -0.142201 0.363359 -0.920733
0.226713 -0.576412 0.241982 128 128 255 -0.789966 0.335515 0.513209
0.607023 0.652385 0.067026 128 128 255 -0.643993 0.285794 0.709644
0.605324 0.705517 0.067088 128 128 255 -0.260927 -0.068743 0.962908
0.580685 0.745422 0.067167 128 128 255 -0.112930 -0.127553 0.985382
0.539712 0.760244 0.067263 128 128 255 -0.004876 -0.174505 0.984644
0.494395 0.745421 0.067376 128 128 255 0.155559 -0.240701 0.958052
0.457883 0.705499 0.067504 128 128 255 0.440895 -0.262233 0.858397
0.439957 0.652342 0.067648 128 128 255 0.509672 -0.067546 0.857713
0.444407 0.600788 0.067807 128 128 255 0.286848 0.093042 0.953447
0.469034 0.564072 0.067980 128 128 255 0.125560 0.155303 0.979855
0.507242 0.550862 0.068167 128 128 255 0.001740 0.216515 0.976278
0.549808 0.564108 0.068366 128 128 255 -0.201504 0.322284 0.924948
0.586333 0.600840 0.068576 128 128 255 0.372330 -0.421460 -0.826887
-0.501842 -0.021230 -0.106202 128 128 255 0.393732 -0.518562 -0.758992
-0.524772 0.019005 -0.105970 128 128 255 -0.747291 -0.657785 -0.094203
-0.564962 0.049472 -0.105730 128 128 255 -0.434745 -0.886386 -0.159112
-0.611637 0.060838 -0.105482 128 128 255 -0.004346 -0.583293 0.812250
-0.651273 0.049470 -0.105226 128 128 255 0.149385 -0.220450 0.963891
-0.672242 0.019000 -0.104966 128 128 255 0.251523 -0.065603 0.965625
-0.668932 -0.021240 -0.104700 128 128 255 0.550650 0.196837 0.811196
-0.643245 -0.059881 -0.104431 128 128 255 0.603659 0.596400 -0.529059
-0.603071 -0.087155 -0.104160 128 128 255 0.276504 0.623303 -0.731464
-0.559170 -0.096921 -0.103887 128 128 255 0.000696 0.974669 0.223650
-0.522292 -0.087147 -0.103615 128 128 255 -0.200088 0.313411 0.928299
-0.501307 -0.059870 -0.103343 128 128 255 0.104761 0.984154 -0.143060
0.732262 -0.249064 -0.278074 128 128 255 0.103312 0.985425 -0.135143
0.732958 -0.213185 -0.277809 128 128 255 -0.299034 -0.103057 0.948661
0.710074 -0.185906 -0.277548 128 128 255 -0.245064 -0.405797 0.880496
0.669739 -0.175705 -0.277293 128 128 255 -0.007020 -0.993112 -0.116955
0.623773 -0.185899 -0.277044 128 128 255 0.295864 -0.671944 -0.678937
0.585511 -0.213174 -0.276804 128 128 255 0.717290 -0.665503 -0.206400
0.565208 -0.249054 -0.276572 128 128 255 0.545365 -0.141016 0.826252
0.567288 -0.283340 -0.276351 128 128 255 0.369323 0.157098 0.915926
0.590178 -0.307429 -0.276140 128 128 255 0.400056 0.736035 0.546083
0.627744 -0.316032 -0.275941 128 128 255 -0.000962 0.603687 -0.797221
0.670934 -0.307431 -0.275754 128 128 255 -0.177183 0.437549 -0.881565
0.709189 -0.283347 -0.275581 128 128 255 -0.835485 -0.521655 0.172746
0.041348 0.628875 -0.450423 128 128 255 -0.681960 -0.370708 0.630481
0.028822 0.681553 -0.450279 128 128 255 -0.366248 -0.174603 0.913989
-0.003739 0.721122 -0.450150 128 128 255 -0.144541 -0.196453 0.969801
-0.047610 0.735816 -0.450038 128 128 255 -0.004716 -0.181026 0.983467
-0.090024 0.721117 -0.449942 128 128 255 0.119927 -0.165566 0.978880
-0.118606 0.681548 -0.449862 128 128 255 0.305751 -0.124097 0.943989
-0.125693 0.628875 -0.449800 128 128 255 0.527702 0.036964 0.848625
-0.110399 0.577794 -0.449756 128 128 255 0.441584 0.237226 0.865290
-0.077835 0.541409 -0.449729 128 128 255 0.181138 0.260930 0.948211
-0.036729 0.528303 -0.449720 128 128 255 0.006420 0.232017 0.972690
0.002917 0.541406 -0.449729 128 128 255 -0.145457 0.212451 0.966285
0.031495 0.577790 -0.449756 128 128 255 0.676121 0.194611 -0.710625
0.026979 -0.201412 -0.624801 128 128 255 0.617102 0.169331 -0.768448
0.014178 -0.164620 -0.624862 128 128 255 -0.655248 -0.448095 0.608162
-0.018586 -0.136673 -0.624942 128 128 255 -0.449996 -0.881925 0.140401
-0.062533 -0.126230 -0.625038 128 128 255 -0.007268 -0.981643 0.190591
-0.104874 -0.136673 -0.625150 128 128 255 0.343422 -0.653956 0.674094
-0.133251 -0.164619 -0.625279 128 128 255 0.454058 -0.260566 0.852019
-0.140061 -0.201409 -0.625423 128 128 255 0.591898 0.059247 0.803832
-0.124491 -0.236602 -0.625581 128 128 255 0.771924 0.615074 0.160677
-0.091728 -0.261352 -0.625754 128 128 255 0.315874 0.709885 -0.629513
-0.050550 -0.270198 -0.625941 128 128 255 -0.007890 0.747502 -0.664213
-0.010977 -0.261354 -0.626140 128 128 255 -0.442089 0.892921 -0.085144
0.017401 -0.236605 -0.626351 128 128 255 -0.045490 -0.954385 0.295092
0.523123 0.100000 0.598428 128 128 255 -0.163642 -0.932040 0.323299
0.514765 0.100000 0.593013 128 128 255 -0.406622 -0.131089 0.904143
0.504693 0.137579 0.592772 128 128 255 -0.287630 -0.148276 0.946194
0.477175 0.165088 0.592524 128 128 255 -0.163106 -0.252357 0.953788
0.439585 0.175155 0.592269 128 128 255 -0.014773 -0.405291 0.914068
0.401996 0.165083 0.592008 128 128 255 0.316431 -0.575377 0.754197
0.374480 0.137575 0.591742 128 128 255 0.626562 -0.376796 0.682235
0.364409 0.100000 0.591473 128 128 255 0.517948 -0.014116 0.855296
0.374480 0.062425 0.591202 128 128 255 0.340499 0.180501 0.922757
0.401996 0.034917 0.590930 128 128 255 0.216092 0.347855 0.912305
0.439585 0.024845 0.590657 128 128 255 0.011091 0.659125 0.751952
0.477175 0.034912 0.590386 128 128 255 -0.486858 0.853817 0.184299
0.504693 0.062421 0.590117 128 128 255 -0.491916 -0.853422 -0.172305
-0.228595 0.469866 0.414851 128 128 255 -0.535611 -0.736627 0.412918
-0.238680 0.507463 0.414590 128 128 255 -0.504368 -0.276201 0.818123
-0.266206 0.534992 0.414335 128 128 255 -0.181948 -0.285804 0.940857
-0.303799 0.545076 0.414087 128 128 255 -0.014079 -0.211371 0.977305
-0.341387 0.535012 0.413846 128 128 255 0.082417 -0.168907 0.982180
-0.368899 0.507501 0.413615 128 128 255 0.209989 -0.134788 0.968368
-0.378963 0.469914 0.413393 128 128 255 0.488909 -0.008993 0.872289
-0.368880 0.432323 0.413182 128 128 255 0.634125 0.358557 0.685071
-0.341350 0.404799 0.412983 128 128 255 0.236445 0.388814 0.890459
-0.303751 0.394715 0.412797 128 128 255 0.011179 0.262406 0.964893
-0.266161 0.404773 0.412624 128 128 255 -0.101816 0.197793 0.974942
-0.238653 0.432279 0.412465 128 128 255 0.549353 0.424297 -0.719849
0.232017 -0.547833 0.237321 128 128 255 0.516498 0.394190 -0.760161
0.221942 -0.510225 0.237193 128 128 255 -0.679433 -0.378558 0.628542
0.194428 -0.482689 0.237080 128 128 255 -0.305270 -0.534618 -0.788032
0.156849 -0.472606 0.236984 128 128 255 0.005016 -0.372573 -0.927989
0.119272 -0.482682 0.236905 128 128 255 0.268557 -0.461267 -0.845642
0.091763 -0.510215 0.236843 128 128 255 0.780631 -0.463211 0.419584
0.081693 -0.547824 0.236799 128 128 255 0.549630 -0.008693 0.835363
0.091762 -0.585429 0.236772 128 128 255 0.838148 0.480881 0.257411
0.119274 -0.612953 0.236763 128 128 255 0.195241 0.349700 -0.916292
0.156858 -0.623028 0.236772 128 128 255 -0.004853 0.262701 -0.964865
0.194440 -0.612956 0.236799 128 128 255 -0.181763 0.309858 -0.933247
0.221951 -0.585434 0.236843 128 128 255 -0.756012 0.324006 0.568741
0.598669 0.652384 0.061905 128 128 255 -0.609241 0.276599 0.743182
0.588601 0.689971 0.061984 128 128 255 -0.190217 -0.102247 0.976403
0.561089 0.717484 0.062080 128 128 255 -0.077077 -0.123534 0.989342
0.523504 0.727553 0.062193 128 128 255 -0.003969 -0.149235 0.988794
0.485917 0.717475 0.062321 128 128 255 0.112750 -0.202264 0.972819
0.458395 0.689948 0.062465 128 128 255 0.393252 -0.231963 0.889689
0.448312 0.652346 0.062624 128 128 255 0.449687 -0.004779 0.893173
0.458370 0.614748 0.062797 128 128 255 0.208122 0.116726 0.971113
0.485877 0.587235 0.062983 128 128 255 0.084605 0.143342 0.986050
0.523465 0.577176 0.063182 128 128 255 0.000764 0.178503 0.983939
0.561062 0.587264 0.063393 128 128 255 -0.148855 0.259369 0.954238
0.588589 0.614792 0.063615 128 128 255 0.347570 -0.363076 -0.864506
-0.510202 -0.021231 -0.111154 128 128 255 0.370330 -0.444627 -0.815575
-0.520274 0.016349 -0.110913 128 128 255 -0.811247 -0.464862 -0.354657
-0.547800 0.043859 -0.110665 128 128 255 -0.430099 -0.732321 -0.527940
-0.585400 0.053928 -0.110410 128 128 255 -0.004047 -0.565712 0.824593
-0.622993 0.043857 -0.110149 128 128 255 0.124919 -0.217045 0.968136
-0.650509 0.016343 -0.109883 128 128 255 0.205155 -0.117113 0.971697
-0.660579 -0.021240 -0.109614 128 128 255 0.485454 0.002911 0.874257
-0.650509 -0.058823 -0.109343 128 128 255 0.626100 0.363176 -0.690001
-0.622996 -0.086336 -0.109070 128 128 255 0.262734 0.453002 -0.851915
-0.585408 -0.096405 -0.108798 128 128 255 0.001715 0.956408 0.292030
-0.547812 -0.086331 -0.108527 128 128 255 -0.165683 0.285884 0.943832
-0.520283 -0.058815 -0.108258 128 128 255 0.101134 0.982233 -0.158084
0.723909 -0.249065 -0.282992 128 128 255 0.097518 0.980167 -0.172518
0.713840 -0.211483 -0.282731 128 128 255 -0.265352 -0.150497 0.952334
0.686326 -0.183969 -0.282476 128 128 255 -0.223378 -0.380867 0.897242
0.648736 -0.173895 -0.282228 128 128 255 -0.008186 -0.956213 -0.292556
0.611146 -0.183961 -0.281987 128 128 255 0.271815 -0.482440 -0.832687
0.583631 -0.211472 -0.281756 128 128 255 0.792485 -0.468770 -0.390157
0.573564 -0.249056 -0.281534 128 128 255 0.506203 -0.004309 0.862403
0.583642 -0.286645 -0.281323 128 128 255 0.319782 0.182383 0.929772
0.611160 -0.314162 -0.281124 128 128 255 0.355409 0.612908 0.705711
0.648744 -0.324233 -0.280938 128 128 255 0.000027 0.554928 -0.831898
0.686325 -0.314161 -0.280765 128 128 255 -0.184030 0.320272 -0.929279
0.713836 -0.286647 -0.280606 128 128 255 -0.828057 -0.529102 0.185398
0.032994 0.628875 -0.455462 128 128 255 -0.658119 -0.358435 0.662121
0.022924 0.666458 -0.455334 128 128 255 -0.301484 -0.167705 0.938607
-0.004589 0.693967 -0.455221 128 128 255 -0.106095 -0.173569 0.979090
-0.042171 0.704034 -0.455125 128 128 255 -0.004766 -0.156657 0.987642
-0.079754 0.693964 -0.455046 128 128 255 0.081622 -0.150633 0.985214
-0.107267 0.666454 -0.454984 128 128 255 0.227825 -0.136762 0.964050
-0.117339 0.628875 -0.454939 128 128 255 0.460822 -0.004508 0.887481
-0.107269 0.591292 -0.454913 128 128 255 0.372154 0.208418 0.904469
-0.079755 0.563777 -0.454904 128 128 255 0.134208 0.219661 0.966301
-0.042171 0.553705 -0.454913 128 128 255 0.006698 0.193945 0.980990
-0.004588 0.563775 -0.454939 128 128 255 -0.098786 0.184919 0.977776
0.022924 0.591290 -0.454984 128 128 255 0.631126 0.196700 -0.750326
0.018625 -0.201412 -0.630046 128 128 255 0.569853 0.177279 -0.802397
0.008554 -0.163829 -0.630125 128 128 255 -0.656757 -0.368166 0.658122
-0.018959 -0.136316 -0.630221 128 128 255 -0.505011 -0.862809 0.022922
-0.056542 -0.126245 -0.630333 128 128 255 -0.007052 -0.998976 0.044683
-0.094125 -0.136316 -0.630462 128 128 255 0.352820 -0.634153 0.688018
-0.121637 -0.163828 -0.630606 128 128 255 0.416965 -0.253649 0.872813
-0.131706 -0.201409 -0.630765 128 128 255 0.532208 -0.009749 0.846558
-0.121635 -0.238990 -0.630938 128 128 255 0.823073 0.472428 0.315219
-0.094122 -0.266502 -0.631124 128 128 255 0.363748 0.647262 -0.669880
-0.056539 -0.276573 -0.631323 128 128 255 -0.007829 0.703420 -0.710731
-0.018957 -0.266504 -0.631534 128 128 255 -0.496669 0.867730 0.019099
0.008555 -0.238994 -0.631756 128 128 255 -0.003973 -0.959291 0.282390
0.514765 0.100000 0.593013 128 128 255 -0.095004 -0.948797 0.301262
0.506085 0.100000 0.588145 128 128 255 -0.358649 -0.201660 0.911430
0.489573 0.132605 0.587897 128 128 255 -0.253172 -0.186167 0.949340
0.460473 0.155666 0.587642 128 128 255 -0.144160 -0.254763 0.956198
0.426583 0.163935 0.587381 128 128 255 -0.016056 -0.378942 0.925281
0.396177 0.155662 0.587115 128 128 255 0.316842 -0.537787 0.781278
0.376594 0.132602 0.586846 128 128 255 0.636974 -0.285150 0.716208
0.373083 0.100000 0.586575 128 128 255 0.466586 0.057608 0.882598
0.387389 0.066126 0.586302 128 128 255 0.292067 0.194647 0.936381
0.416487 0.040520 0.586030 128 128 255 0.183032 0.310978 0.932627
0.452582 0.030975 0.585759 128 128 255 0.013222 0.542557 0.839915
0.485194 0.040516 0.585490 128 128 255 -0.508057 0.775619 0.374557
0.504777 0.066122 0.585224 128 128 255 -0.482875 -0.860852 -0.160517
-0.237271 0.469868 0.409963 128 128 255 -0.521758 -0.713910 0.467013
-0.239563 0.495406 0.409708 128 128 255 -0.499136 -0.222773 0.837398
-0.258254 0.513300 0.409460 128 128 255 -0.152532 -0.263967 0.952394
-0.288334 0.519687 0.409219 128 128 255 -0.014933 -0.202467 0.979175
-0.322554 0.513320 0.408988 128 128 255 0.054812 -0.179049 0.982312
-0.352550 0.495442 0.408766 128 128 255 0.151391 -0.180961 0.971768
-0.370284 0.469911 0.408555 128 128 255 0.413036 -0.144945 0.899106
-0.370197 0.443105 0.408356 128 128 255 0.644202 0.250395 0.722708
-0.351504 0.422669 0.408170 128 128 255 0.197483 0.330941 0.922756
-0.319215 0.415010 0.407997 128 128 255 0.011248 0.234892 0.971956
-0.282790 0.422645 0.407838 128 128 255 -0.072097 0.194898 0.978170
-0.252797 0.443065 0.407694 128 128 255 0.508898 0.407065 -0.758499
0.223342 -0.547831 0.232565 128 128 255 0.470462 0.378927 -0.796919
0.212238 -0.502795 0.232453 128 128 255 -0.576865 -0.261395 0.773886
0.187103 -0.470628 0.232357 128 128 255 -0.454072 -0.601798 -0.657007
0.154672 -0.459022 0.232278 128 128 255 0.004302 -0.371087 -0.928588
0.122826 -0.470622 0.232216 128 128 255 0.371647 -0.475549 -0.797328
0.099289 -0.502787 0.232171 128 128 255 0.692644 -0.304303 0.653945
0.090368 -0.547824 0.232145 128 128 255 0.475745 -0.006430 0.879560
0.099262 -0.594127 0.232136 128 128 255 0.682615 0.284379 0.673176
0.124395 -0.628824 0.232145 128 128 255 0.324895 0.416561 -0.849070
0.159034 -0.641694 0.232171 128 128 255 -0.003001 0.276499 -0.961010
0.193089 -0.628826 0.232216 128 128 255 -0.272669 0.333205 -0.902566
0.216628 -0.594131 0.232278 128 128 255 -0.657977 0.301774 0.689926
0.589992 0.652383 0.057357 128 128 255 -0.546795 0.263135 0.794843
0.571879 0.674423 0.057453 128 128 255 -0.127879 -0.152096 0.980058
0.541609 0.689749 0.057565 128 128 255 -0.048065 -0.134356 0.989767
0.507291 0.695185 0.057694 128 128 255 -0.002794 -0.140913 0.990018
0.477315 0.689737 0.057838 128 128 255 0.074941 -0.178620 0.981060
0.458903 0.674398 0.057997 128 128 255 0.346379 -0.194910 0.917623
0.456989 0.652349 0.058170 128 128 255 0.384906 0.106049 0.916843
0.472894 0.629032 0.058356 128 128 255 0.142860 0.153404 0.977782
0.503162 0.611164 0.058555 128 128 255 0.054892 0.145552 0.987827
0.539687 0.604462 0.058766 128 128 255 -0.000313 0.160306 0.987067
0.571872 0.611186 0.058988 128 128 255 -0.105243 0.214620 0.971011
0.590285 0.629067 0.059219 128 128 255 0.321221 -0.305905 -0.896236
-0.518884 -0.021232 -0.115540 128 128 255 0.343883 -0.372137 -0.862125
-0.515774 0.013695 -0.115292 128 128 255 -0.895314 -0.179208 -0.407795
-0.530517 0.038456 -0.115037 128 128 255 -0.437134 -0.554939 -0.707783
-0.559160 0.047348 -0.114776 128 128 255 -0.003108 -0.529094 0.848558
-0.594832 0.038453 -0.114510 128 128 255 0.110724 -0.226087 0.967794
-0.628778 0.013689 -0.114241 128 128 255 0.177753 -0.165195 0.970111
-0.651903 -0.021240 -0.113970 128 128 255 0.407896 -0.154460 0.899868
-0.657211 -0.057441 -0.113698 128 128 255 0.730176 0.117915 -0.673008
-0.642475 -0.084749 -0.113425 128 128 255 0.295778 0.358112 -0.885591
-0.611642 -0.094915 -0.113154 128 128 255 0.002482 0.830508 0.557002
-0.573773 -0.084747 -0.112885 128 128 255 -0.140677 0.266904 0.953400
-0.539820 -0.057435 -0.112619 128 128 255 0.107575 0.987931 -0.111443
0.715233 -0.249065 -0.287358 128 128 255 0.096709 0.978952 -0.179725
0.694725 -0.209778 -0.287103 128 128 255 -0.245127 -0.188829 0.950924
0.662697 -0.181821 -0.286855 128 128 255 -0.204390 -0.356195 0.911784
0.627732 -0.171755 -0.286614 128 128 255 -0.009839 -0.981413 -0.191657
0.598397 -0.181813 -0.286383 128 128 255 0.303897 -0.384421 -0.871703
0.581746 -0.209767 -0.286161 128 128 255 0.928317 -0.244386 -0.280182
0.582243 -0.249058 -0.285950 128 128 255 0.448971 0.099440 0.887996
0.600556 -0.289624 -0.285751 128 128 255 0.281586 0.196787 0.939140
0.632583 -0.320126 -0.285565 128 128 255 0.285318 0.469296 0.835676
0.669741 -0.331458 -0.285392 128 128 255 0.002233 0.654061 -0.756439
0.701272 -0.320122 -0.285233 128 128 255 -0.229844 0.271056 -0.934720
0.717923 -0.289623 -0.285089 128 128 255 -0.801121 -0.499306 0.329998
0.024318 0.628875 -0.459961 128 128 255 -0.609415 -0.320047 0.725385
0.017029 0.651365 -0.459848 128 128 255 -0.235970 -0.172267 0.956369
-0.005317 0.667020 -0.459752 128 128 255 -0.072694 -0.166394 0.983376
-0.036731 0.672579 -0.459673 128 128 255 -0.004827 -0.149171 0.988800
-0.069603 0.667019 -0.459611 128 128 255 0.050433 -0.151894 0.987109
-0.095932 0.651363 -0.459567 128 128 255 0.157365 -0.164987 0.973661
-0.108663 0.628874 -0.459540 128 128 255 0.389106 -0.067659 0.918705
-0.103578 0.605114 -0.459531 128 128 255 0.302353 0.186607 0.934752
-0.081232 0.586912 -0.459540 128 128 255 0.097346 0.196981 0.975563
-0.047613 0.580078 -0.459567 128 128 255 0.007105 0.176218 0.984326
-0.012537 0.586911 -0.459611 128 128 255 -0.064137 0.175593 0.982371
0.013792 0.605113 -0.459673 128 128 255 0.575244 0.198498 -0.793532
0.009949 -0.201411 -0.634752 128 128 255 0.517685 0.184591 -0.835421
0.002934 -0.163036 -0.634848 128 128 255 -0.605262 -0.259770 0.752447
-0.019210 -0.135749 -0.634961 128 128 255 -0.567851 -0.809401 0.149717
-0.050551 -0.125931 -0.635089 128 128 255 -0.008656 -0.992234 0.124082
-0.083497 -0.135748 -0.635233 128 128 255 0.341193 -0.571098 0.746615
-0.110027 -0.163034 -0.635392 128 128 255 0.381714 -0.242017 0.892033
-0.123030 -0.201409 -0.635565 128 128 255 0.468520 -0.057436 0.881584
-0.118218 -0.241055 -0.635751 128 128 255 0.747334 0.286695 0.599415
-0.096073 -0.270884 -0.635950 128 128 255 0.506943 0.703914 -0.497507
-0.062529 -0.281974 -0.636161 128 128 255 -0.004788 0.813450 -0.581615
-0.027381 -0.270887 -0.636383 128 128 255 -0.500971 0.774154 0.386927
-0.000852 -0.241058 -0.636614 128 128 255 -0.052725 -0.950647 0.305761
0.506085 0.100000 0.588145 128 128 255 -0.082023 -0.950965 0.298225
0.497120 0.100000 0.583846 128 128 255 -0.316801 -0.260260 0.912087
0.475638 0.127744 0.583591 128 128 255 -0.228710 -0.225942 0.946912
0.445785 0.146764 0.583330 128 128 255 -0.131832 -0.267573 0.954476
0.415560 0.153451 0.583064 128 128 255 -0.017527 -0.358761 0.933265
0.391771 0.146761 0.582795 128 128 255 0.302416 -0.463363 0.832970
0.379503 0.127741 0.582524 128 128 255 0.601651 -0.153107 0.783948
0.382042 0.100000 0.582251 128 128 255 0.410205 0.124256 0.903489
0.399998 0.070224 0.581979 128 128 255 0.254077 0.208952 0.944343
0.429850 0.047136 0.581708 128 128 255 0.157305 0.283516 0.945978
0.463600 0.038411 0.581439 128 128 255 0.015276 0.427332 0.903966
0.490915 0.047133 0.581173 128 128 255 -0.436527 0.577076 0.690237
0.503184 0.070221 0.580912 128 128 255 -0.497822 -0.866161 -0.044016
-0.246232 0.469870 0.405657 128 128 255 -0.498545 -0.646261 0.577754
-0.241428 0.484540 0.405409 128 128 255 -0.520922 -0.106468 0.846939
-0.252039 0.493996 0.405168 128 128 255 -0.123215 -0.253591 0.959432
-0.275223 0.497190 0.404937 128 128 255 -0.015843 -0.210062 0.977560
-0.306058 0.494014 0.404715 128 128 255 0.030913 -0.205776 0.978111
-0.337572 0.484573 0.404504 128 128 255 0.099740 -0.245538 0.964242
-0.361320 0.469908 0.404305 128 128 255 0.324424 -0.329036 0.886840
-0.369649 0.453205 0.404119 128 128 255 0.661341 0.051572 0.748311
-0.359036 0.439683 0.403946 128 128 255 0.162365 0.283393 0.945159
-0.332325 0.434454 0.403787 128 128 255 0.011445 0.223826 0.974562
-0.297965 0.439663 0.403643 128 128 255 -0.049804 0.205081 0.977477
-0.266453 0.453171 0.403514 128 128 255 0.468218 0.388248 -0.793748
0.214381 -0.547830 0.228402 128 128 255 0.424266 0.362212 -0.829940
0.202896 -0.497141 0.228306 128 128 255 -0.463530 -0.175598 0.868507
0.180365 -0.461320 0.228227 128 128 255 -0.697281 -0.716151 0.030438
0.152826 -0.448478 0.228165 128 128 255 0.000892 -0.501937 -0.864904
0.126368 -0.461315 0.228120 128 128 255 0.644914 -0.629976 -0.432684
0.106786 -0.497134 0.228094 128 128 255 0.541759 -0.179635 0.821114
0.099328 -0.547823 0.228085 128 128 255 0.402813 -0.002810 0.915278
0.107284 -0.600539 0.228094 128 128 255 0.486593 0.157693 0.859279
0.129813 -0.640412 0.228120 128 128 255 0.679525 0.668484 -0.302282
0.160879 -0.655277 0.228165 128 128 255 0.001023 0.402176 -0.915562
0.190866 -0.640413 0.228227 128 128 255 -0.547578 0.511445 -0.662255
0.210450 -0.600543 0.228306 128 128 255 -0.502815 0.265952 0.822464
0.581030 0.652381 0.053402 128 128 255 -0.458008 0.245101 0.854490
0.556586 0.660597 0.053514 128 128 255 -0.062833 -0.231944 0.970698
0.524563 0.665318 0.053643 128 128 255 -0.019909 -0.161727 0.986635
0.493544 0.666768 0.053787 128 128 255 -0.001139 -0.147441 0.989070
0.470548 0.665303 0.053946 128 128 255 0.034382 -0.168426 0.985115
0.460449 0.660572 0.054119 128 128 255 0.296025 -0.123707 0.947136
0.465952 0.652352 0.054305 128 128 255 0.295371 0.367011 0.882077
0.486871 0.642102 0.054504 128 128 255 0.082251 0.212174 0.973764
0.518892 0.633315 0.054715 128 128 255 0.030394 0.160976 0.986490
0.553437 0.629832 0.054937 128 128 255 -0.001621 0.156975 0.987601
0.579957 0.633331 0.055168 128 128 255 -0.067189 0.187085 0.980043
0.590056 0.642129 0.055409 128 128 255 0.291000 -0.245255 -0.924753
-0.527850 -0.021234 -0.119343 128 128 255 0.313222 -0.298607 -0.901513
-0.513075 0.010801 -0.119088 128 128 255 -0.976930 0.189480 -0.098518
-0.516393 0.032961 -0.118827 128 128 255 -0.541866 -0.427612 -0.723553
-0.536914 0.040798 -0.118561 128 128 255 -0.001273 -0.461135 0.887329
-0.570426 0.032958 -0.118292 128 128 255 0.102133 -0.239579 0.965490
-0.609237 0.010795 -0.118021 128 128 255 0.160374 -0.207204 0.965063
-0.642943 -0.021240 -0.117749 128 128 255 0.334413 -0.252059 0.908094
-0.661228 -0.055308 -0.117476 128 128 255 0.928197 -0.211925 -0.305841
-0.657910 -0.081537 -0.117205 128 128 255 0.433219 0.327043 -0.839860
-0.633879 -0.091411 -0.116936 128 128 255 0.001766 0.579730 0.814807
-0.596856 -0.081537 -0.116670 128 128 255 -0.121049 0.250169 0.960605
-0.558046 -0.055305 -0.116409 128 128 255 0.125557 0.992013 0.012048
0.706273 -0.249066 -0.291154 128 128 255 0.102505 0.983134 -0.151461
0.677403 -0.208976 -0.290906 128 128 255 -0.228420 -0.212807 0.950020
0.642137 -0.180915 -0.290665 128 128 255 -0.183783 -0.324260 0.927944
0.609926 -0.170913 -0.290434 128 128 255 -0.010141 -0.939442 0.342557
0.588118 -0.180908 -0.290212 128 128 255 0.448194 -0.364249 -0.816360
0.581266 -0.208966 -0.290001 128 128 255 0.971440 0.018581 0.236556
0.591206 -0.249060 -0.289802 128 128 255 0.383962 0.158812 0.909589
0.616560 -0.291188 -0.289616 128 128 255 0.247776 0.199706 0.948011
0.651821 -0.323315 -0.289443 128 128 255 0.219186 0.349814 0.910817
0.687540 -0.335343 -0.289284 128 128 255 0.008133 0.986413 -0.164086
0.712865 -0.323309 -0.289140 128 128 255 -0.374384 0.287650 -0.881530
0.719723 -0.291185 -0.289012 128 128 255 -0.701520 -0.394245 0.593667
0.015357 0.628875 -0.463899 128 128 255 -0.529190 -0.250407 0.810712
0.010915 0.637925 -0.463803 128 128 255 -0.153891 -0.201063 0.967415
-0.006463 0.643260 -0.463724 128 128 255 -0.037505 -0.176135 0.983651
-0.032119 0.644940 -0.463662 128 128 255 -0.004821 -0.157017 0.987584
-0.060470 0.643259 -0.463618 128 128 255 0.019985 -0.169985 0.985244
-0.085207 0.637924 -0.463591 128 128 255 0.081897 -0.220020 0.972052
-0.099702 0.628874 -0.463582 128 128 255 0.300212 -0.196000 0.933518
-0.098783 0.617792 -0.463591 128 128 255 0.227924 0.178693 0.957141
-0.081406 0.608389 -0.463618 128 128 255 0.065669 0.191884 0.979218
-0.052226 0.604674 -0.463662 128 128 255 0.007690 0.174601 0.984609
-0.020352 0.608389 -0.463724 128 128 255 -0.035402 0.182543 0.982560
0.004385 0.617792 -0.463803 128 128 255 0.508401 0.199799 -0.837621
0.000988 -0.201411 -0.638899 128 128 255 0.459863 0.191043 -0.867196
-0.002946 -0.163007 -0.639012 128 128 255 -0.509937 -0.156074 0.845934
-0.019952 -0.136183 -0.639140 128 128 255 -0.554697 -0.638214 0.533849
-0.045473 -0.126637 -0.639284 128 128 255 -0.013143 -0.874074 0.485614
-0.073959 -0.136183 -0.639443 128 128 255 0.302047 -0.469550 0.829633
-0.099067 -0.163006 -0.639616 128 128 255 0.343520 -0.223082 0.912266
-0.114070 -0.201409 -0.639802 128 128 255 0.404846 -0.082905 0.910619
-0.113656 -0.241844 -0.640001 128 128 255 0.572158 0.133898 0.809139
-0.096650 -0.272734 -0.640212 128 128 255 0.659018 0.713898 0.236738
-0.067607 -0.284314 -0.640434 128 128 255 0.007411 0.995796 0.091303
-0.035599 -0.272737 -0.640665 128 128 255 -0.386216 0.544429 0.744603
-0.010492 -0.241847 -0.640906 128 128 255 -0.159867 -0.923905 0.347625
0.497120 0.100000 0.583846 128 128 255 -0.109875 -0.944695 0.308997
0.487909 0.100000 0.580133 128 128 255 -0.278410 -0.298462 0.912912
0.463808 0.123042 0.579872 128 128 255 -0.209829 -0.261078 0.942237
0.434630 0.138493 0.579607 128 128 255 -0.123604 -0.283933 0.950844
0.408195 0.143849 0.579338 128 128 255 -0.019420 -0.337573 0.941099
0.390168 0.138492 0.579066 128 128 255 0.260087 -0.350345 0.899785
0.383965 0.123040 0.578794 128 128 255 0.503176 -0.019649 0.863960
0.391248 0.100000 0.578521 128 128 255 0.350276 0.174364 0.920274
0.411480 0.074728 0.578250 128 128 255 0.222799 0.220145 0.949683
0.440657 0.054811 0.577981 128 128 255 0.136997 0.261767 0.955359
0.470962 0.047220 0.577715 128 128 255 0.017349 0.332416 0.942973
0.492858 0.054808 0.577455 128 128 255 -0.295906 0.342739 0.891611
0.499061 0.074726 0.577199 128 128 255 -0.524706 -0.798975 0.293807
-0.255439 0.469872 0.401951 128 128 255 -0.448321 -0.498960 0.741651
-0.245193 0.475826 0.401710 128 128 255 -0.640548 0.368311 0.673829
-0.249226 0.478774 0.401479 128 128 255 -0.087845 -0.262108 0.961032
-0.266460 0.479560 0.401257 128 128 255 -0.016715 -0.239520 0.970747
-0.293692 0.478790 0.401047 128 128 255 0.007311 -0.255821 0.966697
-0.325043 0.475854 0.400848 128 128 255 0.048430 -0.341909 0.938484
-0.352110 0.469905 0.400661 128 128 255 0.212327 -0.585701 0.782222
-0.366225 0.461719 0.400488 128 128 255 0.674496 -0.393544 0.624642
-0.362190 0.454307 0.400329 128 128 255 0.131166 0.248903 0.959605
-0.341086 0.451288 0.400185 128 128 255 0.011840 0.229095 0.973332
-0.309985 0.454290 0.400057 128 128 255 -0.031491 0.230440 0.972577
-0.278636 0.461690 0.399944 128 128 255 0.424452 0.366905 -0.827781
0.205175 -0.547828 0.224848 128 128 255 0.375731 0.342976 -0.860926
0.194135 -0.494818 0.224769 128 128 255 -0.361935 -0.117750 0.924737
0.174523 -0.457424 0.224707 128 128 255 -0.456978 -0.377162 0.805556
0.151594 -0.444033 0.224663 128 128 255 -0.018553 -0.991540 0.128472
0.130074 -0.457419 0.224636 128 128 255 0.580958 -0.450046 0.678194
0.114314 -0.494812 0.224627 128 128 255 0.400588 -0.102856 0.910467
0.108534 -0.547823 0.224636 128 128 255 0.331847 0.000564 0.943333
0.115702 -0.603058 0.224663 128 128 255 0.346604 0.093214 0.933369
0.135313 -0.644899 0.224707 128 128 255 0.437701 0.350164 0.828132
0.162111 -0.660511 0.224769 128 128 255 0.019540 0.983293 0.180980
0.187502 -0.644900 0.224848 128 128 255 -0.569850 0.428827 0.700984
0.203265 -0.603061 0.224944 128 128 255 -0.331541 0.223623 0.916555
0.571822 0.652380 0.050057 128 128 255 -0.352685 0.223416 0.908680
0.543846 0.649902 0.050185 128 128 255 0.025301 -0.386033 0.922138
0.511831 0.646668 0.050329 128 128 255 0.013817 -0.218349 0.975773
0.484355 0.645180 0.050488 128 128 255 0.001374 -0.176249 0.984345
0.467367 0.646654 0.050661 128 128 255 -0.026935 -0.183124 0.982721
0.464001 0.649879 0.050848 128 128 255 -0.264560 0.455888 -0.849808
0.475160 0.652355 0.051047 128 128 255 -0.025302 0.997561 0.065058
0.499268 0.652602 0.051257 128 128 255 0.012069 0.323821 0.946041
0.531282 0.651370 0.051479 128 128 255 0.006197 0.196527 0.980479
0.562624 0.650624 0.051710 128 128 255 -0.003380 0.170859 0.985290
0.583480 0.651381 0.051951 128 128 255 -0.027403 0.181629 0.982985
0.586846 0.652622 0.052199 128 128 255 0.253709 -0.175285 -0.951266
-0.537062 -0.021235 -0.122546 128 128 255 0.276258 -0.219964 -0.935573
-0.513793 0.007412 -0.122285 128 128 255 -0.743319 0.419249 0.521256
-0.508297 0.026967 -0.122019 128 128 255 -0.934700 -0.306114 -0.180635
-0.522049 0.033824 -0.121750 128 128 255 0.001589 -0.364292 0.931283
-0.552777 0.026964 -0.121479 128 128 255 0.095856 -0.249468 0.963627
-0.593659 0.007407 -0.121206 128 128 255 0.147348 -0.238218 0.959969
-0.633736 -0.021240 -0.120934 128 128 255 0.270357 -0.293978 0.916779
-0.660855 -0.052118 -0.120662 128 128 255 0.743298 -0.422397 0.518738
-0.666344 -0.076137 -0.120393 128 128 255 0.935722 0.348271 -0.055962
-0.648736 -0.085228 -0.120128 128 128 255 -0.000194 0.357949 0.933741
-0.614157 -0.076137 -0.119867 128 128 255 -0.104280 0.231870 0.967141
-0.573282 -0.052116 -0.119612 128 128 255 0.153807 0.960585 0.231560
0.697067 -0.249066 -0.294363 128 128 255 0.116169 0.989957 -0.080562
0.663310 -0.209895 -0.294123 128 128 255 -0.208406 -0.218407 0.953344
0.627058 -0.182631 -0.293891 128 128 255 -0.158564 -0.281058 0.946501
0.598029 -0.172948 -0.293670 128 128 255 -0.004841 -0.535448 0.844554
0.582591 -0.182625 -0.293459 128 128 255 0.910973 -0.409775 -0.047046
0.583465 -0.209886 -0.293260 128 128 255 0.656871 0.159908 0.736851
0.600415 -0.249062 -0.293074 128 128 255 0.317521 0.179913 0.931027
0.630310 -0.290468 -0.292901 128 128 255 0.214548 0.191857 0.957685
0.666553 -0.322191 -0.292742 128 128 255 0.166377 0.261292 0.950813
0.699433 -0.334097 -0.292598 128 128 255 0.007409 0.528669 0.848796
0.718733 -0.322185 -0.292469 128 128 255 -0.904594 0.425561 -0.024632
0.717869 -0.290464 -0.292357 128 128 255 -0.493547 -0.206853 0.844762
0.006150 0.628875 -0.467261 128 128 255 -0.419801 -0.154609 0.894351
0.004311 0.627490 -0.467182 128 128 255 0.041432 -0.351347 0.935328
-0.008569 0.625061 -0.467120 128 128 255 0.011797 -0.219454 0.975551
-0.029038 0.623872 -0.467075 128 128 255 -0.004561 -0.188834 0.981998
-0.053026 0.625060 -0.467048 128 128 255 -0.017256 -0.217295 0.975953
-0.075521 0.627489 -0.467040 128 128 255 -0.026874 -0.344995 0.938220
-0.090495 0.628874 -0.467048 128 128 255 0.046676 -0.732016 0.679687
-0.092522 0.628028 -0.467075 128 128 255 0.112961 0.222103 0.968458
-0.079642 0.625993 -0.467120 128 128 255 0.032610 0.212691 0.976575
-0.055308 0.624949 -0.467182 128 128 255 0.008523 0.192878 0.981186
-0.027453 0.625993 -0.467261 128 128 255 -0.006984 0.212550 0.977125
-0.004958 0.628029 -0.467357 128 128 255 0.430492 0.200630 -0.880014
-0.008218 -0.201411 -0.642469 128 128 255 0.395659 0.196446 -0.897142
-0.009395 -0.164443 -0.642598 128 128 255 -0.402146 -0.079983 0.912075
-0.021789 -0.138795 -0.642742 128 128 255 -0.400102 -0.363456 0.841319
-0.042079 -0.129707 -0.642901 128 128 255 -0.017191 -0.556562 0.830628
-0.066245 -0.138795 -0.643073 128 128 255 0.242857 -0.353806 0.903240
-0.089226 -0.164442 -0.643260 128 128 255 0.299280 -0.196544 0.933703
-0.104863 -0.201409 -0.643459 128 128 255 0.342360 -0.090935 0.935158
-0.107551 -0.240606 -0.643670 128 128 255 0.412888 0.049605 0.909430
-0.095157 -0.270716 -0.643891 128 128 255 0.411144 0.348055 0.842507
-0.071000 -0.282037 -0.644123 128 128 255 0.018262 0.551386 0.834050
-0.042969 -0.270718 -0.644363 128 128 255 -0.256080 0.340768 0.904599
-0.019990 -0.240609 -0.644612 128 128 255 -0.294021 -0.872410 0.390452
0.487909 0.100000 0.580133 128 128 255 -0.163358 -0.930831 0.326908
0.478492 0.100000 0.577023 128 128 255 -0.240224 -0.307819 0.920619
0.454607 0.118479 0.576757 128 128 255 -0.192407 -0.282235 0.939853
0.427930 0.130772 0.576488 128 128 255 -0.117204 -0.294427 0.948460
0.405607 0.135010 0.576217 128 128 255 -0.022229 -0.308197 0.951063
0.392386 0.130771 0.575944 128 128 255 0.193023 -0.231465 0.953502
0.390576 0.118477 0.575672 128 128 255 0.370108 0.062227 0.926902
0.400661 0.100000 0.575401 128 128 255 0.288650 0.198897 0.936548
0.421173 0.079577 0.575132 128 128 255 0.194953 0.224395 0.954799
0.447851 0.063392 0.574866 128 128 255 0.120389 0.242085 0.962757
0.473546 0.057206 0.574605 128 128 255 0.019912 0.260410 0.965293
0.490139 0.063390 0.574350 128 128 255 -0.182591 0.194011 0.963857
0.491949 0.079575 0.574102 128 128 255 -0.394338 -0.347124 0.850884
-0.264854 0.469875 0.398861 128 128 255 -0.351339 -0.256515 0.900423
-0.251558 0.469855 0.398630 128 128 255 -0.050071 0.708592 -0.703840
-0.251019 0.468610 0.398408 128 128 255 -0.015581 -0.348807 0.937065
-0.263380 0.467899 0.398197 128 128 255 -0.017211 -0.315644 0.948722
-0.286566 0.468623 0.397998 128 128 255 -0.020218 -0.352090 0.935748
-0.315596 0.469878 0.397812 128 128 255 -0.011580 -0.503964 0.863647
-0.342692 0.469902 0.397639 128 128 255 0.057890 -0.898036 0.436096
-0.359360 0.467976 0.397480 128 128 255 0.319774 -0.918361 -0.233146
-0.359898 0.465329 0.397336 128 128 255 0.102104 0.234652 0.966702
-0.344164 0.464094 0.397207 128 128 255 0.012513 0.258433 0.965948
-0.317607 0.465315 0.397095 128 128 255 -0.014316 0.281194 0.959544
-0.288578 0.467952 0.396999 128 128 255 0.372882 0.341421 -0.862781
0.195761 -0.547827 0.221920 128 128 255 0.321746 0.319817 -0.891177
0.186016 -0.496916 0.221858 128 128 255 -0.274241 -0.078286 0.958469
0.169691 -0.460877 0.221813 128 128 255 -0.248849 -0.171555 0.953228
0.151161 -0.447944 0.221787 128 128 255 -0.014420 -0.276758 0.960831
0.134158 -0.460873 0.221778 128 128 255 0.268021 -0.172421 0.947859
0.122001 -0.496911 0.221787 128 128 255 0.286807 -0.058667 0.956190
0.117948 -0.547822 0.221813 128 128 255 0.262696 0.003015 0.964874
0.124319 -0.600672 0.221858 128 128 255 0.248280 0.058723 0.966907
0.140643 -0.640587 0.221920 128 128 255 0.208811 0.142781 0.967477
0.162544 -0.655455 0.221999 128 128 255 0.008199 0.226098 0.974070
0.182921 -0.640587 0.222095 128 128 255 -0.227642 0.143716 0.963081
0.195080 -0.600675 0.222207 128 128 255 -0.182663 0.185105 0.965593
0.562406 0.652378 0.047336 128 128 255 -0.244806 0.200192 0.948680
0.534327 0.643232 0.047480 128 128 255 0.209962 -0.776660 0.593899
0.504576 0.635298 0.047639 128 128 255 0.071586 -0.361038 0.929799
0.481127 0.632128 0.047812 128 128 255 0.005795 -0.270058 0.962827
0.469030 0.635286 0.047998 128 128 255 -0.294218 -0.374874 0.879150
0.470293 0.643212 0.048197 128 128 255 -0.207973 0.199882 -0.957494
0.484576 0.652358 0.048408 128 128 255 -0.205660 0.536074 -0.818736
0.509285 0.659560 0.048630 128 128 255 -0.118452 0.621523 0.774389
0.539033 0.663600 0.048861 128 128 255 -0.026622 0.282704 0.958838
0.565851 0.664820 0.049102 128 128 255 -0.006022 0.221361 0.975173
0.581318 0.663607 0.049350 128 128 255 0.051230 0.246673 0.967744
0.580057 0.659575 0.049605 128 128 255 0.204684 -0.088215 -0.974845
-0.546481 -0.021236 -0.125134 128 128 255 0.230042 -0.131013 -0.964322
-0.519092 0.003310 -0.124868 128 128 255 -0.403682 0.352108 0.844429
-0.508239 0.020044 -0.124599 128 128 255 -0.430075 0.020308 0.902565
-0.516830 0.025907 -0.124328 128 128 255 0.005543 -0.260921 0.965344
-0.543797 0.020041 -0.124056 128 128 255 0.088909 -0.246409 0.965079
-0.583143 0.003305 -0.123783 128 128 255 0.133985 -0.250638 0.958764
-0.624321 -0.021240 -0.123512 128 128 255 0.213355 -0.289818 0.932998
-0.655064 -0.047729 -0.123243 128 128 255 0.380717 -0.322489 0.866634
-0.665908 -0.068353 -0.122977 128 128 255 0.329483 0.023756 0.943863
-0.653953 -0.076164 -0.122716 128 128 255 -0.002972 0.220726 0.975331
-0.623632 -0.068354 -0.122461 128 128 255 -0.088714 0.209024 0.973878
-0.584295 -0.047728 -0.122213 128 128 255 0.181229 0.829837 0.527757
0.687653 -0.249066 -0.296972 128 128 255 0.138267 0.989473 0.042721
0.653316 -0.213130 -0.296741 128 128 255 -0.180340 -0.203184 0.962390
0.618981 -0.188052 -0.296519 128 128 255 -0.127639 -0.226620 0.965584
0.593853 -0.179132 -0.296308 128 128 255 0.000075 -0.254576 0.967053
0.583434 -0.188047 -0.296109 128 128 255 0.374281 -0.066233 0.924947
0.589283 -0.213123 -0.295923 128 128 255 0.379621 0.156641 0.911785
0.609830 -0.249063 -0.295750 128 128 255 0.251729 0.172634 0.952276
0.640800 -0.286947 -0.295591 128 128 255 0.179549 0.173760 0.968282
0.675125 -0.315909 -0.295447 128 128 255 0.124767 0.195013 0.972833
0.703610 -0.326767 -0.295319 128 128 255 0.004368 0.222934 0.974824
0.717396 -0.315904 -0.295206 128 128 255 -0.314289 0.079939 0.945956
0.711557 -0.286943 -0.295110 128 128 255 -0.267404 -0.021488 0.963345
-0.003264 0.628875 -0.470031 128 128 255 -0.297237 -0.049411 0.953525
-0.003053 0.620914 -0.469969 128 128 255 0.440179 -0.289132 -0.850085
-0.012090 0.613852 -0.469925 128 128 255 0.144602 -0.416236 0.897685
-0.027955 0.611006 -0.469898 128 128 255 -0.003194 -0.292198 0.956353
-0.047630 0.613852 -0.469889 128 128 255 -0.085525 -0.355441 0.930777
-0.067075 0.620913 -0.469898 128 128 255 -0.307030 -0.748208 0.588147
-0.081081 0.628874 -0.469925 128 128 255 -0.296852 -0.442714 -0.846099
-0.084662 0.634890 -0.469969 128 128 255 -0.481456 0.283251 -0.829439
-0.075624 0.638061 -0.470031 128 128 255 -0.023712 0.311548 0.949935
-0.056390 0.638962 -0.470110 128 128 255 0.009614 0.255212 0.966837
-0.033346 0.638062 -0.470206 128 128 255 0.032238 0.298927 0.953731
-0.013900 0.634892 -0.470319 128 128 255 0.341209 0.201231 -0.918195
-0.017632 -0.201410 -0.645447 128 128 255 0.324500 0.200663 -0.924356
-0.016703 -0.167859 -0.645591 128 128 255 -0.304022 -0.032836 0.952099
-0.025215 -0.144531 -0.645750 128 128 255 -0.257333 -0.181243 0.949174
-0.040888 -0.136252 -0.645923 128 128 255 -0.019906 -0.299992 0.953734
-0.060754 -0.144530 -0.646109 128 128 255 0.178403 -0.249201 0.951878
-0.080725 -0.167858 -0.646308 128 128 255 0.247965 -0.163972 0.954791
-0.095449 -0.201409 -0.646519 128 128 255 0.280796 -0.087115 0.955806
-0.099746 -0.236903 -0.646741 128 128 255 0.298419 0.009715 0.954386
-0.091233 -0.264120 -0.646972 128 128 255 0.237517 0.155721 0.958820
-0.072192 -0.274344 -0.647213 128 128 255 0.021069 0.259970 0.965387
-0.048957 -0.264122 -0.647461 128 128 255 -0.165956 0.217005 0.961960
-0.028986 -0.236906 -0.647716 128 128 255 -0.424709 -0.801196 0.421554
