ply
format ascii 1.0
element vertex 697
property float x
property float y
property float z
property uchar red
property uchar green
property uchar blue
property float nx
property float ny
property float nz
end_header
-0.087084 0.199998 0.312132 128 128 255 -0.524451 0.258541 -0.811238
-0.095984 0.181179 0.312132 128 128 255 -0.410861 -0.648804 -0.640505
-0.576659 0.305262 0.807107 128 128 255 0.221101 -0.912843 0.343268
-0.593520 0.237950 0.807107 128 128 255 0.825797 -0.160925 0.540520
-0.603702 0.169309 0.807107 128 128 255 0.837594 -0.079208 0.540520
-0.607107 0.100000 0.807107 128 128 255 0.577459 0.785157 0.223761
-0.111111 0.079207 0.312132 128 128 255 -0.389235 0.775225 -0.497517
-0.108056 0.058615 0.312132 128 128 255 -0.569423 -0.132853 -0.811238
-0.102998 0.038421 0.312132 128 128 255 0.093997 -0.762180 -0.640505
-0.553281 -0.170598 0.807107 128 128 255 0.750015 -0.565372 0.343268
-0.523612 -0.233328 0.807107 128 128 255 0.740440 0.399483 0.540520
-0.487938 -0.292847 0.807107 128 128 255 0.043929 0.973653 0.223761
-0.063980 -0.034575 0.312132 128 128 255 -0.754329 0.428329 -0.497517
-0.050000 -0.050000 0.312132 128 128 255 -0.399649 -0.426818 -0.811238
-0.034575 -0.063980 0.312132 128 128 255 0.501600 -0.581507 -0.640505
-0.292847 -0.487938 0.807107 128 128 255 0.937718 -0.053404 0.343268
-0.233328 -0.523612 0.807107 128 128 255 0.393712 0.743525 0.540520
-0.170598 -0.553281 0.807107 128 128 255 -0.504407 0.833969 0.223761
0.038421 -0.102998 0.312132 128 128 255 -0.865168 -0.062940 -0.497517
0.058615 -0.108056 0.312132 128 128 255 -0.095168 -0.576919 -0.811238
0.079207 -0.111111 0.312132 128 128 255 -0.038162 -0.583469 -0.811238
0.100000 -0.112132 0.312132 128 128 255 0.756647 -0.131299 -0.640505
0.169309 -0.603702 0.807107 128 128 255 0.758745 0.553600 0.343268
0.237950 -0.593520 0.807107 128 128 255 -0.167344 0.824521 0.540520
0.305262 -0.576659 0.807107 128 128 255 -0.918976 0.324674 0.223761
0.181179 -0.095984 0.312132 128 128 255 -0.628855 -0.597510 -0.497517
0.199998 -0.087084 0.312132 128 128 255 0.292428 -0.506339 -0.811238
0.217854 -0.076381 0.312132 128 128 255 0.702075 0.311199 -0.640505
0.548584 -0.446601 0.807107 128 128 255 0.323309 0.881838 0.343268
0.600000 -0.400000 0.807107 128 128 255 -0.597220 0.592593 0.540520
0.646601 -0.348584 0.807107 128 128 255 -0.944480 -0.240599 0.223761
0.276381 -0.017854 0.312132 128 128 255 -0.190915 -0.846185 -0.497517
0.287084 0.000002 0.312132 128 128 255 0.524451 -0.258541 -0.811238
0.295984 0.018821 0.312132 128 128 255 0.410861 0.648804 -0.640505
0.776659 -0.105262 0.807107 128 128 255 -0.221101 0.912842 0.343268
0.793520 -0.037950 0.807107 128 128 255 -0.825797 0.160925 0.540520
0.803702 0.030691 0.807107 128 128 255 -0.837594 0.079208 0.540520
0.807107 0.100000 0.807107 128 128 255 -0.884392 0.043447 0.464718
0.331903 0.100000 0.290318 128 128 255 -0.110036 0.993173 -0.038715
0.869288 0.175768 0.734393 128 128 255 0.157019 0.801737 -0.576682
0.858157 0.250807 0.734393 128 128 255 0.435070 0.080348 -0.896805
0.839725 0.324393 0.734393 128 128 255 0.521466 -0.669905 -0.528489
0.314251 0.188745 0.290318 128 128 255 -0.300036 -0.931542 0.205445
0.304520 0.209318 0.290318 128 128 255 -0.673805 -0.335924 0.658135
0.292820 0.228838 0.290318 128 128 255 -0.841288 0.382961 0.381543
0.697545 0.590393 0.734393 128 128 255 -0.363866 0.698048 -0.616710
0.646601 0.646601 0.734393 128 128 255 0.317108 0.308518 -0.896805
0.590393 0.697545 0.734393 128 128 255 0.805763 -0.267294 -0.528489
0.228838 0.292820 0.290318 128 128 255 0.268066 -0.941240 0.205445
0.209318 0.304520 0.290318 128 128 255 -0.373619 -0.653657 0.658135
0.188745 0.314251 0.290318 128 128 255 -0.912267 -0.148974 0.381543
0.324393 0.839725 0.734393 128 128 255 -0.690358 0.378253 -0.616710
0.250807 0.858157 0.734393 128 128 255 0.092262 0.432700 -0.896805
0.175768 0.869288 0.734393 128 128 255 0.049406 0.439659 -0.896805
0.100000 0.873010 0.734393 128 128 255 0.792433 0.304549 -0.528489
0.077270 0.330786 0.290318 128 128 255 0.804334 -0.557529 0.205445
0.054758 0.327447 0.290318 128 128 255 0.125864 -0.742305 0.658135
0.032682 0.321917 0.290318 128 128 255 -0.610684 -0.693895 0.381543
-0.195818 0.814169 0.734393 128 128 255 -0.773615 -0.145565 -0.616710
-0.264395 0.781734 0.734393 128 128 255 -0.203182 0.393012 -0.896805
-0.329462 0.742735 0.734393 128 128 255 0.489686 0.693475 -0.528489
-0.047118 0.279264 0.290318 128 128 255 0.978526 -0.016704 0.205445
-0.063980 0.263980 0.290318 128 128 255 0.517054 -0.547278 0.658135
-0.079264 0.247118 0.290318 128 128 255 -0.122258 -0.916230 0.381543
-0.542735 0.529462 0.734393 128 128 255 -0.562366 -0.550830 -0.616710
-0.581734 0.464395 0.734393 128 128 255 -0.387285 0.213896 -0.896805
-0.614169 0.395818 0.734393 128 128 255 0.021884 0.848658 -0.528489
-0.121917 0.167318 0.290318 128 128 255 0.822895 0.529751 0.205445
-0.127447 0.145242 0.290318 128 128 255 0.733966 -0.167785 0.658135
-0.130786 0.122730 0.290318 128 128 255 0.746878 -0.095036 0.658135
-0.131903 0.100000 0.290318 128 128 255 0.486744 -0.785815 0.381543
-0.669288 0.024232 0.734393 128 128 255 -0.085271 -0.782559 -0.616710
-0.658157 -0.050807 0.734393 128 128 255 -0.435070 -0.080348 -0.896805
-0.639725 -0.124393 0.734393 128 128 255 -0.521466 0.669905 -0.528489
-0.114251 0.011255 0.290318 128 128 255 0.300036 0.931542 0.205445
-0.104520 -0.009318 0.290318 128 128 255 0.673805 0.335924 0.658135
-0.092820 -0.028838 0.290318 128 128 255 0.841288 -0.382961 0.381543
-0.497545 -0.390393 0.734393 128 128 255 0.363866 -0.698048 -0.616710
-0.446601 -0.446601 0.734393 128 128 255 -0.317108 -0.308518 -0.896805
-0.390393 -0.497545 0.734393 128 128 255 -0.805763 0.267294 -0.528489
-0.028838 -0.092820 0.290318 128 128 255 -0.268066 0.941240 0.205445
-0.009318 -0.104520 0.290318 128 128 255 0.373619 0.653657 0.658135
0.011255 -0.114251 0.290318 128 128 255 0.912267 0.148974 0.381543
-0.124393 -0.639725 0.734393 128 128 255 0.690358 -0.378253 -0.616710
-0.050807 -0.658157 0.734393 128 128 255 -0.092262 -0.432700 -0.896805
0.024232 -0.669288 0.734393 128 128 255 -0.049406 -0.439659 -0.896805
0.100000 -0.673010 0.734393 128 128 255 -0.792433 -0.304549 -0.528489
0.122730 -0.130786 0.290318 128 128 255 -0.804334 0.557529 0.205445
0.145242 -0.127447 0.290318 128 128 255 -0.125864 0.742305 0.658135
0.167318 -0.121917 0.290318 128 128 255 0.610684 0.693895 0.381543
0.395818 -0.614169 0.734393 128 128 255 0.773615 0.145565 -0.616710
0.464395 -0.581734 0.734393 128 128 255 0.203182 -0.393012 -0.896805
0.529462 -0.542735 0.734393 128 128 255 -0.489685 -0.693475 -0.528489
0.247118 -0.079264 0.290318 128 128 255 -0.978526 0.016704 0.205445
0.263980 -0.063980 0.290318 128 128 255 -0.517054 0.547278 0.658135
0.279264 -0.047118 0.290318 128 128 255 0.122258 0.916230 0.381543
0.742735 -0.329462 0.734393 128 128 255 0.562366 0.550831 -0.616710
0.781734 -0.264395 0.734393 128 128 255 0.387285 -0.213895 -0.896805
0.814169 -0.195818 0.734393 128 128 255 -0.021884 -0.848658 -0.528489
0.321917 0.032682 0.290318 128 128 255 -0.822895 -0.529751 0.205445
0.327447 0.054758 0.290318 128 128 255 -0.733966 0.167785 0.658135
0.330786 0.077270 0.290318 128 128 255 -0.746878 0.095036 0.658135
0.331903 0.100000 0.290318 128 128 255 -0.742442 0.036474 0.668917
0.349441 0.100000 0.266671 128 128 255 -0.117236 0.992447 -0.036109
0.927466 0.181498 0.655570 128 128 255 -0.247764 0.962802 -0.107824
0.915493 0.262212 0.655570 128 128 255 -0.815816 -0.163641 -0.554676
0.895667 0.341363 0.655570 128 128 255 0.145207 -0.983472 -0.108156
0.330453 0.195457 0.266671 128 128 255 0.258806 -0.964786 -0.046983
0.319987 0.217586 0.266671 128 128 255 -0.733185 -0.393414 -0.554676
0.307403 0.238582 0.266671 128 128 255 -0.660281 0.749556 -0.046848
0.742735 0.627479 0.655570 128 128 255 -0.740912 0.662890 -0.107824
0.687938 0.687938 0.655570 128 128 255 -0.587413 -0.589306 -0.554676
0.627479 0.742735 0.655570 128 128 255 0.667123 -0.737055 -0.108156
0.238582 0.307403 0.266671 128 128 255 0.751195 -0.658406 -0.046983
0.217586 0.319987 0.266671 128 128 255 -0.391052 -0.734447 -0.554676
0.195457 0.330453 0.266671 128 128 255 -0.965434 0.256401 -0.046849
0.341363 0.895667 0.655570 128 128 255 -0.984328 0.139544 -0.107824
0.262212 0.915493 0.655570 128 128 255 -0.161015 -0.816339 -0.554676
0.181498 0.927466 0.655570 128 128 255 -0.080225 -0.828190 -0.554676
0.100000 0.931470 0.655570 128 128 255 0.983275 -0.146533 -0.108156
0.075551 0.348240 0.266671 128 128 255 0.998370 -0.032401 -0.046983
0.051336 0.344648 0.266671 128 128 255 0.163641 -0.815816 -0.554676
0.027591 0.338700 0.266671 128 128 255 -0.908950 -0.414264 -0.046849
-0.218190 0.868178 0.655570 128 128 255 -0.849422 -0.516582 -0.107824
-0.291952 0.833291 0.655570 128 128 255 0.393413 -0.733185 -0.554676
-0.361940 0.791342 0.655570 128 128 255 0.898973 0.424441 -0.108156
-0.058244 0.292820 0.266671 128 128 255 0.848115 0.527724 -0.046983
-0.076381 0.276381 0.266671 128 128 255 0.589306 -0.587412 -0.554676
-0.092820 0.258244 0.266671 128 128 255 -0.525612 -0.849434 -0.046849
-0.591342 0.561940 0.655570 128 128 255 -0.419271 -0.901436 -0.107824
-0.633291 0.491952 0.655570 128 128 255 0.734447 -0.391052 -0.554676
-0.668178 0.418190 0.655570 128 128 255 0.511662 0.852352 -0.108156
-0.138700 0.172409 0.266671 128 128 255 0.411994 0.909974 -0.046983
-0.144648 0.148664 0.266671 128 128 255 0.816338 -0.161015 -0.554676
-0.148240 0.124449 0.266671 128 128 255 0.828190 -0.080224 -0.554676
-0.149441 0.100000 0.266671 128 128 255 0.132572 -0.990066 -0.046849
-0.727466 0.018502 0.655570 128 128 255 0.247764 -0.962802 -0.107824
-0.715493 -0.062212 0.655570 128 128 255 0.815816 0.163641 -0.554676
-0.695667 -0.141363 0.655570 128 128 255 -0.145207 0.983472 -0.108156
-0.130453 0.004543 0.266671 128 128 255 -0.258806 0.964786 -0.046983
-0.119987 -0.017586 0.266671 128 128 255 0.733185 0.393413 -0.554676
-0.107403 -0.038582 0.266671 128 128 255 0.660281 -0.749556 -0.046849
-0.542735 -0.427479 0.655570 128 128 255 0.740912 -0.662890 -0.107824
-0.487938 -0.487938 0.655570 128 128 255 0.587412 0.589306 -0.554676
-0.427479 -0.542735 0.655570 128 128 255 -0.667123 0.737055 -0.108156
-0.038582 -0.107403 0.266671 128 128 255 -0.751195 0.658406 -0.046983
-0.017586 -0.119987 0.266671 128 128 255 0.391052 0.734447 -0.554676
0.004543 -0.130453 0.266671 128 128 255 0.965434 -0.256401 -0.046849
-0.141363 -0.695667 0.655570 128 128 255 0.984328 -0.139544 -0.107824
-0.062212 -0.715493 0.655570 128 128 255 0.161015 0.816339 -0.554676
0.018502 -0.727466 0.655570 128 128 255 0.080225 0.828190 -0.554676
0.100000 -0.731470 0.655570 128 128 255 -0.983275 0.146533 -0.108156
0.124449 -0.148240 0.266671 128 128 255 -0.998370 0.032401 -0.046983
0.148664 -0.144648 0.266671 128 128 255 -0.163641 0.815816 -0.554676
0.172409 -0.138700 0.266671 128 128 255 0.908950 0.414264 -0.046849
0.418190 -0.668178 0.655570 128 128 255 0.849422 0.516582 -0.107824
0.491952 -0.633291 0.655570 128 128 255 -0.393413 0.733185 -0.554676
0.561940 -0.591342 0.655570 128 128 255 -0.898973 -0.424441 -0.108156
0.258244 -0.092820 0.266671 128 128 255 -0.848116 -0.527724 -0.046983
0.276381 -0.076381 0.266671 128 128 255 -0.589305 0.587412 -0.554676
0.292820 -0.058244 0.266671 128 128 255 0.525611 0.849434 -0.046849
0.791342 -0.361940 0.655570 128 128 255 0.419271 0.901436 -0.107824
0.833291 -0.291952 0.655570 128 128 255 -0.734447 0.391052 -0.554676
0.868178 -0.218190 0.655570 128 128 255 -0.511662 -0.852352 -0.108156
0.338700 0.027591 0.266671 128 128 255 -0.411994 -0.909974 -0.046983
0.344648 0.051336 0.266671 128 128 255 -0.816338 0.161015 -0.554676
0.348240 0.075551 0.266671 128 128 255 -0.828190 0.080224 -0.554676
0.349441 0.100000 0.266671 128 128 255 -0.822038 0.040384 -0.568000
0.364576 0.100000 0.241419 128 128 255 -0.123791 0.991788 -0.032145
0.977675 0.186443 0.571397 128 128 255 -0.267118 0.958836 -0.096339
0.964975 0.272054 0.571397 128 128 255 -0.865150 -0.173247 -0.470639
0.943946 0.356008 0.571397 128 128 255 0.125228 -0.987303 -0.097731
0.344437 0.201249 0.241419 128 128 255 0.250297 -0.967236 -0.042490
0.333336 0.224720 0.241419 128 128 255 -0.777606 -0.416927 -0.470639
0.319987 0.246991 0.241419 128 128 255 -0.666856 0.744008 -0.041892
0.781734 0.659485 0.571397 128 128 255 -0.754802 0.648840 -0.096338
0.723612 0.723612 0.571397 128 128 255 -0.623095 -0.624701 -0.470638
0.659485 0.781734 0.571397 128 128 255 0.652639 -0.751339 -0.097731
0.246991 0.319987 0.241419 128 128 255 0.745482 -0.665170 -0.042490
0.224720 0.333336 0.241419 128 128 255 -0.414924 -0.778677 -0.470638
0.201249 0.344437 0.241419 128 128 255 -0.967819 0.248135 -0.041893
0.356008 0.943946 0.571397 128 128 255 -0.988071 0.120146 -0.096339
0.272054 0.964975 0.571397 128 128 255 -0.171019 -0.865593 -0.470638
0.186443 0.977675 0.571397 128 128 255 -0.085353 -0.878188 -0.470638
0.100000 0.981921 0.571397 128 128 255 0.981142 -0.166763 -0.097731
0.074067 0.363302 0.241419 128 128 255 0.998245 -0.041255 -0.042490
0.048384 0.359493 0.241419 128 128 255 0.173247 -0.865150 -0.470639
0.023198 0.353184 0.241419 128 128 255 -0.905550 -0.422167 -0.041893
-0.237497 0.914789 0.571397 128 128 255 -0.840009 -0.533952 -0.096338
-0.315735 0.877785 0.571397 128 128 255 0.416927 -0.777606 -0.470638
-0.389969 0.833291 0.571397 128 128 255 0.908438 0.406435 -0.097731
-0.067845 0.304520 0.241419 128 128 255 0.852930 0.520293 -0.042490
-0.087084 0.287084 0.241419 128 128 255 0.624701 -0.623095 -0.470639
-0.104520 0.267845 0.241419 128 128 255 -0.518393 -0.854115 -0.041892
-0.633291 0.589969 0.571397 128 128 255 -0.401794 -0.910648 -0.096338
-0.677785 0.515735 0.571397 128 128 255 0.778677 -0.414924 -0.470638
-0.714789 0.437497 0.571397 128 128 255 0.529535 0.842639 -0.097731
-0.153184 0.176802 0.241419 128 128 255 0.420126 0.906470 -0.042490
-0.159493 0.151616 0.241419 128 128 255 0.865593 -0.171019 -0.470639
-0.163302 0.125933 0.241419 128 128 255 0.878188 -0.085353 -0.470638
-0.164576 0.100000 0.241419 128 128 255 0.141121 -0.989106 -0.041893
-0.777675 0.013557 0.571397 128 128 255 0.267118 -0.958836 -0.096339
-0.764975 -0.072054 0.571397 128 128 255 0.865150 0.173247 -0.470638
-0.743946 -0.156008 0.571397 128 128 255 -0.125228 0.987303 -0.097731
-0.144437 -0.001249 0.241419 128 128 255 -0.250297 0.967236 -0.042490
-0.133336 -0.024720 0.241419 128 128 255 0.777606 0.416927 -0.470638
-0.119987 -0.046991 0.241419 128 128 255 0.666856 -0.744008 -0.041893
-0.581734 -0.459485 0.571397 128 128 255 0.754802 -0.648840 -0.096339
-0.523612 -0.523612 0.571397 128 128 255 0.623095 0.624701 -0.470638
-0.459485 -0.581734 0.571397 128 128 255 -0.652640 0.751339 -0.097731
-0.046991 -0.119987 0.241419 128 128 255 -0.745482 0.665170 -0.042490
-0.024720 -0.133336 0.241419 128 128 255 0.414924 0.778677 -0.470639
-0.001249 -0.144437 0.241419 128 128 255 0.967819 -0.248135 -0.041893
-0.156008 -0.743946 0.571397 128 128 255 0.988071 -0.120146 -0.096339
-0.072054 -0.764975 0.571397 128 128 255 0.171019 0.865593 -0.470638
0.013557 -0.777675 0.571397 128 128 255 0.085353 0.878188 -0.470638
0.100000 -0.781921 0.571397 128 128 255 -0.981142 0.166763 -0.097731
0.125933 -0.163302 0.241419 128 128 255 -0.998245 0.041255 -0.042490
0.151616 -0.159493 0.241419 128 128 255 -0.173247 0.865150 -0.470639
0.176802 -0.153184 0.241419 128 128 255 0.905550 0.422167 -0.041893
0.437497 -0.714789 0.571397 128 128 255 0.840009 0.533952 -0.096339
0.515735 -0.677785 0.571397 128 128 255 -0.416927 0.777606 -0.470639
0.589969 -0.633291 0.571397 128 128 255 -0.908438 -0.406435 -0.097731
0.267845 -0.104520 0.241419 128 128 255 -0.852930 -0.520293 -0.042490
0.287084 -0.087084 0.241419 128 128 255 -0.624701 0.623095 -0.470638
0.304520 -0.067845 0.241419 128 128 255 0.518394 0.854115 -0.041893
0.833291 -0.389969 0.571397 128 128 255 0.401794 0.910648 -0.096339
0.877785 -0.315735 0.571397 128 128 255 -0.778677 0.414924 -0.470638
0.914789 -0.237497 0.571397 128 128 255 -0.529535 -0.842639 -0.097731
0.353184 0.023198 0.241419 128 128 255 -0.420126 -0.906470 -0.042490
0.359493 0.048384 0.241419 128 128 255 -0.865593 0.171019 -0.470639
0.363302 0.074067 0.241419 128 128 255 -0.878188 0.085352 -0.470639
0.364576 0.100000 0.241419 128 128 255 -0.873588 0.042916 -0.484770
0.377164 0.100000 0.214805 128 128 255 -0.291030 0.890736 0.349129
1.019431 0.190556 0.482683 128 128 255 -0.431310 0.688001 0.583632
1.006127 0.280240 0.482683 128 128 255 -0.563165 -0.112238 0.818687
0.984098 0.368188 0.482683 128 128 255 -0.296156 -0.818311 0.492605
0.356066 0.206066 0.214805 128 128 255 0.384768 -0.627105 -0.677269
0.344437 0.230654 0.214805 128 128 255 0.197601 0.114764 -0.973541
0.330453 0.253984 0.214805 128 128 255 -0.484635 0.476434 -0.733580
0.814169 0.686103 0.482683 128 128 255 -0.740854 0.332429 0.583632
0.753281 0.753281 0.482683 128 128 255 -0.405898 -0.406201 0.818687
0.686103 0.814169 0.482683 128 128 255 0.208384 -0.844936 0.492605
0.253984 0.330453 0.214805 128 128 255 0.668324 -0.307653 -0.677269
0.230654 0.344437 0.214805 128 128 255 0.100540 0.205204 -0.973541
0.206066 0.356066 0.214805 128 128 255 -0.667652 0.126892 -0.733580
0.368188 0.984098 0.482683 128 128 255 -0.800685 -0.135192 0.583632
0.280240 1.006127 0.482683 128 128 255 -0.111819 -0.563248 0.818687
0.190556 1.019431 0.482683 128 128 255 -0.056072 -0.571496 0.818687
0.100000 1.023880 0.482683 128 128 255 0.697105 -0.520947 0.492605
0.072833 0.375829 0.214805 128 128 255 0.711794 0.186161 -0.677269
0.045928 0.371838 0.214805 128 128 255 -0.052462 0.222407 -0.973541
0.019544 0.365229 0.214805 128 128 255 -0.596601 -0.325465 -0.733580
-0.253553 0.953553 0.482683 128 128 255 -0.533173 -0.612454 0.583632
-0.335514 0.914789 0.482683 128 128 255 0.270884 -0.506334 0.818687
-0.413280 0.868178 0.482683 128 128 255 0.869044 -0.045860 0.492605
-0.075831 0.314251 0.214805 128 128 255 0.488410 0.550239 -0.677269
-0.095984 0.295984 0.214805 128 128 255 -0.167183 0.155778 -0.973541
-0.114251 0.275831 0.214805 128 128 255 -0.315237 -0.602068 -0.733580
-0.668178 0.613280 0.482683 128 128 255 -0.103056 -0.805452 0.583632
-0.714789 0.535514 0.482683 128 128 255 0.506536 -0.270506 0.818687
-0.753553 0.453553 0.482683 128 128 255 0.748062 0.444683 0.492605
-0.165229 0.180456 0.214805 128 128 255 0.100401 0.728853 -0.677269
-0.171838 0.154072 0.214805 128 128 255 -0.225554 0.036643 -0.973541
-0.175829 0.127167 0.214805 128 128 255 -0.228059 0.014358 -0.973541
-0.177164 0.100000 0.214805 128 128 255 0.138266 -0.665389 -0.733580
-0.819431 0.009444 0.482683 128 128 255 0.431310 -0.688001 0.583632
-0.806127 -0.080240 0.482683 128 128 255 0.563165 0.112239 0.818687
-0.784098 -0.168188 0.482683 128 128 255 0.296156 0.818311 0.492605
-0.156066 -0.006066 0.214805 128 128 255 -0.384768 0.627105 -0.677269
-0.144437 -0.030654 0.214805 128 128 255 -0.197601 -0.114764 -0.973541
-0.130453 -0.053984 0.214805 128 128 255 0.484635 -0.476434 -0.733580
-0.614169 -0.486103 0.482683 128 128 255 0.740854 -0.332429 0.583632
-0.553281 -0.553281 0.482683 128 128 255 0.405898 0.406201 0.818687
-0.486103 -0.614169 0.482683 128 128 255 -0.208384 0.844936 0.492605
-0.053984 -0.130453 0.214805 128 128 255 -0.668324 0.307653 -0.677269
-0.030654 -0.144437 0.214805 128 128 255 -0.100540 -0.205204 -0.973541
-0.006066 -0.156066 0.214805 128 128 255 0.667652 -0.126892 -0.733580
-0.168188 -0.784098 0.482683 128 128 255 0.800685 0.135192 0.583632
-0.080240 -0.806127 0.482683 128 128 255 0.111819 0.563248 0.818687
0.009444 -0.819431 0.482683 128 128 255 0.056073 0.571496 0.818687
0.100000 -0.823880 0.482683 128 128 255 -0.697105 0.520946 0.492605
0.127167 -0.175829 0.214805 128 128 255 -0.711794 -0.186161 -0.677269
0.154072 -0.171838 0.214805 128 128 255 0.052462 -0.222407 -0.973541
0.180456 -0.165229 0.214805 128 128 255 0.596601 0.325465 -0.733580
0.453553 -0.753553 0.482683 128 128 255 0.533173 0.612454 0.583632
0.535514 -0.714789 0.482683 128 128 255 -0.270884 0.506334 0.818687
0.613280 -0.668178 0.482683 128 128 255 -0.869044 0.045860 0.492605
0.275831 -0.114251 0.214805 128 128 255 -0.488410 -0.550239 -0.677269
0.295984 -0.095984 0.214805 128 128 255 0.167183 -0.155778 -0.973541
0.314251 -0.075831 0.214805 128 128 255 0.315237 0.602068 -0.733580
0.868178 -0.413280 0.482683 128 128 255 0.103056 0.805452 0.583632
0.914789 -0.335514 0.482683 128 128 255 -0.506536 0.270506 0.818687
0.953553 -0.253553 0.482683 128 128 255 -0.748062 -0.444683 0.492605
0.365229 0.019544 0.214805 128 128 255 -0.100401 -0.728853 -0.677269
0.371838 0.045928 0.214805 128 128 255 0.225554 -0.036643 -0.973541
0.375829 0.072833 0.214805 128 128 255 0.228059 -0.014358 -0.973541
0.377164 0.100000 0.214805 128 128 255 0.172637 -0.008481 -0.984949
0.387082 0.100000 0.187085 128 128 255 -0.960568 -0.047190 -0.274012
0.385700 0.128139 0.187085 128 128 255 -0.482240 0.416469 0.770713
0.381566 0.156007 0.187085 128 128 255 -0.436341 -0.074249 0.896712
0.374720 0.183336 0.187085 128 128 255 -0.537123 0.585164 0.607522
0.984098 0.466205 0.390285 128 128 255 -0.353341 0.605272 -0.713299
0.943946 0.551099 0.390285 128 128 255 0.063596 0.028930 -0.997556
0.895667 0.631648 0.390285 128 128 255 0.476058 -0.549659 -0.686472
0.321917 0.282123 0.187085 128 128 255 -0.018745 -0.875683 0.482522
0.302998 0.302998 0.187085 128 128 255 -0.321554 -0.304154 0.896712
0.282123 0.321917 0.187085 128 128 255 -0.771701 0.188137 0.607522
0.631648 0.895667 0.390285 128 128 255 -0.630063 0.306960 -0.713299
0.551099 0.943946 0.390285 128 128 255 0.036806 0.059387 -0.997556
0.466205 0.984098 0.390285 128 128 255 0.701202 -0.192542 -0.686472
0.183336 0.374720 0.187085 128 128 255 0.470917 -0.738519 0.482522
0.156007 0.381566 0.187085 128 128 255 -0.098383 -0.431541 0.896713
0.128139 0.385700 0.187085 128 128 255 -0.055611 -0.439106 0.896712
0.100000 0.387082 0.187085 128 128 255 -0.715885 -0.344130 0.607522
0.006203 1.052332 0.390285 128 128 255 -0.681779 -0.162425 -0.713299
-0.086690 1.038553 0.390285 128 128 255 -0.009223 0.069256 -0.997556
-0.177785 1.015735 0.390285 128 128 255 0.664184 0.296001 -0.686472
-0.009862 0.365229 0.187085 128 128 255 0.832535 -0.272136 0.482522
-0.035330 0.353184 0.187085 128 128 255 0.197715 -0.395999 0.896713
-0.059494 0.338700 0.187085 128 128 255 -0.404048 -0.683858 0.607522
-0.507077 0.839725 0.390285 128 128 255 -0.476640 -0.513827 -0.713299
-0.576659 0.776659 0.390285 128 128 255 -0.046145 0.052460 -0.997556
-0.639725 0.707077 0.390285 128 128 255 0.387799 0.615117 -0.686472
-0.138700 0.259494 0.187085 128 128 255 0.843418 0.236259 0.482522
-0.153184 0.235330 0.187085 128 128 255 0.384400 -0.219417 0.896713
-0.165229 0.209862 0.187085 128 128 255 0.043978 -0.793085 0.607522
-0.815735 0.377785 0.390285 128 128 255 -0.110844 -0.692039 -0.713299
-0.838553 0.286690 0.390285 128 128 255 -0.067514 0.017982 -0.997556
-0.852332 0.193797 0.390285 128 128 255 -0.068951 0.011278 -0.997556
-0.856940 0.100000 0.390285 128 128 255 -0.090453 0.721509 -0.686472
-0.185700 0.071861 0.187085 128 128 255 0.502090 0.717690 0.482522
-0.181566 0.043993 0.187085 128 128 255 0.436341 0.074249 0.896712
-0.174720 0.016664 0.187085 128 128 255 0.537123 -0.585164 0.607522
-0.784098 -0.266205 0.390285 128 128 255 0.353341 -0.605272 -0.713299
-0.743946 -0.351099 0.390285 128 128 255 -0.063596 -0.028930 -0.997556
-0.695667 -0.431648 0.390285 128 128 255 -0.476058 0.549659 -0.686472
-0.121917 -0.082123 0.187085 128 128 255 0.018746 0.875683 0.482522
-0.102998 -0.102998 0.187085 128 128 255 0.321554 0.304154 0.896713
-0.082123 -0.121917 0.187085 128 128 255 0.771701 -0.188136 0.607522
-0.431648 -0.695667 0.390285 128 128 255 0.630063 -0.306960 -0.713299
-0.351099 -0.743946 0.390285 128 128 255 -0.036806 -0.059387 -0.997556
-0.266205 -0.784098 0.390285 128 128 255 -0.701202 0.192542 -0.686472
0.016664 -0.174720 0.187085 128 128 255 -0.470917 0.738519 0.482522
0.043993 -0.181566 0.187085 128 128 255 0.098383 0.431541 0.896713
0.071861 -0.185700 0.187085 128 128 255 0.055611 0.439106 0.896713
0.100000 -0.187082 0.187085 128 128 255 0.715885 0.344130 0.607522
0.193797 -0.852332 0.390285 128 128 255 0.681779 0.162425 -0.713299
0.286690 -0.838553 0.390285 128 128 255 0.009223 -0.069256 -0.997556
0.377785 -0.815735 0.390285 128 128 255 -0.664184 -0.296001 -0.686472
0.209862 -0.165229 0.187085 128 128 255 -0.832535 0.272136 0.482522
0.235330 -0.153184 0.187085 128 128 255 -0.197715 0.395999 0.896713
0.259494 -0.138700 0.187085 128 128 255 0.404048 0.683858 0.607522
0.707077 -0.639725 0.390285 128 128 255 0.476640 0.513827 -0.713299
0.776659 -0.576659 0.390285 128 128 255 0.046145 -0.052460 -0.997556
0.839725 -0.507077 0.390285 128 128 255 -0.387799 -0.615117 -0.686472
0.338700 -0.059494 0.187085 128 128 255 -0.843418 -0.236259 0.482522
0.353184 -0.035330 0.187085 128 128 255 -0.384400 0.219417 0.896713
0.365229 -0.009862 0.187085 128 128 255 -0.043978 0.793085 0.607522
1.015735 -0.177785 0.390285 128 128 255 0.110844 0.692039 -0.713299
1.038553 -0.086690 0.390285 128 128 255 0.067514 -0.017982 -0.997556
1.052332 0.006203 0.390285 128 128 255 0.068951 -0.011278 -0.997556
1.056940 0.100000 0.390285 128 128 255 0.144073 -0.007078 -0.989542
0.394236 0.100000 0.158527 128 128 255 -0.982729 -0.048279 -0.178640
0.392819 0.128840 0.158527 128 128 255 -0.976078 -0.096608 -0.194777
0.388582 0.157403 0.158527 128 128 255 -0.961909 -0.191815 -0.194776
0.381566 0.185412 0.158527 128 128 255 -0.438655 0.898463 -0.018597
1.006127 0.475330 0.295090 128 128 255 -0.570113 0.820456 -0.042694
0.964975 0.562339 0.295090 128 128 255 -0.864809 -0.462783 -0.194777
0.915493 0.644895 0.295090 128 128 255 0.367571 -0.928841 -0.046327
0.327447 0.286661 0.158527 128 128 255 0.504213 -0.863343 -0.020178
0.308056 0.308056 0.158527 128 128 255 -0.693232 -0.693896 -0.194776
0.286661 0.327447 0.158527 128 128 255 -0.863888 0.503341 -0.018597
0.644895 0.915493 0.295090 128 128 255 -0.929853 0.365447 -0.042694
0.562339 0.964975 0.295090 128 128 255 -0.461954 -0.865252 -0.194776
0.475330 1.006127 0.295090 128 128 255 0.821660 -0.568092 -0.046327
0.185412 0.381566 0.158527 128 128 255 0.898886 -0.437718 -0.020178
0.157403 0.388582 0.158527 128 128 255 -0.190893 -0.962093 -0.194777
0.128840 0.392819 0.158527 128 128 255 -0.095672 -0.976171 -0.194777
0.100000 0.394236 0.158527 128 128 255 -0.987110 -0.158957 -0.018597
0.003866 1.076063 0.295090 128 128 255 -0.950623 -0.307398 -0.042694
-0.091342 1.061940 0.295090 128 128 255 0.191815 -0.961909 -0.194777
-0.184707 1.038553 0.295090 128 128 255 0.995546 0.082115 -0.046327
-0.012599 0.371838 0.158527 128 128 255 0.972534 0.231886 -0.020178
-0.038702 0.359493 0.158527 128 128 255 0.462783 -0.864809 -0.194777
-0.063469 0.344648 0.158527 128 128 255 -0.732441 -0.680577 -0.018597
-0.522204 0.858157 0.295090 128 128 255 -0.619633 -0.783730 -0.042694
-0.593520 0.793520 0.295090 128 128 255 0.693896 -0.693232 -0.194777
-0.658157 0.722204 0.295090 128 128 255 0.782145 0.621372 -0.046327
-0.144648 0.263469 0.158527 128 128 255 0.679803 0.733117 -0.020178
-0.159493 0.238702 0.158527 128 128 255 0.865252 -0.461954 -0.194777
-0.171838 0.212599 0.158527 128 128 255 -0.230894 -0.972801 -0.018597
-0.838553 0.384707 0.295090 128 128 255 -0.079789 -0.995897 -0.042694
-0.861940 0.291342 0.295090 128 128 255 0.962093 -0.190893 -0.194777
-0.876063 0.196134 0.295090 128 128 255 0.976171 -0.095672 -0.194777
-0.880785 0.100000 0.295090 128 128 255 0.210412 0.976514 -0.046327
-0.192819 0.071160 0.158527 128 128 255 0.060410 0.997970 -0.020178
-0.188582 0.042597 0.158527 128 128 255 0.961909 0.191815 -0.194777
-0.181566 0.014588 0.158527 128 128 255 0.438655 -0.898463 -0.018597
-0.806127 -0.275330 0.295090 128 128 255 0.570113 -0.820456 -0.042694
-0.764975 -0.362339 0.295090 128 128 255 0.864809 0.462783 -0.194777
-0.715493 -0.444895 0.295090 128 128 255 -0.367571 0.928841 -0.046327
-0.127447 -0.086661 0.158527 128 128 255 -0.504213 0.863344 -0.020178
-0.108056 -0.108056 0.158527 128 128 255 0.693232 0.693896 -0.194777
-0.086661 -0.127447 0.158527 128 128 255 0.863888 -0.503341 -0.018597
-0.444895 -0.715493 0.295090 128 128 255 0.929853 -0.365447 -0.042694
-0.362339 -0.764975 0.295090 128 128 255 0.461954 0.865252 -0.194777
-0.275330 -0.806127 0.295090 128 128 255 -0.821660 0.568092 -0.046327
0.014588 -0.181566 0.158527 128 128 255 -0.898886 0.437718 -0.020178
0.042597 -0.188582 0.158527 128 128 255 0.190893 0.962093 -0.194777
0.071160 -0.192819 0.158527 128 128 255 0.095672 0.976171 -0.194777
0.100000 -0.194236 0.158527 128 128 255 0.987110 0.158957 -0.018597
0.196134 -0.876063 0.295090 128 128 255 0.950623 0.307398 -0.042694
0.291342 -0.861940 0.295090 128 128 255 -0.191815 0.961909 -0.194776
0.384707 -0.838553 0.295090 128 128 255 -0.995546 -0.082115 -0.046327
0.212599 -0.171838 0.158527 128 128 255 -0.972534 -0.231886 -0.020178
0.238702 -0.159493 0.158527 128 128 255 -0.462783 0.864809 -0.194777
0.263469 -0.144648 0.158527 128 128 255 0.732441 0.680577 -0.018597
0.722204 -0.658157 0.295090 128 128 255 0.619633 0.783730 -0.042694
0.793520 -0.593520 0.295090 128 128 255 -0.693896 0.693232 -0.194777
0.858157 -0.522204 0.295090 128 128 255 -0.782145 -0.621372 -0.046327
0.344648 -0.063469 0.158527 128 128 255 -0.679803 -0.733117 -0.020177
0.359493 -0.038702 0.158527 128 128 255 -0.865252 0.461954 -0.194777
0.371838 -0.012599 0.158527 128 128 255 0.230894 0.972801 -0.018597
1.038553 -0.184707 0.295090 128 128 255 0.079789 0.995897 -0.042694
1.061940 -0.091342 0.295090 128 128 255 -0.962093 0.190893 -0.194777
1.076063 0.003866 0.295090 128 128 255 -0.976171 0.095672 -0.194776
1.080785 0.100000 0.295090 128 128 255 -0.976391 0.047967 -0.210619
0.398555 0.100000 0.129405 128 128 255 -0.995468 -0.048904 -0.081559
0.397118 0.129264 0.129405 128 128 255 -0.990385 -0.097782 -0.097860
0.392819 0.158245 0.129405 128 128 255 -0.976032 -0.194386 -0.097860
0.385700 0.186666 0.129405 128 128 255 -0.441053 0.897436 -0.009015
1.019431 0.480841 0.198017 128 128 255 -0.575367 0.817634 -0.020691
0.977675 0.569127 0.198017 128 128 255 -0.877577 -0.469342 -0.097859
0.927466 0.652895 0.198017 128 128 255 0.361262 -0.932138 -0.024668
0.330786 0.289402 0.129405 128 128 255 0.501599 -0.865034 -0.010747
0.311111 0.311111 0.129405 128 128 255 -0.703546 -0.703880 -0.097860
0.289402 0.330786 0.129405 128 128 255 -0.865311 0.501154 -0.009015
0.652895 0.927466 0.198017 128 128 255 -0.932653 0.360181 -0.020691
0.569127 0.977675 0.198017 128 128 255 -0.468926 -0.877800 -0.097859
0.480841 1.019431 0.198017 128 128 255 0.818247 -0.574338 -0.024668
0.186666 0.385700 0.129405 128 128 255 0.897651 -0.440576 -0.010747
0.158245 0.392819 0.129405 128 128 255 -0.193922 -0.976124 -0.097860
0.129264 0.397118 0.129405 128 128 255 -0.097312 -0.990431 -0.097860
0.100000 0.398555 0.129405 128 128 255 -0.986823 -0.161550 -0.009015
0.002455 1.090393 0.198017 128 128 255 -0.949447 -0.313245 -0.020691
-0.094151 1.076063 0.198017 128 128 255 0.194386 -0.976032 -0.097860
-0.188887 1.052332 0.198017 128 128 255 0.996869 0.075121 -0.024668
-0.014252 0.375829 0.129405 128 128 255 0.973392 0.228894 -0.010747
-0.040738 0.363302 0.129405 128 128 255 0.469343 -0.877577 -0.097859
-0.065869 0.348240 0.129405 128 128 255 -0.730761 -0.682574 -0.009015
-0.531339 0.869288 0.198017 128 128 255 -0.615406 -0.787938 -0.020691
-0.603702 0.803702 0.198017 128 128 255 0.703880 -0.703546 -0.097860
-0.669288 0.731339 0.198017 128 128 255 0.787131 0.616292 -0.024668
-0.148240 0.265869 0.129405 128 128 255 0.682179 0.731106 -0.010748
-0.163302 0.240738 0.129405 128 128 255 0.877800 -0.468926 -0.097860
-0.175829 0.214252 0.129405 128 128 255 -0.228388 -0.973528 -0.009015
-0.852332 0.388887 0.198017 128 128 255 -0.073936 -0.997048 -0.020691
-0.876063 0.294151 0.198017 128 128 255 0.976124 -0.193922 -0.097859
-0.890393 0.197545 0.198017 128 128 255 0.990431 -0.097312 -0.097860
-0.895185 0.100000 0.198017 128 128 255 0.217489 0.975751 -0.024668
-0.197118 0.070736 0.129405 128 128 255 0.063523 0.997923 -0.010747
-0.192819 0.041755 0.129405 128 128 255 0.976032 0.194386 -0.097860
-0.185700 0.013334 0.129405 128 128 255 0.441053 -0.897436 -0.009015
-0.819431 -0.280841 0.198017 128 128 255 0.575367 -0.817634 -0.020691
-0.777675 -0.369127 0.198017 128 128 255 0.877577 0.469342 -0.097860
-0.727466 -0.452895 0.198017 128 128 255 -0.361262 0.932138 -0.024668
-0.130786 -0.089402 0.129405 128 128 255 -0.501599 0.865034 -0.010747
-0.111111 -0.111111 0.129405 128 128 255 0.703546 0.703880 -0.097860
-0.089402 -0.130786 0.129405 128 128 255 0.865311 -0.501154 -0.009015
-0.452895 -0.727466 0.198017 128 128 255 0.932653 -0.360181 -0.020691
-0.369127 -0.777675 0.198017 128 128 255 0.468926 0.877800 -0.097860
-0.280841 -0.819431 0.198017 128 128 255 -0.818247 0.574338 -0.024668
0.013334 -0.185700 0.129405 128 128 255 -0.897651 0.440576 -0.010748
0.041755 -0.192819 0.129405 128 128 255 0.193922 0.976124 -0.097860
0.070736 -0.197118 0.129405 128 128 255 0.097312 0.990431 -0.097860
0.100000 -0.198555 0.129405 128 128 255 0.986823 0.161550 -0.009015
0.197545 -0.890393 0.198017 128 128 255 0.949447 0.313246 -0.020691
0.294151 -0.876063 0.198017 128 128 255 -0.194386 0.976032 -0.097860
0.388887 -0.852332 0.198017 128 128 255 -0.996869 -0.075121 -0.024668
0.214252 -0.175829 0.129405 128 128 255 -0.973392 -0.228894 -0.010747
0.240738 -0.163302 0.129405 128 128 255 -0.469342 0.877577 -0.097860
0.265869 -0.148240 0.129405 128 128 255 0.730761 0.682574 -0.009015
0.731339 -0.669288 0.198017 128 128 255 0.615406 0.787938 -0.020691
0.803702 -0.603702 0.198017 128 128 255 -0.703880 0.703546 -0.097860
0.869288 -0.531339 0.198017 128 128 255 -0.787131 -0.616292 -0.024668
0.348240 -0.065869 0.129405 128 128 255 -0.682179 -0.731106 -0.010747
0.363302 -0.040738 0.129405 128 128 255 -0.877799 0.468926 -0.097859
0.375829 -0.014252 0.129405 128 128 255 0.228388 0.973528 -0.009015
1.052332 -0.188887 0.198017 128 128 255 0.073936 0.997048 -0.020691
1.076063 -0.094151 0.198017 128 128 255 -0.976124 0.193922 -0.097860
1.090393 0.002455 0.198017 128 128 255 -0.990431 0.097312 -0.097860
1.095185 0.100000 0.198017 128 128 255 -0.992283 0.048748 -0.114005
0.400000 0.100000 0.100000 128 128 255 -0.224530 0.687609 -0.690493
0.398555 0.129405 0.100000 128 128 255 -0.161278 -0.019779 -0.986711
0.394236 0.158527 0.100000 128 128 255 -0.158563 -0.035492 -0.986711
0.387082 0.187085 0.100000 128 128 255 -0.585903 0.493766 -0.642583
1.023880 0.482683 0.100000 128 128 255 -0.375638 0.605347 0.701749
0.981921 0.571397 0.100000 128 128 255 -0.195689 -0.101580 0.975391
0.931470 0.655570 0.100000 128 128 255 0.121335 -0.729064 0.673605
0.331903 0.290318 0.100000 128 128 255 0.322279 -0.640749 -0.696833
0.312132 0.312132 0.100000 128 128 255 -0.112122 -0.117603 -0.986711
0.290318 0.331903 0.100000 128 128 255 -0.761482 0.085040 -0.642583
0.655570 0.931470 0.100000 128 128 255 -0.648644 0.294634 0.701749
0.571397 0.981921 0.100000 128 128 255 -0.106275 -0.193179 0.975391
0.482683 1.023880 0.100000 128 128 255 0.505933 -0.538784 0.673605
0.187085 0.387082 0.100000 128 128 255 0.623946 -0.353715 -0.696833
0.158527 0.394236 0.100000 128 128 255 -0.027889 -0.160075 -0.986711
0.129405 0.398555 0.100000 128 128 255 -0.012065 -0.162038 -0.986711
0.100000 0.400000 0.100000 128 128 255 -0.642583 -0.417342 -0.642583
0.001983 1.095185 0.100000 128 128 255 -0.688322 -0.183740 0.701749
-0.095090 1.080785 0.100000 128 128 255 0.040400 -0.216750 0.975391
-0.190285 1.056940 0.100000 128 128 255 0.732893 -0.095525 0.673605
-0.014805 0.377164 0.100000 128 128 255 0.706711 0.122402 -0.696833
-0.041419 0.364576 0.100000 128 128 255 0.079992 -0.141433 -0.986711
-0.066671 0.349441 0.100000 128 128 255 -0.302425 -0.704007 -0.642583
-0.534393 0.873010 0.100000 128 128 255 -0.470239 -0.535186 0.701749
-0.607107 0.807107 0.100000 128 128 255 0.154011 -0.157776 0.975391
-0.673010 0.734393 0.100000 128 128 255 0.662449 0.327747 0.673605
-0.149441 0.266671 0.100000 128 128 255 0.519606 0.494401 -0.696833
-0.164576 0.241419 0.100000 128 128 255 0.145086 -0.073156 -0.986711
-0.177164 0.214805 0.100000 128 128 255 0.139668 -0.753379 -0.642583
-0.856940 0.390285 0.100000 128 128 255 -0.093656 -0.706241 0.701749
-0.880785 0.295090 0.100000 128 128 255 0.215711 -0.045622 0.975391
-0.895185 0.198017 0.100000 128 128 255 0.219144 -0.024259 0.975391
-0.900000 0.100000 0.100000 128 128 255 0.304160 0.673605 0.673605
-0.198555 0.070595 0.100000 128 128 255 0.088016 0.711812 -0.696833
-0.194236 0.041473 0.100000 128 128 255 0.158563 0.035492 -0.986711
-0.187082 0.012915 0.100000 128 128 255 0.585903 -0.493766 -0.642583
-0.823880 -0.282683 0.100000 128 128 255 0.375638 -0.605346 0.701749
-0.781921 -0.371397 0.100000 128 128 255 0.195689 0.101580 0.975391
-0.731470 -0.455570 0.100000 128 128 255 -0.121335 0.729064 0.673605
-0.131903 -0.090318 0.100000 128 128 255 -0.322279 0.640749 -0.696833
-0.112132 -0.112132 0.100000 128 128 255 0.112122 0.117603 -0.986711
-0.090318 -0.131903 0.100000 128 128 255 0.761482 -0.085040 -0.642583
-0.455570 -0.731470 0.100000 128 128 255 0.648644 -0.294634 0.701749
-0.371397 -0.781921 0.100000 128 128 255 0.106275 0.193179 0.975391
-0.282683 -0.823880 0.100000 128 128 255 -0.505933 0.538784 0.673605
0.012915 -0.187082 0.100000 128 128 255 -0.623946 0.353715 -0.696833
0.041473 -0.194236 0.100000 128 128 255 0.027889 0.160075 -0.986711
0.070595 -0.198555 0.100000 128 128 255 0.012065 0.162038 -0.986711
0.100000 -0.200000 0.100000 128 128 255 0.642583 0.417342 -0.642583
0.198017 -0.895185 0.100000 128 128 255 0.688322 0.183740 0.701749
0.295090 -0.880785 0.100000 128 128 255 -0.040400 0.216750 0.975391
0.390285 -0.856940 0.100000 128 128 255 -0.732893 0.095525 0.673605
0.214805 -0.177164 0.100000 128 128 255 -0.706711 -0.122402 -0.696833
0.241419 -0.164576 0.100000 128 128 255 -0.079992 0.141433 -0.986711
0.266671 -0.149441 0.100000 128 128 255 0.302425 0.704007 -0.642583
0.734393 -0.673010 0.100000 128 128 255 0.470239 0.535186 0.701749
0.807107 -0.607107 0.100000 128 128 255 -0.154011 0.157776 0.975391
0.873010 -0.534393 0.100000 128 128 255 -0.662449 -0.327747 0.673605
0.349441 -0.066671 0.100000 128 128 255 -0.519606 -0.494401 -0.696833
0.364576 -0.041419 0.100000 128 128 255 -0.145086 0.073156 -0.986711
0.377164 -0.014805 0.100000 128 128 255 -0.139668 0.753379 -0.642583
1.056940 -0.190285 0.100000 128 128 255 0.093656 0.706241 0.701749
1.080785 -0.095090 0.100000 128 128 255 -0.215711 0.045622 0.975391
1.095185 0.001983 0.100000 128 128 255 -0.219144 0.024259 0.975391
1.100000 0.100000 0.100000 128 128 255 -0.309200 0.015190 0.950876
0.398555 0.100000 0.070595 128 128 255 -0.138370 0.990341 0.008879
1.090393 0.197545 0.001983 128 128 255 -0.341077 0.662240 -0.667161
1.076063 0.294151 0.001983 128 128 255 -0.307835 -0.063251 -0.949335
1.052332 0.388887 0.001983 128 128 255 0.028831 -0.726588 -0.686468
0.375829 0.214252 0.070595 128 128 255 -0.080184 -0.728572 0.680260
0.363302 0.240738 0.070595 128 128 255 -0.057517 -0.029713 0.997902
0.348240 0.265869 0.070595 128 128 255 -0.463102 0.533955 0.707410
0.869288 0.731339 0.001983 128 128 255 -0.711998 0.287325 -0.640705
0.803702 0.803702 0.001983 128 128 255 -0.220814 -0.223615 -0.949335
0.731339 0.869288 0.001983 128 128 255 0.427643 -0.588118 -0.686468
0.265869 0.348240 0.070595 128 128 255 0.338102 -0.650333 0.680260
0.240738 0.363302 0.070595 128 128 255 -0.031316 -0.056661 0.997902
0.214252 0.375829 0.070595 128 128 255 -0.681705 0.186681 0.707410
0.388887 1.052332 0.001983 128 128 255 -0.751634 -0.156663 -0.640705
0.294151 1.076063 0.001983 128 128 255 -0.059366 -0.308607 -0.949335
0.197545 1.090393 0.001983 128 128 255 -0.028832 -0.312940 -0.949335
0.100000 1.095185 0.001983 128 128 255 0.703671 -0.183328 -0.686468
0.070736 0.397118 0.070595 128 128 255 0.673923 -0.288224 0.680260
0.041755 0.392819 0.070595 128 128 255 0.011737 -0.063666 0.997902
0.013334 0.385700 0.070595 128 128 255 -0.645394 -0.288162 0.707410
-0.280841 1.019431 0.001983 128 128 255 -0.481635 -0.597934 -0.640705
-0.369127 0.977675 0.001983 128 128 255 0.149888 -0.276218 -0.949335
-0.452895 0.927466 0.001983 128 128 255 0.686933 0.238507 -0.686468
-0.089402 0.330786 0.070595 128 128 255 0.720476 0.134762 0.680260
-0.111111 0.311111 0.070595 128 128 255 0.045130 -0.046415 0.997902
-0.130786 0.289402 0.070595 128 128 255 -0.376531 -0.598160 0.707410
-0.727466 0.652895 0.001983 128 128 255 -0.068271 -0.764746 -0.640705
-0.777675 0.569127 0.001983 128 128 255 0.278086 -0.146394 -0.949335
-0.819431 0.480841 0.001983 128 128 255 0.438656 0.579951 -0.686468
-0.185700 0.186666 0.070595 128 128 255 0.524184 0.512325 0.680260
-0.192819 0.158245 0.070595 128 128 255 0.063311 -0.013520 0.997902
-0.197118 0.129264 0.070595 128 128 255 0.064332 -0.007249 0.997902
-0.198555 0.100000 0.070595 128 128 255 0.088406 -0.701253 0.707410
-0.890393 0.002455 0.001983 128 128 255 0.432376 -0.634467 -0.640705
-0.876063 -0.094151 0.001983 128 128 255 0.307835 0.063252 -0.949335
-0.852332 -0.188887 0.001983 128 128 255 -0.028831 0.726588 -0.686468
-0.175829 -0.014252 0.070595 128 128 255 0.080184 0.728572 0.680260
-0.163302 -0.040738 0.070595 128 128 255 0.057517 0.029713 0.997902
-0.148240 -0.065869 0.070595 128 128 255 0.463102 -0.533955 0.707410
-0.669288 -0.531339 0.001983 128 128 255 0.711998 -0.287325 -0.640705
-0.603702 -0.603702 0.001983 128 128 255 0.220814 0.223615 -0.949335
-0.531339 -0.669288 0.001983 128 128 255 -0.427643 0.588118 -0.686468
-0.065869 -0.148240 0.070595 128 128 255 -0.338102 0.650333 0.680260
-0.040738 -0.163302 0.070595 128 128 255 0.031316 0.056661 0.997902
-0.014252 -0.175829 0.070595 128 128 255 0.681705 -0.186681 0.707410
-0.188887 -0.852332 0.001983 128 128 255 0.751634 0.156663 -0.640705
-0.094151 -0.876063 0.001983 128 128 255 0.059366 0.308607 -0.949335
0.002455 -0.890393 0.001983 128 128 255 0.028832 0.312940 -0.949335
0.100000 -0.895185 0.001983 128 128 255 -0.703671 0.183328 -0.686468
0.129264 -0.197118 0.070595 128 128 255 -0.673924 0.288224 0.680260
0.158245 -0.192819 0.070595 128 128 255 -0.011737 0.063666 0.997902
0.186666 -0.185700 0.070595 128 128 255 0.645394 0.288162 0.707410
0.480841 -0.819431 0.001983 128 128 255 0.481635 0.597934 -0.640705
0.569127 -0.777675 0.001983 128 128 255 -0.149888 0.276218 -0.949335
0.652895 -0.727466 0.001983 128 128 255 -0.686932 -0.238507 -0.686468
0.289402 -0.130786 0.070595 128 128 255 -0.720476 -0.134762 0.680260
0.311111 -0.111111 0.070595 128 128 255 -0.045130 0.046415 0.997902
0.330786 -0.089402 0.070595 128 128 255 0.376531 0.598160 0.707410
0.927466 -0.452895 0.001983 128 128 255 0.068271 0.764746 -0.640705
0.977675 -0.369127 0.001983 128 128 255 -0.278086 0.146394 -0.949335
1.019431 -0.280841 0.001983 128 128 255 -0.438656 -0.579951 -0.686468
0.385700 0.013334 0.070595 128 128 255 -0.524184 -0.512325 0.680260
0.392819 0.041755 0.070595 128 128 255 -0.063311 0.013520 0.997902
0.397118 0.070736 0.070595 128 128 255 -0.064332 0.007249 0.997902
0.398555 0.100000 0.070595 128 128 255 -0.051326 0.002521 0.998679
0.394236 0.100000 0.041473 128 128 255 -0.135801 0.990605 0.016115
1.076063 0.196134 -0.095090 128 128 255 -0.305114 0.951188 0.046327
1.061940 0.291342 -0.095090 128 128 255 -0.962093 -0.190893 0.194777
1.038553 0.384707 -0.095090 128 128 255 0.079789 -0.995897 0.042694
0.371838 0.212599 0.041473 128 128 255 0.230894 -0.972801 0.018597
0.359493 0.238702 0.041473 128 128 255 -0.865252 -0.461954 0.194777
0.344648 0.263469 0.041473 128 128 255 -0.679803 0.733117 0.020178
0.858157 0.722204 -0.095090 128 128 255 -0.782145 0.621372 0.046327
0.793520 0.793520 -0.095090 128 128 255 -0.693896 -0.693231 0.194777
0.722204 0.858157 -0.095090 128 128 255 0.619633 -0.783730 0.042694
0.263469 0.344648 0.041473 128 128 255 0.732441 -0.680577 0.018597
0.238702 0.359493 0.041473 128 128 255 -0.462783 -0.864809 0.194777
0.212599 0.371838 0.041473 128 128 255 -0.972534 0.231886 0.020178
0.384707 1.038553 -0.095090 128 128 255 -0.995546 0.082115 0.046327
0.291342 1.061940 -0.095090 128 128 255 -0.191815 -0.961909 0.194777
0.196134 1.076063 -0.095090 128 128 255 -0.096608 -0.976078 0.194777
0.100000 1.080785 -0.095090 128 128 255 0.976176 -0.212740 0.042694
0.071160 0.392819 0.041473 128 128 255 0.997938 -0.061438 0.018597
0.042597 0.388582 0.041473 128 128 255 0.190893 -0.962093 0.194777
0.014588 0.381566 0.041473 128 128 255 -0.898886 -0.437718 0.020178
-0.275330 1.006127 -0.095090 128 128 255 -0.821660 -0.568092 0.046327
-0.362339 0.964975 -0.095090 128 128 255 0.461954 -0.865252 0.194776
-0.444895 0.915493 -0.095090 128 128 255 0.929853 0.365447 0.042694
-0.086661 0.327447 0.041473 128 128 255 0.863888 0.503341 0.018597
-0.108056 0.308056 0.041473 128 128 255 0.693231 -0.693896 0.194777
-0.127447 0.286661 0.041473 128 128 255 -0.504213 -0.863343 0.020178
-0.715493 0.644895 -0.095090 128 128 255 -0.367571 -0.928841 0.046327
-0.764975 0.562339 -0.095090 128 128 255 0.864809 -0.462783 0.194777
-0.806127 0.475330 -0.095090 128 128 255 0.570113 0.820456 0.042694
-0.181566 0.185412 0.041473 128 128 255 0.438655 0.898463 0.018597
-0.188582 0.157403 0.041473 128 128 255 0.961909 -0.191815 0.194777
-0.192819 0.128840 0.041473 128 128 255 0.976078 -0.096608 0.194777
-0.194236 0.100000 0.041473 128 128 255 0.157937 -0.987243 0.020178
-0.876063 0.003866 -0.095090 128 128 255 0.305114 -0.951188 0.046327
-0.861940 -0.091342 -0.095090 128 128 255 0.962093 0.190893 0.194777
-0.838553 -0.184707 -0.095090 128 128 255 -0.079789 0.995897 0.042694
-0.171838 -0.012599 0.041473 128 128 255 -0.230894 0.972801 0.018597
-0.159493 -0.038702 0.041473 128 128 255 0.865252 0.461954 0.194777
-0.144648 -0.063469 0.041473 128 128 255 0.679803 -0.733117 0.020178
-0.658157 -0.522204 -0.095090 128 128 255 0.782145 -0.621372 0.046327
-0.593520 -0.593520 -0.095090 128 128 255 0.693896 0.693232 0.194777
-0.522204 -0.658157 -0.095090 128 128 255 -0.619633 0.783730 0.042694
-0.063469 -0.144648 0.041473 128 128 255 -0.732441 0.680577 0.018597
-0.038702 -0.159493 0.041473 128 128 255 0.462783 0.864809 0.194777
-0.012599 -0.171838 0.041473 128 128 255 0.972534 -0.231886 0.020178
-0.184707 -0.838553 -0.095090 128 128 255 0.995546 -0.082115 0.046327
-0.091342 -0.861940 -0.095090 128 128 255 0.191815 0.961909 0.194776
0.003866 -0.876063 -0.095090 128 128 255 0.096608 0.976078 0.194777
0.100000 -0.880785 -0.095090 128 128 255 -0.976176 0.212740 0.042694
0.128840 -0.192819 0.041473 128 128 255 -0.997938 0.061438 0.018597
0.157403 -0.188582 0.041473 128 128 255 -0.190893 0.962092 0.194777
0.185412 -0.181566 0.041473 128 128 255 0.898886 0.437718 0.020178
0.475330 -0.806127 -0.095090 128 128 255 0.821660 0.568092 0.046327
0.562339 -0.764975 -0.095090 128 128 255 -0.461954 0.865252 0.194777
0.644895 -0.715493 -0.095090 128 128 255 -0.929853 -0.365447 0.042694
0.286661 -0.127447 0.041473 128 128 255 -0.863888 -0.503341 0.018597
0.308056 -0.108056 0.041473 128 128 255 -0.693232 0.693896 0.194777
0.327447 -0.086661 0.041473 128 128 255 0.504213 0.863343 0.020178
0.915493 -0.444895 -0.095090 128 128 255 0.367571 0.928841 0.046327
0.964975 -0.362339 -0.095090 128 128 255 -0.864809 0.462783 0.194777
1.006127 -0.275330 -0.095090 128 128 255 -0.570113 -0.820456 0.042694
0.381566 0.014588 0.041473 128 128 255 -0.438655 -0.898463 0.018597
0.388582 0.042597 0.041473 128 128 255 -0.961909 0.191815 0.194777
0.392819 0.071160 0.041473 128 128 255 -0.976078 0.096608 0.194777
0.394236 0.100000 0.041473 128 128 255 -0.982729 0.048279 0.178640
0.387082 0.100000 0.012915 128 128 255 -0.131878 0.991006 0.022711
1.052332 0.193797 -0.190285 128 128 255 -0.294176 0.953455 0.066210
1.038553 0.286690 -0.190285 128 128 255 -0.938828 -0.186032 0.289818
1.015735 0.377785 -0.190285 128 128 255 0.089706 -0.993965 0.063137
0.365229 0.209862 0.012915 128 128 255 0.235136 -0.971574 0.027490
0.353184 0.235330 0.012915 128 128 255 -0.844400 -0.450548 0.289818
0.338700 0.259494 0.012915 128 128 255 -0.676075 0.736269 0.028825
0.839725 0.707077 -0.190285 128 128 255 -0.774310 0.629333 0.066210
0.776659 0.776659 -0.190285 128 128 255 -0.677253 -0.676264 0.289818
