ply
format ascii 1.0
element vertex 700
property float x
property float y
property float z
property uchar red
property uchar green
property uchar blue
property float nx
property float ny
property float nz
end_header
0.534729 0.055664 0.546851 128 128 255 -0.627423 0.261023 -0.733627
0.537400 0.062759 0.546878 128 128 255 -0.643617 0.218485 -0.733499
0.539601 0.070014 0.546894 128 128 255 -0.656935 0.174945 -0.733370
0.541323 0.077397 0.546899 128 128 255 -0.667313 0.130595 -0.733239
0.542558 0.084878 0.546894 128 128 255 -0.674700 0.085645 -0.733106
0.543302 0.092423 0.546878 128 128 255 -0.679064 0.040293 -0.732972
0.543550 0.100000 0.546851 128 128 255 -0.654930 0.018870 -0.755454
0.563926 0.100000 0.524094 128 128 255 -0.076885 0.002653 0.997036
0.563634 0.108910 0.524049 128 128 255 -0.103138 -0.001074 0.994666
0.562760 0.117782 0.523994 128 128 255 -0.107100 -0.007295 0.994221
0.561307 0.126578 0.523929 128 128 255 -0.111547 -0.014250 0.993657
0.559283 0.135260 0.523854 128 128 255 -0.116616 -0.022149 0.992930
0.556694 0.143791 0.523770 128 128 255 -0.122499 -0.031288 0.991975
0.553553 0.152134 0.523677 128 128 255 -0.129471 -0.042086 0.990690
0.549873 0.160254 0.523575 128 128 255 -0.137941 -0.055179 0.988902
0.545670 0.168116 0.523465 128 128 255 -0.148535 -0.071535 0.986316
0.540962 0.175686 0.523348 128 128 255 -0.162279 -0.092755 0.982376
0.535768 0.182932 0.523223 128 128 255 -0.180952 -0.121640 0.975941
0.530111 0.189823 0.523092 128 128 255 -0.207923 -0.163561 0.964373
0.524016 0.196330 0.522954 128 128 255 -0.250213 -0.229973 0.940482
0.517508 0.202423 0.522811 128 128 255 -0.324119 -0.348658 0.879423
0.510615 0.208078 0.522663 128 128 255 -0.462577 -0.585398 0.665832
0.503367 0.213270 0.522511 128 128 255 -0.551847 -0.829249 -0.088385
0.495795 0.217977 0.522355 128 128 255 -0.327580 -0.593073 -0.735497
0.487932 0.222179 0.522197 128 128 255 -0.176809 -0.394331 -0.901799
0.479810 0.225857 0.522036 128 128 255 -0.102447 -0.291289 -0.951134
0.471465 0.228997 0.521873 128 128 255 -0.060446 -0.231736 -0.970899
0.462932 0.231584 0.521710 128 128 255 -0.033740 -0.193306 -0.980558
0.454249 0.233607 0.521546 128 128 255 -0.015275 -0.166431 -0.985935
0.445452 0.235059 0.521383 128 128 255 -0.001714 -0.146494 -0.989210
0.436578 0.235932 0.521221 128 128 255 0.008716 -0.131015 -0.991342
0.427667 0.236222 0.521061 128 128 255 0.017024 -0.118570 -0.992800
0.418755 0.235930 0.520904 128 128 255 0.023835 -0.108274 -0.993835
0.409882 0.235055 0.520750 128 128 255 0.029553 -0.099548 -0.994594
0.401085 0.233602 0.520600 128 128 255 0.034448 -0.092008 -0.995162
0.392402 0.231577 0.520454 128 128 255 0.038712 -0.085379 -0.995596
0.383870 0.228989 0.520314 128 128 255 0.042484 -0.079455 -0.995933
0.375525 0.225848 0.520180 128 128 255 0.045866 -0.074095 -0.996196
0.367404 0.222168 0.520051 128 128 255 0.048935 -0.069184 -0.996403
0.359541 0.217965 0.519930 128 128 255 0.051750 -0.064637 -0.996566
0.351970 0.213258 0.519817 128 128 255 0.054362 -0.060378 -0.996694
0.344723 0.208065 0.519711 128 128 255 0.056809 -0.056353 -0.996793
0.337831 0.202410 0.519613 128 128 255 0.059121 -0.052514 -0.996869
0.331324 0.196316 0.519525 128 128 255 0.061329 -0.048820 -0.996923
0.325229 0.189810 0.519445 128 128 255 0.063452 -0.045238 -0.996959
0.319573 0.182919 0.519375 128 128 255 0.065511 -0.041735 -0.996979
0.314380 0.175673 0.519315 128 128 255 0.067529 -0.038277 -0.996983
0.309672 0.168104 0.519265 128 128 255 0.069518 -0.034845 -0.996972
0.305470 0.160243 0.519225 128 128 255 0.071498 -0.031405 -0.996946
0.301790 0.152124 0.519196 128 128 255 0.073484 -0.027931 -0.996905
0.298650 0.143782 0.519177 128 128 255 0.075493 -0.024396 -0.996848
0.296062 0.135253 0.519169 128 128 255 0.077542 -0.020766 -0.996773
0.294038 0.126572 0.519172 128 128 255 0.079650 -0.017010 -0.996678
0.292586 0.117778 0.519185 128 128 255 0.081837 -0.013090 -0.996560
0.291712 0.108908 0.519209 128 128 255 0.084129 -0.008958 -0.996415
0.291420 0.100000 0.519244 128 128 255 0.086552 -0.004562 -0.996237
0.291712 0.091092 0.519289 128 128 255 0.089139 0.000160 -0.996019
0.292586 0.082222 0.519344 128 128 255 0.091936 0.005296 -0.995751
0.294038 0.073428 0.519409 128 128 255 0.094990 0.010941 -0.995418
0.296062 0.064747 0.519484 128 128 255 0.098369 0.017227 -0.995001
0.298650 0.056218 0.519568 128 128 255 0.102160 0.024329 -0.994470
0.301790 0.047876 0.519661 128 128 255 0.106484 0.032484 -0.993784
0.305470 0.039757 0.519763 128 128 255 0.111504 0.042023 -0.992875
0.309672 0.031896 0.519872 128 128 255 0.117460 0.053427 -0.991639
0.314380 0.024326 0.519990 128 128 255 0.124701 0.067400 -0.989902
0.319573 0.017081 0.520115 128 128 255 0.133779 0.085069 -0.987353
0.325229 0.010190 0.520246 128 128 255 0.145597 0.108286 -0.983400
0.331324 0.003684 0.520384 128 128 255 0.161751 0.140363 -0.976798
0.337831 -0.002410 0.520527 128 128 255 0.185303 0.187755 -0.964578
0.344723 -0.008065 0.520675 128 128 255 0.222805 0.264665 -0.938249
0.351970 -0.013258 0.520827 128 128 255 0.289672 0.406532 -0.866500
0.359541 -0.017965 0.520982 128 128 255 0.411777 0.691258 -0.593803
0.367404 -0.022168 0.521141 128 128 255 0.423825 0.867279 0.261152
0.375525 -0.025848 0.521302 128 128 255 0.223719 0.574335 0.787457
0.383870 -0.028989 0.521465 128 128 255 0.114612 0.386388 0.915188
0.392402 -0.031577 0.521628 128 128 255 0.060276 0.288846 0.955476
0.401085 -0.033602 0.521792 128 128 255 0.028841 0.231466 0.972415
0.409882 -0.035055 0.521955 128 128 255 0.008429 0.193933 0.980978
0.418755 -0.035930 0.522116 128 128 255 -0.005952 0.167428 0.985866
0.427667 -0.036222 0.522276 128 128 255 -0.016705 0.147619 0.988903
0.436578 -0.035932 0.522434 128 128 255 -0.025122 0.132158 0.990910
0.445452 -0.035059 0.522588 128 128 255 -0.031952 0.119666 0.992300
0.454249 -0.033607 0.522738 128 128 255 -0.037660 0.109283 0.993297
0.462932 -0.031584 0.522883 128 128 255 -0.042547 0.100453 0.994032
0.471465 -0.028997 0.523024 128 128 255 -0.046817 0.092790 0.994584
0.479810 -0.025857 0.523158 128 128 255 -0.050622 0.086017 0.995007
0.487932 -0.022179 0.523286 128 128 255 -0.054062 0.079940 0.995333
0.495795 -0.017977 0.523407 128 128 255 -0.057223 0.074403 0.995585
0.503367 -0.013270 0.523521 128 128 255 -0.060161 0.069297 0.995780
0.510615 -0.008078 0.523627 128 128 255 -0.062928 0.064530 0.995930
0.517508 -0.002423 0.523725 128 128 255 -0.065559 0.060031 0.996041
0.524016 0.003670 0.523813 128 128 255 -0.068091 0.055737 0.996121
0.530111 0.010177 0.523893 128 128 255 -0.070550 0.051596 0.996173
0.535768 0.017068 0.523963 128 128 255 -0.072962 0.047563 0.996200
0.540962 0.024314 0.524023 128 128 255 -0.075346 0.043604 0.996204
0.545670 0.031884 0.524073 128 128 255 -0.077728 0.039676 0.996185
0.549873 0.039746 0.524113 128 128 255 -0.080129 0.035739 0.996144
0.553553 0.047866 0.524142 128 128 255 -0.082568 0.031762 0.996079
0.556694 0.056209 0.524161 128 128 255 -0.085070 0.027704 0.995990
0.559283 0.064740 0.524169 128 128 255 -0.087660 0.023528 0.995873
0.561307 0.073422 0.524166 128 128 255 -0.090365 0.019185 0.995724
0.562760 0.082218 0.524153 128 128 255 -0.093222 0.014622 0.995538
0.563634 0.091090 0.524128 128 128 255 -0.096266 0.009781 0.995308
0.563926 0.100000 0.524094 128 128 255 -0.147851 0.008692 0.988971
0.087530 0.383743 0.498128 128 128 255 -0.181263 -0.000718 0.983434
0.087206 0.393644 0.498076 128 128 255 -0.119139 -0.002475 0.992874
0.086235 0.403503 0.498013 128 128 255 -0.123473 -0.009865 0.992299
0.084621 0.413278 0.497941 128 128 255 -0.128289 -0.018060 0.991572
0.082372 0.422926 0.497859 128 128 255 -0.133720 -0.027287 0.990643
0.079497 0.432407 0.497768 128 128 255 -0.139948 -0.037852 0.989435
0.076008 0.441679 0.497668 128 128 255 -0.147221 -0.050181 0.987830
0.071920 0.450704 0.497561 128 128 255 -0.155901 -0.064897 0.985638
0.067251 0.459442 0.497445 128 128 255 -0.166529 -0.082931 0.982543
0.062020 0.467856 0.497322 128 128 255 -0.179941 -0.105745 0.977977
0.056251 0.475910 0.497192 128 128 255 -0.197518 -0.135773 0.970851
0.049967 0.483569 0.497056 128 128 255 -0.221666 -0.177341 0.958861
0.043195 0.490801 0.496914 128 128 255 -0.256897 -0.238775 0.936478
0.035966 0.497574 0.496768 128 128 255 -0.312167 -0.337487 0.888062
0.028309 0.503860 0.496616 128 128 255 -0.403774 -0.509955 0.759547
0.020257 0.509632 0.496462 128 128 255 -0.520884 -0.774668 0.358566
0.011845 0.514865 0.496304 128 128 255 -0.454128 -0.805360 -0.381002
0.003109 0.519537 0.496143 128 128 255 -0.267712 -0.576966 -0.771648
-0.005914 0.523627 0.495981 128 128 255 -0.154854 -0.417413 -0.895425
-0.015185 0.527118 0.495818 128 128 255 -0.091771 -0.323786 -0.941669
-0.024664 0.529995 0.495654 128 128 255 -0.053003 -0.264767 -0.962855
-0.034311 0.532246 0.495491 128 128 255 -0.026994 -0.224506 -0.974099
-0.044085 0.533861 0.495329 128 128 255 -0.008357 -0.195289 -0.980710
-0.053943 0.534833 0.495168 128 128 255 0.005698 -0.173021 -0.984902
-0.063844 0.535158 0.495010 128 128 255 0.016723 -0.155389 -0.987712
-0.073744 0.534835 0.494855 128 128 255 0.025648 -0.140988 -0.989679
-0.083603 0.533865 0.494704 128 128 255 0.033063 -0.128922 -0.991103
-0.093376 0.532252 0.494557 128 128 255 0.039360 -0.118588 -0.992163
-0.103023 0.530003 0.494416 128 128 255 0.044804 -0.109581 -0.992968
-0.112503 0.527128 0.494280 128 128 255 0.049593 -0.101593 -0.993589
-0.121773 0.523639 0.494150 128 128 255 0.053864 -0.094409 -0.994075
-0.130796 0.519551 0.494027 128 128 255 0.057724 -0.087864 -0.994459
-0.139532 0.514882 0.493911 128 128 255 0.061253 -0.081832 -0.994762
-0.147944 0.509651 0.493803 128 128 255 0.064514 -0.076214 -0.995002
-0.155996 0.503881 0.493704 128 128 255 0.067562 -0.070922 -0.995191
-0.163653 0.497597 0.493613 128 128 255 0.070434 -0.065896 -0.995337
-0.170882 0.490825 0.493531 128 128 255 0.073169 -0.061075 -0.995448
-0.177653 0.483595 0.493459 128 128 255 0.075795 -0.056412 -0.995526
-0.183937 0.475937 0.493396 128 128 255 0.078335 -0.051868 -0.995577
-0.189706 0.467885 0.493344 128 128 255 0.080818 -0.047395 -0.995601
-0.194936 0.459472 0.493301 128 128 255 0.083263 -0.042962 -0.995601
-0.199605 0.450735 0.493269 128 128 255 0.085688 -0.038536 -0.995576
-0.203692 0.441712 0.493248 128 128 255 0.088119 -0.034072 -0.995527
-0.207180 0.432440 0.493237 128 128 255 0.090569 -0.029544 -0.995452
-0.210054 0.422960 0.493237 128 128 255 0.093065 -0.024903 -0.995349
-0.212302 0.413312 0.493248 128 128 255 0.095626 -0.020113 -0.995214
-0.213914 0.403538 0.493269 128 128 255 0.098278 -0.015123 -0.995044
-0.214884 0.393679 0.493301 128 128 255 0.101049 -0.009881 -0.994832
-0.215206 0.383777 0.493344 128 128 255 0.103974 -0.004314 -0.994571
-0.214880 0.373876 0.493396 128 128 255 0.107089 0.001650 -0.994248
-0.213908 0.364017 0.493459 128 128 255 0.110446 0.008113 -0.993849
-0.212292 0.354242 0.493531 128 128 255 0.114105 0.015202 -0.993352
-0.210041 0.344595 0.493613 128 128 255 0.118141 0.023071 -0.992729
-0.207164 0.335115 0.493704 128 128 255 0.122658 0.031932 -0.991935
-0.203673 0.325843 0.493803 128 128 255 0.127791 0.042070 -0.990908
-0.199583 0.316819 0.493911 128 128 255 0.133728 0.053876 -0.989552
-0.194911 0.308082 0.494027 128 128 255 0.140739 0.067922 -0.987714
-0.189679 0.299670 0.494150 128 128 255 0.149214 0.085039 -0.985141
-0.183907 0.291617 0.494280 128 128 255 0.159757 0.106523 -0.981392
-0.177621 0.283959 0.494416 128 128 255 0.173342 0.134493 -0.975635
-0.170848 0.276729 0.494557 128 128 255 0.191622 0.172609 -0.966171
-0.163617 0.269957 0.494704 128 128 255 0.217631 0.227760 -0.949085
-0.155959 0.263672 0.494855 128 128 255 0.257288 0.314012 -0.913892
-0.147906 0.257902 0.495010 128 128 255 0.322196 0.461910 -0.826335
-0.139493 0.252671 0.495168 128 128 255 0.420947 0.717087 -0.555509
-0.130757 0.248001 0.495329 128 128 255 0.432593 0.891037 0.137534
-0.121734 0.243912 0.495491 128 128 255 0.264700 0.676771 0.686960
-0.112463 0.240422 0.495654 128 128 255 0.144057 0.476316 0.867393
-0.102984 0.237546 0.495818 128 128 255 0.078546 0.359875 0.929688
-0.093338 0.235296 0.495981 128 128 255 0.039738 0.288870 0.956543
-0.083565 0.233682 0.496143 128 128 255 0.014382 0.241774 0.970226
-0.073708 0.232710 0.496304 128 128 255 -0.003486 0.208314 0.978056
-0.063809 0.232385 0.496462 128 128 255 -0.016822 0.183235 0.982925
-0.053910 0.232709 0.496616 128 128 255 -0.027224 0.163642 0.986144
-0.044053 0.233679 0.496768 128 128 255 -0.035635 0.147805 0.988374
-0.034282 0.235291 0.496914 128 128 255 -0.042635 0.134648 0.989976
-0.024637 0.237540 0.497056 128 128 255 -0.048604 0.123458 0.991159
-0.015160 0.240414 0.497192 128 128 255 -0.053799 0.113757 0.992051
-0.005891 0.243902 0.497322 128 128 255 -0.058404 0.105192 0.992735
0.003130 0.247989 0.497445 128 128 255 -0.062553 0.097514 0.993266
0.011863 0.252657 0.497561 128 128 255 -0.066345 0.090532 0.993681
0.020273 0.257887 0.497668 128 128 255 -0.069856 0.084100 0.994006
0.028323 0.263655 0.497768 128 128 255 -0.073146 0.078107 0.994258
0.035978 0.269938 0.497859 128 128 255 -0.076264 0.072459 0.994451
0.043206 0.276708 0.497941 128 128 255 -0.079248 0.067081 0.994595
0.049975 0.283937 0.498013 128 128 255 -0.082134 0.061908 0.994697
0.056257 0.291593 0.498076 128 128 255 -0.084953 0.056882 0.994760
0.062026 0.299644 0.498128 128 128 255 -0.087729 0.051956 0.994788
0.067255 0.308055 0.498171 128 128 255 -0.090487 0.047086 0.994784
0.071923 0.316791 0.498202 128 128 255 -0.093256 0.042219 0.994747
0.076010 0.325813 0.498224 128 128 255 -0.096057 0.037318 0.994676
0.079499 0.335083 0.498235 128 128 255 -0.098916 0.032334 0.994570
0.082374 0.344562 0.498235 128 128 255 -0.101861 0.027221 0.994426
0.084622 0.354209 0.498224 128 128 255 -0.104921 0.021927 0.994239
0.086235 0.363983 0.498202 128 128 255 -0.108134 0.016386 0.994001
0.087206 0.373842 0.498171 128 128 255 -0.111539 0.010534 0.993704
0.087530 0.383743 0.498128 128 128 255 -0.082158 0.006762 0.996596
0.096852 0.383733 0.469951 128 128 255 -0.983736 -0.033227 -0.176521
0.096508 0.394244 0.469891 128 128 255 -0.975362 -0.065820 -0.210562
0.095478 0.404710 0.469821 128 128 255 -0.968960 -0.129649 -0.210492
0.093765 0.415087 0.469741 128 128 255 -0.958387 -0.192915 -0.210425
0.091377 0.425329 0.469653 128 128 255 -0.943688 -0.255345 -0.210362
0.088325 0.435394 0.469555 128 128 255 -0.924928 -0.316671 -0.210302
0.084621 0.445238 0.469449 128 128 255 -0.902191 -0.376628 -0.210245
0.080282 0.454818 0.469335 128 128 255 -0.875573 -0.434960 -0.210193
0.075325 0.464095 0.469214 128 128 255 -0.845194 -0.491412 -0.210145
0.069773 0.473027 0.469086 128 128 255 -0.811183 -0.545747 -0.210101
0.063648 0.481577 0.468952 128 128 255 -0.773690 -0.597728 -0.210062
0.056977 0.489708 0.468811 128 128 255 -0.732877 -0.647133 -0.210027
0.049789 0.497386 0.468666 128 128 255 -0.688922 -0.693750 -0.209996
0.042114 0.504577 0.468516 128 128 255 -0.642014 -0.737381 -0.209969
0.033985 0.511250 0.468362 128 128 255 -0.592357 -0.777840 -0.209947
0.025438 0.517378 0.468204 128 128 255 -0.540166 -0.814954 -0.209929
0.016508 0.522933 0.468044 128 128 255 -0.485670 -0.848564 -0.209916
0.007234 0.527892 0.467883 128 128 255 -0.429099 -0.878529 -0.209907
-0.002345 0.532234 0.467720 128 128 255 -0.370697 -0.904724 -0.209902
-0.012187 0.535941 0.467556 128 128 255 -0.310720 -0.927035 -0.209901
-0.022250 0.538995 0.467393 128 128 255 -0.249424 -0.945372 -0.209905
-0.032491 0.541385 0.467230 128 128 255 -0.187072 -0.959657 -0.209912
-0.042866 0.543099 0.467069 128 128 255 -0.123931 -0.969831 -0.209924
-0.053332 0.544132 0.466910 128 128 255 -0.060275 -0.975855 -0.209938
-0.063842 0.544477 0.466755 128 128 255 0.003629 -0.977704 -0.209957
-0.074353 0.544134 0.466603 128 128 255 0.067502 -0.975373 -0.209979
-0.084818 0.543104 0.466455 128 128 255 0.131074 -0.968875 -0.210003
-0.095193 0.541392 0.466312 128 128 255 0.194073 -0.958239 -0.210032
-0.105435 0.539005 0.466174 128 128 255 0.256231 -0.943514 -0.210063
-0.115498 0.535953 0.466043 128 128 255 0.317284 -0.924765 -0.210098
-0.125339 0.532249 0.465918 128 128 255 0.376972 -0.902073 -0.210136
-0.134918 0.527910 0.465800 128 128 255 0.435040 -0.875538 -0.210175
-0.144192 0.522953 0.465691 128 128 255 0.491245 -0.845273 -0.210217
-0.153122 0.517400 0.465589 128 128 255 0.545345 -0.811412 -0.210261
-0.161669 0.511274 0.465496 128 128 255 0.597114 -0.774097 -0.210307
-0.169798 0.504603 0.465412 128 128 255 0.646330 -0.733491 -0.210355
-0.177472 0.497414 0.465337 128 128 255 0.692787 -0.689766 -0.210405
-0.184660 0.489739 0.465272 128 128 255 0.736288 -0.643108 -0.210456
-0.191331 0.481609 0.465217 128 128 255 0.776650 -0.593719 -0.210508
-0.197455 0.473061 0.465172 128 128 255 0.813700 -0.541808 -0.210562
-0.203007 0.464130 0.465137 128 128 255 0.847286 -0.487594 -0.210616
-0.207963 0.454855 0.465113 128 128 255 0.877262 -0.431310 -0.210671
-0.212302 0.445276 0.465100 128 128 255 0.903504 -0.373196 -0.210726
-0.216005 0.435433 0.465097 128 128 255 0.925900 -0.313497 -0.210782
-0.219056 0.425369 0.465105 128 128 255 0.944356 -0.252466 -0.210838
-0.221442 0.415127 0.465124 128 128 255 0.958794 -0.190363 -0.210894
-0.223154 0.404750 0.465153 128 128 255 0.969152 -0.127453 -0.210950
-0.224183 0.394284 0.465193 128 128 255 0.975388 -0.064000 -0.211005
-0.224525 0.383773 0.465243 128 128 255 0.977473 -0.000274 -0.211060
-0.224179 0.373262 0.465303 128 128 255 0.975400 0.063454 -0.211114
-0.223146 0.362796 0.465373 128 128 255 0.969175 0.126914 -0.211168
-0.221431 0.352419 0.465453 128 128 255 0.958826 0.189836 -0.211221
-0.219041 0.342177 0.465541 128 128 255 0.944396 0.251954 -0.211273
-0.215986 0.332113 0.465639 128 128 255 0.925943 0.313003 -0.211323
-0.212279 0.322270 0.465744 128 128 255 0.903547 0.372726 -0.211373
-0.207937 0.312691 0.465858 128 128 255 0.877300 0.430865 -0.211422
-0.202978 0.303416 0.465979 128 128 255 0.847314 0.487176 -0.211469
-0.197423 0.294486 0.466108 128 128 255 0.813713 0.541417 -0.211514
-0.191296 0.285937 0.466242 128 128 255 0.776639 0.593359 -0.211559
-0.184623 0.277808 0.466382 128 128 255 0.736249 0.642778 -0.211601
-0.177432 0.270132 0.466528 128 128 255 0.692712 0.689462 -0.211642
-0.169756 0.262943 0.466678 128 128 255 0.646212 0.733213 -0.211680
-0.161626 0.256271 0.466832 128 128 255 0.596945 0.773843 -0.211717
-0.153077 0.250146 0.466989 128 128 255 0.545119 0.811176 -0.211751
-0.144146 0.244592 0.467149 128 128 255 0.490953 0.845052 -0.211783
-0.134871 0.239635 0.467311 128 128 255 0.434677 0.875324 -0.211813
-0.125292 0.235294 0.467474 128 128 255 0.376530 0.901859 -0.211839
-0.115451 0.231590 0.467638 128 128 255 0.316757 0.924543 -0.211862
-0.105388 0.228537 0.467801 128 128 255 0.255614 0.943275 -0.211882
-0.095148 0.226148 0.467964 128 128 255 0.193361 0.957972 -0.211899
-0.084773 0.224434 0.468125 128 128 255 0.130263 0.968569 -0.211911
-0.074309 0.223403 0.468283 128 128 255 0.066591 0.975016 -0.211919
-0.063801 0.223058 0.468439 128 128 255 0.002616 0.977283 -0.211923
-0.053293 0.223401 0.468591 128 128 255 -0.061386 0.975357 -0.211921
-0.042829 0.224431 0.468739 128 128 255 -0.125142 0.969243 -0.211915
-0.032456 0.226142 0.468882 128 128 255 -0.188376 0.958964 -0.211903
-0.022218 0.228529 0.469020 128 128 255 -0.250815 0.944561 -0.211885
-0.012157 0.231580 0.469151 128 128 255 -0.312191 0.926095 -0.211862
-0.002318 0.235283 0.469276 128 128 255 -0.372237 0.903641 -0.211833
0.007257 0.239621 0.469393 128 128 255 -0.430693 0.877294 -0.211798
0.016529 0.244577 0.469503 128 128 255 -0.487307 0.847167 -0.211757
0.025456 0.250128 0.469605 128 128 255 -0.541830 0.813387 -0.211711
0.034001 0.256252 0.469698 128 128 255 -0.594028 0.776100 -0.211659
0.042127 0.262921 0.469782 128 128 255 -0.643676 0.735463 -0.211603
0.049799 0.270108 0.469857 128 128 255 -0.690554 0.691654 -0.211541
0.056986 0.277782 0.469922 128 128 255 -0.734461 0.644861 -0.211475
0.063655 0.285909 0.469977 128 128 255 -0.775206 0.595285 -0.211406
0.069778 0.294456 0.470022 128 128 255 -0.812611 0.543140 -0.211333
0.075329 0.303385 0.470057 128 128 255 -0.846516 0.488652 -0.211258
0.080285 0.312658 0.470080 128 128 255 -0.876772 0.432057 -0.211181
0.084623 0.322236 0.470094 128 128 255 -0.903250 0.373598 -0.211102
0.088326 0.332077 0.470097 128 128 255 -0.925834 0.313529 -0.211023
0.091378 0.342140 0.470089 128 128 255 -0.944428 0.252109 -0.210943
0.093765 0.352381 0.470070 128 128 255 -0.958951 0.189605 -0.210864
0.095478 0.362756 0.470041 128 128 255 -0.969341 0.126285 -0.210786
0.096508 0.373222 0.470001 128 128 255 -0.975554 0.062424 -0.210709
0.096852 0.383733 0.469951 128 128 255 -0.969016 0.030591 -0.245098
0.100000 0.383722 0.440643 128 128 255 -0.998850 -0.032439 0.035296
0.099649 0.394439 0.440576 128 128 255 -0.997863 -0.065347 0.000020
0.098599 0.405110 0.440498 128 128 255 -0.991455 -0.130450 0.000044
0.096852 0.415690 0.440412 128 128 255 -0.980804 -0.194995 0.000066
0.094418 0.426134 0.440317 128 128 255 -0.965956 -0.258706 0.000087
0.091306 0.436396 0.440213 128 128 255 -0.946974 -0.321311 0.000106
0.087530 0.446432 0.440101 128 128 255 -0.923938 -0.382542 0.000125
0.083106 0.456201 0.439982 128 128 255 -0.896948 -0.442136 0.000143
0.078052 0.465659 0.439855 128 128 255 -0.866118 -0.499840 0.000159
0.072391 0.474766 0.439722 128 128 255 -0.831579 -0.555407 0.000173
0.066146 0.483484 0.439583 128 128 255 -0.793479 -0.608598 0.000187
0.059345 0.491775 0.439439 128 128 255 -0.751981 -0.659185 0.000199
0.052016 0.499603 0.439290 128 128 255 -0.707262 -0.706951 0.000210
0.044191 0.506935 0.439137 128 128 255 -0.659513 -0.751693 0.000220
0.035903 0.513739 0.438980 128 128 255 -0.608938 -0.793218 0.000229
0.027188 0.519987 0.438821 128 128 255 -0.555754 -0.831347 0.000236
0.018083 0.525651 0.438660 128 128 255 -0.500187 -0.865917 0.000243
0.008628 0.530708 0.438497 128 128 255 -0.442479 -0.896779 0.000250
-0.001138 0.535135 0.438333 128 128 255 -0.382870 -0.923802 0.000254
-0.011173 0.538914 0.438170 128 128 255 -0.321621 -0.946868 0.000258
-0.021433 0.542028 0.438007 128 128 255 -0.258994 -0.965879 0.000262
-0.031875 0.544465 0.437846 128 128 255 -0.195257 -0.980752 0.000265
-0.042453 0.546214 0.437686 128 128 255 -0.130679 -0.991425 0.000268
-0.053124 0.547266 0.437530 128 128 255 -0.065541 -0.997850 0.000270
-0.063840 0.547618 0.437377 128 128 255 -0.000122 -1.000000 0.000272
-0.074556 0.547269 0.437228 128 128 255 0.065300 -0.997866 0.000273
-0.085226 0.546219 0.437083 128 128 255 0.130442 -0.991456 0.000274
-0.095805 0.544474 0.436944 128 128 255 0.195023 -0.980799 0.000275
-0.106246 0.542040 0.436811 128 128 255 0.258772 -0.965939 0.000275
-0.116507 0.538928 0.436685 128 128 255 0.321412 -0.946939 0.000276
-0.126541 0.535152 0.436566 128 128 255 0.382674 -0.923883 0.000276
-0.136307 0.530727 0.436454 128 128 255 0.442297 -0.896869 0.000276
-0.145763 0.525673 0.436350 128 128 255 0.500027 -0.866010 0.000276
-0.154867 0.520012 0.436255 128 128 255 0.555612 -0.831442 0.000276
-0.163582 0.513766 0.436168 128 128 255 0.608816 -0.793311 0.000276
-0.171870 0.506964 0.436091 128 128 255 0.659412 -0.751781 0.000276
-0.179695 0.499635 0.436024 128 128 255 0.707181 -0.707032 0.000276
-0.187023 0.491809 0.435966 128 128 255 0.751922 -0.659252 0.000275
-0.193824 0.483520 0.435919 128 128 255 0.793439 -0.608649 0.000274
-0.200068 0.474804 0.435881 128 128 255 0.831557 -0.555439 0.000273
-0.205729 0.465699 0.435855 128 128 255 0.866112 -0.499850 0.000272
-0.210782 0.456242 0.435839 128 128 255 0.896956 -0.442120 0.000271
-0.215206 0.446475 0.435833 128 128 255 0.923957 -0.382497 0.000269
-0.218981 0.436439 0.435839 128 128 255 0.946999 -0.321237 0.000266
-0.222091 0.426178 0.435855 128 128 255 0.965984 -0.258602 0.000263
-0.224524 0.415735 0.435881 128 128 255 0.980831 -0.194862 0.000260
-0.226269 0.405156 0.435919 128 128 255 0.991476 -0.130289 0.000255
-0.227318 0.394485 0.435966 128 128 255 0.997875 -0.065160 0.000251
-0.227666 0.383767 0.436024 128 128 255 1.000000 0.000248 0.000244
-0.227313 0.373050 0.436091 128 128 255 0.997843 0.065651 0.000238
-0.226260 0.362379 0.436168 128 128 255 0.991413 0.130770 0.000230
-0.224511 0.351799 0.436255 128 128 255 0.980738 0.195327 0.000221
-0.222074 0.341357 0.436350 128 128 255 0.965865 0.259046 0.000211
-0.218959 0.331096 0.436454 128 128 255 0.946858 0.321653 0.000200
-0.215180 0.321060 0.436566 128 128 255 0.923797 0.382881 0.000187
-0.210752 0.311293 0.436685 128 128 255 0.896784 0.442468 0.000173
-0.205696 0.301837 0.436811 128 128 255 0.865934 0.500159 0.000159
-0.200032 0.292731 0.436944 128 128 255 0.831378 0.555708 0.000142
-0.193784 0.284015 0.437083 128 128 255 0.793265 0.608876 0.000125
-0.186980 0.275727 0.437228 128 128 255 0.751758 0.659439 0.000106
-0.179649 0.267901 0.437377 128 128 255 0.707036 0.707178 0.000085
-0.171822 0.260571 0.437530 128 128 255 0.659289 0.751890 0.000064
-0.163533 0.253769 0.437686 128 128 255 0.608720 0.793385 0.000042
-0.154816 0.247523 0.437846 128 128 255 0.555547 0.831485 0.000019
-0.145710 0.241861 0.438007 128 128 255 0.499997 0.866027 -0.000005
-0.136254 0.236806 0.438170 128 128 255 0.442306 0.896864 -0.000030
-0.126488 0.232381 0.438333 128 128 255 0.382721 0.923864 -0.000055
-0.116453 0.228604 0.438497 128 128 255 0.321497 0.946911 -0.000080
-0.106194 0.225491 0.438660 128 128 255 0.258894 0.965906 -0.000106
-0.095753 0.223056 0.438821 128 128 255 0.195181 0.980767 -0.000131
-0.085176 0.221308 0.438980 128 128 255 0.130628 0.991431 -0.000155
-0.074507 0.220257 0.439137 128 128 255 0.065514 0.997852 -0.000178
-0.063793 0.219905 0.439290 128 128 255 0.000115 1.000000 -0.000200
-0.053079 0.220254 0.439439 128 128 255 -0.065288 0.997866 -0.000221
-0.042412 0.221304 0.439583 128 128 255 -0.130415 0.991459 -0.000239
-0.031836 0.223049 0.439722 128 128 255 -0.194987 0.980806 -0.000256
-0.021397 0.225483 0.439855 128 128 255 -0.258726 0.965951 -0.000269
-0.011140 0.228593 0.439982 128 128 255 -0.321360 0.946957 -0.000280
-0.001109 0.232368 0.440101 128 128 255 -0.382620 0.923906 -0.000288
0.008654 0.236791 0.440213 128 128 255 -0.442242 0.896896 -0.000293
0.018106 0.241844 0.440317 128 128 255 -0.499969 0.866043 -0.000294
0.027208 0.247504 0.440412 128 128 255 -0.555555 0.831479 -0.000293
0.035920 0.253747 0.440498 128 128 255 -0.608760 0.793355 -0.000287
0.044205 0.260547 0.440576 128 128 255 -0.659356 0.751831 -0.000279
0.052027 0.267874 0.440643 128 128 255 -0.707127 0.707087 -0.000268
0.059354 0.275698 0.440701 128 128 255 -0.751865 0.659317 -0.000254
0.066153 0.283984 0.440748 128 128 255 -0.793382 0.608724 -0.000238
0.072396 0.292698 0.440785 128 128 255 -0.831499 0.555526 -0.000219
0.078056 0.301801 0.440812 128 128 255 -0.866053 0.499952 -0.000198
0.083108 0.311256 0.440828 128 128 255 -0.896896 0.442241 -0.000176
0.087532 0.321021 0.440833 128 128 255 -0.923898 0.382639 -0.000153
0.091307 0.331055 0.440828 128 128 255 -0.946943 0.321401 -0.000128
0.094419 0.341314 0.440812 128 128 255 -0.965934 0.258790 -0.000103
0.096853 0.351756 0.440785 128 128 255 -0.980788 0.195075 -0.000078
0.098599 0.362335 0.440748 128 128 255 -0.991445 0.130526 -0.000053
0.099649 0.373005 0.440701 128 128 255 -0.997858 0.065420 -0.000028
0.100000 0.383722 0.440643 128 128 255 -0.998847 0.032520 -0.035312
0.096853 0.383711 0.411330 128 128 255 -0.969083 -0.029863 0.244920
0.096509 0.394222 0.411255 128 128 255 -0.975647 -0.061659 0.210501
0.095478 0.404688 0.411171 128 128 255 -0.969557 -0.125132 0.210478
0.093765 0.415065 0.411078 128 128 255 -0.959340 -0.188081 0.210456
0.091378 0.425308 0.410976 128 128 255 -0.945038 -0.250239 0.210436
0.088326 0.435373 0.410866 128 128 255 -0.926710 -0.311342 0.210418
0.084622 0.445217 0.410749 128 128 255 -0.904430 -0.371130 0.210401
0.080283 0.454797 0.410624 128 128 255 -0.878292 -0.429348 0.210387
0.075327 0.464074 0.410493 128 128 255 -0.848406 -0.485748 0.210374
0.069774 0.473006 0.410355 128 128 255 -0.814894 -0.540088 0.210364
0.063650 0.481557 0.410212 128 128 255 -0.777896 -0.592138 0.210356
0.056979 0.489688 0.410064 128 128 255 -0.737571 -0.641672 0.210350
0.049791 0.497366 0.409912 128 128 255 -0.694085 -0.688477 0.210346
0.042117 0.504557 0.409756 128 128 255 -0.647623 -0.732352 0.210345
0.033988 0.511231 0.409598 128 128 255 -0.598380 -0.773108 0.210347
0.025441 0.517359 0.409437 128 128 255 -0.546566 -0.810566 0.210350
0.016511 0.522915 0.409274 128 128 255 -0.492399 -0.844567 0.210356
0.007238 0.527874 0.409111 128 128 255 -0.436111 -0.874959 0.210365
-0.002341 0.532217 0.408947 128 128 255 -0.377941 -0.901611 0.210377
-0.012182 0.535923 0.408784 128 128 255 -0.318136 -0.924405 0.210391
-0.022245 0.538978 0.408622 128 128 255 -0.256953 -0.943241 0.210408
-0.032486 0.541368 0.408462 128 128 255 -0.194654 -0.958035 0.210427
-0.042861 0.543083 0.408305 128 128 255 -0.131505 -0.968719 0.210451
-0.053326 0.544115 0.408151 128 128 255 -0.067776 -0.975247 0.210476
-0.063836 0.544461 0.408001 128 128 255 -0.003743 -0.977586 0.210503
-0.074346 0.544118 0.407855 128 128 255 0.060319 -0.975724 0.210534
-0.084811 0.543089 0.407715 128 128 255 0.124133 -0.969666 0.210566
-0.095187 0.541377 0.407581 128 128 255 0.187424 -0.959437 0.210601
-0.105428 0.538990 0.407452 128 128 255 0.249919 -0.945077 0.210640
-0.115490 0.535939 0.407331 128 128 255 0.311351 -0.926647 0.210680
-0.125332 0.532235 0.407217 128 128 255 0.371448 -0.904225 0.210722
-0.134910 0.527896 0.407112 128 128 255 0.429956 -0.877904 0.210766
-0.144184 0.522939 0.407014 128 128 255 0.486617 -0.847798 0.210812
-0.153113 0.517386 0.406925 128 128 255 0.541188 -0.814035 0.210859
-0.161661 0.511261 0.406846 128 128 255 0.593430 -0.776762 0.210908
-0.169789 0.504589 0.406776 128 128 255 0.643117 -0.736137 0.210958
-0.177463 0.497401 0.406716 128 128 255 0.690035 -0.692335 0.211009
-0.184651 0.489725 0.406666 128 128 255 0.733979 -0.645545 0.211060
-0.191321 0.481596 0.406626 128 128 255 0.774758 -0.595971 0.211112
-0.197445 0.473048 0.406597 128 128 255 0.812197 -0.543824 0.211164
-0.202996 0.464117 0.406578 128 128 255 0.846133 -0.489333 0.211216
-0.207952 0.454842 0.406570 128 128 255 0.876418 -0.432732 0.211268
-0.212290 0.445263 0.406573 128 128 255 0.902922 -0.374267 0.211319
-0.215993 0.435420 0.406586 128 128 255 0.925530 -0.314192 0.211369
-0.219044 0.425356 0.406610 128 128 255 0.944146 -0.252766 0.211417
-0.221429 0.415114 0.406645 128 128 255 0.958690 -0.190255 0.211464
-0.223140 0.404738 0.406690 128 128 255 0.969099 -0.126931 0.211509
-0.224169 0.394272 0.406745 128 128 255 0.975330 -0.063067 0.211552
-0.224510 0.383760 0.406810 128 128 255 0.977357 0.001060 0.211593
-0.224164 0.373249 0.406885 128 128 255 0.975174 0.065174 0.211630
-0.223131 0.362783 0.406969 128 128 255 0.968792 0.128995 0.211665
-0.221415 0.352407 0.407062 128 128 255 0.958240 0.192251 0.211697
-0.219025 0.342165 0.407163 128 128 255 0.943566 0.254667 0.211725
-0.215969 0.332101 0.407273 128 128 255 0.924836 0.315975 0.211750
-0.212263 0.322259 0.407391 128 128 255 0.902132 0.375913 0.211771
-0.207920 0.312679 0.407516 128 128 255 0.875555 0.434222 0.211788
-0.202960 0.303405 0.407647 128 128 255 0.845223 0.490651 0.211802
-0.197405 0.294474 0.407785 128 128 255 0.811266 0.544962 0.211811
-0.191278 0.285926 0.407928 128 128 255 0.773835 0.596920 0.211816
-0.184604 0.277796 0.408075 128 128 255 0.733091 0.646306 0.211818
-0.177414 0.270121 0.408228 128 128 255 0.689212 0.692908 0.211815
-0.169737 0.262932 0.408383 128 128 255 0.642388 0.736530 0.211808
-0.161607 0.256260 0.408542 128 128 255 0.592821 0.776985 0.211796
-0.153058 0.250135 0.408703 128 128 255 0.540725 0.814104 0.211781
-0.144127 0.244581 0.408865 128 128 255 0.486326 0.847728 0.211763
-0.134853 0.239624 0.409029 128 128 255 0.429854 0.877720 0.211740
-0.125274 0.235283 0.409192 128 128 255 0.371555 0.903949 0.211714
-0.115433 0.231579 0.409355 128 128 255 0.311677 0.926308 0.211684
-0.105371 0.228526 0.409517 128 128 255 0.250476 0.944704 0.211652
-0.095131 0.226137 0.409677 128 128 255 0.188216 0.959059 0.211617
-0.084757 0.224423 0.409835 128 128 255 0.125159 0.969314 0.211578
-0.074293 0.223392 0.409989 128 128 255 0.061576 0.975428 0.211538
-0.063785 0.223046 0.410139 128 128 255 -0.002261 0.977376 0.211496
-0.053278 0.223389 0.410284 128 128 255 -0.066081 0.975152 0.211451
-0.042816 0.224419 0.410425 128 128 255 -0.129610 0.968767 0.211406
-0.032443 0.226130 0.410559 128 128 255 -0.192581 0.958248 0.211360
-0.022206 0.228516 0.410687 128 128 255 -0.254724 0.943643 0.211312
-0.012146 0.231567 0.410808 128 128 255 -0.315773 0.925016 0.211265
-0.002308 0.235269 0.410922 128 128 255 -0.375471 0.902446 0.211218
0.007267 0.239607 0.411028 128 128 255 -0.433561 0.876032 0.211170
0.016537 0.244562 0.411125 128 128 255 -0.489798 0.845887 0.211123
0.025463 0.250113 0.411214 128 128 255 -0.543942 0.812141 0.211077
0.034007 0.256236 0.411294 128 128 255 -0.595764 0.774939 0.211031
0.042133 0.262905 0.411364 128 128 255 -0.645043 0.734441 0.210987
0.049804 0.270091 0.411424 128 128 255 -0.691572 0.690819 0.210943
0.056990 0.277764 0.411474 128 128 255 -0.735151 0.644262 0.210901
0.063658 0.285891 0.411513 128 128 255 -0.775598 0.594967 0.210860
0.069781 0.294437 0.411543 128 128 255 -0.812742 0.543144 0.210821
0.075331 0.303366 0.411561 128 128 255 -0.846426 0.489014 0.210782
0.080287 0.312638 0.411569 128 128 255 -0.876507 0.432807 0.210745
0.084625 0.322216 0.411567 128 128 255 -0.902859 0.374762 0.210710
0.088327 0.332056 0.411553 128 128 255 -0.925371 0.315125 0.210676
0.091379 0.342119 0.411529 128 128 255 -0.943948 0.254148 0.210643
0.093766 0.352360 0.411495 128 128 255 -0.958511 0.192090 0.210612
0.095478 0.362735 0.411450 128 128 255 -0.968999 0.129213 0.210582
0.096509 0.373200 0.411395 128 128 255 -0.975366 0.065784 0.210553
0.096853 0.383711 0.411330 128 128 255 -0.983744 0.033255 0.176472
0.087532 0.383701 0.383136 128 128 255 -0.765747 -0.019297 0.642852
0.087208 0.393602 0.383054 128 128 255 -0.668364 -0.036711 0.742928
0.086237 0.403461 0.382963 128 128 255 -0.503796 -0.057314 0.861919
0.084624 0.413236 0.382863 128 128 255 -0.396269 -0.068365 0.915586
0.082375 0.422884 0.382755 128 128 255 -0.323502 -0.074957 0.943254
0.079500 0.432365 0.382640 128 128 255 -0.271574 -0.079253 0.959149
0.076011 0.441638 0.382517 128 128 255 -0.232696 -0.082247 0.969065
0.071923 0.450662 0.382387 128 128 255 -0.202420 -0.084443 0.975651
0.067255 0.459401 0.382251 128 128 255 -0.178050 -0.086118 0.980246
0.062024 0.467815 0.382109 128 128 255 -0.157896 -0.087436 0.983577
0.056255 0.475869 0.381963 128 128 255 -0.140840 -0.088499 0.986069
0.049972 0.483529 0.381811 128 128 255 -0.126114 -0.089374 0.987982
0.043201 0.490762 0.381657 128 128 255 -0.113179 -0.090105 0.989480
0.035972 0.497536 0.381499 128 128 255 -0.101644 -0.090725 0.990675
0.028315 0.503823 0.381338 128 128 255 -0.091214 -0.091255 0.991641
0.020264 0.509595 0.381176 128 128 255 -0.081665 -0.091712 0.992431
0.011853 0.514829 0.381013 128 128 255 -0.072823 -0.092109 0.993082
0.003117 0.519501 0.380849 128 128 255 -0.064548 -0.092455 0.993622
-0.005905 0.523591 0.380686 128 128 255 -0.056729 -0.092756 0.994071
-0.015176 0.527083 0.380524 128 128 255 -0.049270 -0.093019 0.994445
-0.024654 0.529961 0.380363 128 128 255 -0.042092 -0.093247 0.994753
-0.034301 0.532212 0.380205 128 128 255 -0.035126 -0.093444 0.995005
-0.044074 0.533828 0.380050 128 128 255 -0.028307 -0.093612 0.995206
-0.053932 0.534800 0.379899 128 128 255 -0.021583 -0.093753 0.995362
-0.063832 0.535126 0.379752 128 128 255 -0.014897 -0.093868 0.995473
-0.073732 0.534804 0.379611 128 128 255 -0.008198 -0.093957 0.995542
-0.083590 0.533834 0.379475 128 128 255 -0.001433 -0.094022 0.995569
-0.093363 0.532222 0.379345 128 128 255 0.005456 -0.094060 0.995552
-0.103009 0.529974 0.379222 128 128 255 0.012525 -0.094073 0.995487
-0.112488 0.527099 0.379106 128 128 255 0.019837 -0.094057 0.995369
-0.121758 0.523610 0.378998 128 128 255 0.027468 -0.094012 0.995192
-0.130781 0.519523 0.378899 128 128 255 0.035502 -0.093934 0.994945
-0.139516 0.514854 0.378808 128 128 255 0.044041 -0.093820 0.994615
-0.147927 0.509623 0.378726 128 128 255 0.053209 -0.093664 0.994181
-0.155978 0.503854 0.378654 128 128 255 0.063159 -0.093460 0.993618
-0.163635 0.497570 0.378591 128 128 255 0.074078 -0.093198 0.992888
-0.170863 0.490798 0.378538 128 128 255 0.086225 -0.092865 0.991938
-0.177634 0.483568 0.378496 128 128 255 0.099921 -0.092443 0.990692
-0.183917 0.475910 0.378464 128 128 255 0.115615 -0.091907 0.989033
-0.189685 0.467858 0.378443 128 128 255 0.133934 -0.091218 0.986783
-0.194914 0.459446 0.378432 128 128 255 0.155758 -0.090321 0.983657
-0.199582 0.450709 0.378432 128 128 255 0.182409 -0.089124 0.979175
-0.203669 0.441686 0.378443 128 128 255 0.215920 -0.087476 0.972485
-0.207156 0.432414 0.378464 128 128 255 0.259558 -0.085111 0.961970
-0.210029 0.422934 0.378496 128 128 255 0.318869 -0.081516 0.944287
-0.212277 0.413286 0.378538 128 128 255 0.403706 -0.075609 0.911759
-0.213888 0.403512 0.378591 128 128 255 0.531615 -0.064855 0.844499
-0.214857 0.393653 0.378654 128 128 255 0.726516 -0.042890 0.685810
-0.215178 0.383752 0.378726 128 128 255 0.952965 0.002130 0.303073
-0.214852 0.373851 0.378808 128 128 255 0.957362 0.059734 -0.282648
-0.213878 0.363992 0.378899 128 128 255 0.739748 0.090236 -0.666806
-0.212262 0.354218 0.378998 128 128 255 0.550467 0.099917 -0.828856
-0.210010 0.344570 0.379106 128 128 255 0.425426 0.102743 -0.899142
-0.207132 0.335090 0.379222 128 128 255 0.342097 0.103481 -0.933949
-0.203640 0.325819 0.379345 128 128 255 0.283632 0.103536 -0.953328
-0.199549 0.316795 0.379475 128 128 255 0.240510 0.103361 -0.965128
-0.194878 0.308059 0.379611 128 128 255 0.207322 0.103117 -0.972823
-0.189644 0.299646 0.379752 128 128 255 0.180869 0.102865 -0.978113
-0.183872 0.291594 0.379899 128 128 255 0.159169 0.102627 -0.981903
-0.177586 0.283936 0.380050 128 128 255 0.140927 0.102414 -0.984709
-0.170813 0.276706 0.380205 128 128 255 0.125260 0.102225 -0.986844
-0.163582 0.269934 0.380363 128 128 255 0.111559 0.102061 -0.988503
-0.155923 0.263650 0.380524 128 128 255 0.099379 0.101921 -0.989816
-0.147871 0.257879 0.380686 128 128 255 0.088396 0.101804 -0.990869
-0.139458 0.252648 0.380849 128 128 255 0.078358 0.101708 -0.991724
-0.130722 0.247978 0.381013 128 128 255 0.069071 0.101631 -0.992421
-0.121699 0.243889 0.381176 128 128 255 0.060383 0.101573 -0.992994
-0.112429 0.240400 0.381338 128 128 255 0.052164 0.101534 -0.993464
-0.102950 0.237523 0.381499 128 128 255 0.044312 0.101512 -0.993847
-0.093305 0.235273 0.381657 128 128 255 0.036737 0.101509 -0.994156
-0.083533 0.233659 0.381811 128 128 255 0.029359 0.101523 -0.994400
-0.073677 0.232687 0.381963 128 128 255 0.022106 0.101555 -0.994584
-0.063779 0.232361 0.382109 128 128 255 0.014907 0.101606 -0.994713
-0.053881 0.232684 0.382251 128 128 255 0.007702 0.101677 -0.994788
-0.044026 0.233654 0.382387 128 128 255 0.000422 0.101768 -0.994808
-0.034256 0.235266 0.382517 128 128 255 -0.007004 0.101882 -0.994772
-0.024613 0.237513 0.382640 128 128 255 -0.014645 0.102019 -0.994675
-0.015137 0.240387 0.382755 128 128 255 -0.022590 0.102183 -0.994509
-0.005870 0.243874 0.382863 128 128 255 -0.030929 0.102375 -0.994265
0.003149 0.247960 0.382963 128 128 255 -0.039777 0.102600 -0.993927
0.011881 0.252627 0.383054 128 128 255 -0.049265 0.102861 -0.993475
0.020289 0.257856 0.383136 128 128 255 -0.059566 0.103164 -0.992879
0.028337 0.263623 0.383208 128 128 255 -0.070887 0.103515 -0.992099
0.035990 0.269905 0.383271 128 128 255 -0.083504 0.103923 -0.991074
0.043216 0.276674 0.383323 128 128 255 -0.097785 0.104398 -0.989717
0.049985 0.283902 0.383366 128 128 255 -0.114219 0.104953 -0.987896
0.056266 0.291557 0.383397 128 128 255 -0.133513 0.105606 -0.985404
0.062033 0.299607 0.383419 128 128 255 -0.156672 0.106377 -0.981905
0.067261 0.308018 0.383429 128 128 255 -0.185205 0.107292 -0.976825
0.071928 0.316752 0.383429 128 128 255 -0.221493 0.108376 -0.969121
0.076015 0.325774 0.383419 128 128 255 -0.269426 0.109640 -0.956760
0.079502 0.335043 0.383397 128 128 255 -0.335732 0.111021 -0.935392
0.082376 0.344522 0.383366 128 128 255 -0.432538 0.112154 -0.894613
0.084625 0.354168 0.383323 128 128 255 -0.580985 0.111409 -0.806253
0.086238 0.363942 0.383271 128 128 255 -0.801132 0.101938 -0.589743
0.087208 0.373800 0.383208 128 128 255 -0.992309 0.064530 -0.105632
0.087532 0.383701 0.383136 128 128 255 -0.983817 0.033346 0.176045
0.072397 -0.183692 0.357142 128 128 255 -0.718949 -0.016134 0.694875
0.072105 -0.174781 0.357053 128 128 255 -0.630964 -0.031440 0.775175
0.071232 -0.165909 0.356956 128 128 255 -0.460410 -0.049299 0.886336
0.069781 -0.157113 0.356850 128 128 255 -0.356019 -0.058390 0.932653
0.067758 -0.148432 0.356736 128 128 255 -0.287959 -0.063673 0.955524
0.065171 -0.139901 0.356615 128 128 255 -0.240473 -0.067067 0.968336
0.062033 -0.131559 0.356487 128 128 255 -0.205441 -0.069410 0.976205
0.058355 -0.123440 0.356353 128 128 255 -0.178436 -0.071116 0.981378
0.054155 -0.115579 0.356212 128 128 255 -0.156864 -0.072410 0.984962
0.049450 -0.108010 0.356067 128 128 255 -0.139123 -0.073422 0.987550
0.044260 -0.100765 0.355917 128 128 255 -0.124176 -0.074233 0.989480
0.038608 -0.093876 0.355763 128 128 255 -0.111322 -0.074894 0.990958
0.032517 -0.087371 0.355605 128 128 255 -0.100062 -0.075442 0.992117
0.026013 -0.081279 0.355445 128 128 255 -0.090048 -0.075900 0.993041
0.019126 -0.075625 0.355284 128 128 255 -0.081016 -0.076286 0.993789
0.011883 -0.070435 0.355120 128 128 255 -0.072763 -0.076614 0.994402
0.004316 -0.065729 0.354957 128 128 255 -0.065137 -0.076891 0.994910
-0.003542 -0.061529 0.354793 128 128 255 -0.058010 -0.077125 0.995332
-0.011659 -0.057852 0.354631 128 128 255 -0.051289 -0.077321 0.995686
-0.019999 -0.054714 0.354470 128 128 255 -0.044889 -0.077483 0.995983
-0.028526 -0.052128 0.354311 128 128 255 -0.038740 -0.077614 0.996231
-0.037205 -0.050105 0.354156 128 128 255 -0.032783 -0.077716 0.996436
-0.045998 -0.048655 0.354003 128 128 255 -0.026963 -0.077790 0.996605
-0.054867 -0.047782 0.353856 128 128 255 -0.021235 -0.077836 0.996740
-0.063774 -0.047492 0.353713 128 128 255 -0.015551 -0.077856 0.996843
-0.072682 -0.047785 0.353575 128 128 255 -0.009868 -0.077848 0.996916
-0.081552 -0.048660 0.353444 128 128 255 -0.004145 -0.077813 0.996959
-0.090346 -0.050113 0.353319 128 128 255 0.001667 -0.077748 0.996972
-0.099027 -0.052139 0.353201 128 128 255 0.007614 -0.077652 0.996951
-0.107557 -0.054727 0.353091 128 128 255 0.013748 -0.077524 0.996896
-0.115900 -0.057868 0.352990 128 128 255 0.020123 -0.077359 0.996800
-0.124020 -0.061548 0.352897 128 128 255 0.026811 -0.077153 0.996659
-0.131882 -0.065751 0.352813 128 128 255 0.033887 -0.076903 0.996463
-0.139453 -0.070459 0.352738 128 128 255 0.041450 -0.076600 0.996200
-0.146701 -0.075653 0.352673 128 128 255 0.049613 -0.076238 0.995855
-0.153593 -0.081309 0.352618 128 128 255 0.058521 -0.075803 0.995404
-0.160101 -0.087403 0.352573 128 128 255 0.068362 -0.075282 0.994816
-0.166197 -0.093910 0.352538 128 128 255 0.079383 -0.074655 0.994045
-0.171854 -0.100802 0.352514 128 128 255 0.091904 -0.073895 0.993022
-0.177048 -0.108049 0.352501 128 128 255 0.106386 -0.072961 0.991644
-0.181758 -0.115620 0.352498 128 128 255 0.123460 -0.071799 0.989749
-0.185963 -0.123483 0.352506 128 128 255 0.144054 -0.070322 0.987068
-0.189644 -0.131604 0.352525 128 128 255 0.169594 -0.068395 0.983138
-0.192787 -0.139948 0.352554 128 128 255 0.202332 -0.065793 0.977105
-0.195377 -0.148480 0.352594 128 128 255 0.246050 -0.062117 0.967265
-0.197404 -0.157162 0.352644 128 128 255 0.307541 -0.056589 0.949851
-0.198859 -0.165959 0.352704 128 128 255 0.399798 -0.047536 0.915370
-0.199735 -0.174832 0.352774 128 128 255 0.548152 -0.030907 0.835807
-0.200029 -0.183742 0.352853 128 128 255 0.786337 0.003314 0.617789
-0.199740 -0.192653 0.352942 128 128 255 0.995906 0.063223 0.064606
-0.198868 -0.201526 0.353040 128 128 255 0.836228 0.101992 -0.538813
-0.197418 -0.210322 0.353145 128 128 255 0.592301 0.106722 -0.798617
-0.195396 -0.219005 0.353259 128 128 255 0.435501 0.103923 -0.894169
-0.192810 -0.227537 0.353380 128 128 255 0.338348 0.100770 -0.935610
-0.189672 -0.235881 0.353509 128 128 255 0.274060 0.098200 -0.956686
-0.185994 -0.244002 0.353643 128 128 255 0.228647 0.096186 -0.968746
-0.181794 -0.251864 0.353783 128 128 255 0.194822 0.094596 -0.976266
-0.177088 -0.259435 0.353929 128 128 255 0.168528 0.093320 -0.981269
-0.171896 -0.266682 0.354079 128 128 255 0.147384 0.092277 -0.984765
-0.166242 -0.273573 0.354233 128 128 255 0.129897 0.091412 -0.987305
-0.160149 -0.280080 0.354390 128 128 255 0.115084 0.090684 -0.989208
-0.153644 -0.286174 0.354550 128 128 255 0.102280 0.090063 -0.990670
-0.146754 -0.291830 0.354712 128 128 255 0.091012 0.089531 -0.991817
-0.139508 -0.297022 0.354875 128 128 255 0.080939 0.089070 -0.992731
-0.131938 -0.301729 0.355039 128 128 255 0.071806 0.088669 -0.993470
-0.124077 -0.305931 0.355202 128 128 255 0.063415 0.088319 -0.994072
-0.115958 -0.309610 0.355365 128 128 255 0.055615 0.088014 -0.994565
-0.107615 -0.312749 0.355526 128 128 255 0.048280 0.087748 -0.994972
-0.099084 -0.315336 0.355684 128 128 255 0.041310 0.087518 -0.995306
-0.090403 -0.317359 0.355840 128 128 255 0.034617 0.087319 -0.995579
-0.081608 -0.318810 0.355992 128 128 255 0.028129 0.087151 -0.995798
-0.072736 -0.319683 0.356140 128 128 255 0.021778 0.087012 -0.995969
-0.063827 -0.319973 0.356283 128 128 255 0.015498 0.086900 -0.996096
-0.054917 -0.319679 0.356421 128 128 255 0.009234 0.086815 -0.996182
-0.046045 -0.318804 0.356552 128 128 255 0.002925 0.086757 -0.996225
-0.037250 -0.317349 0.356677 128 128 255 -0.003489 0.086726 -0.996226
-0.028569 -0.315323 0.356794 128 128 255 -0.010074 0.086723 -0.996182
-0.020038 -0.312733 0.356904 128 128 255 -0.016901 0.086749 -0.996087
-0.011695 -0.309590 0.357006 128 128 255 -0.024055 0.086806 -0.995935
-0.003575 -0.305909 0.357099 128 128 255 -0.031625 0.086897 -0.995715
0.004286 -0.301704 0.357183 128 128 255 -0.039733 0.087026 -0.995413
0.011856 -0.296994 0.357258 128 128 255 -0.048518 0.087196 -0.995009
0.019102 -0.291799 0.357323 128 128 255 -0.058165 0.087413 -0.994473
0.025993 -0.286141 0.357378 128 128 255 -0.068899 0.087685 -0.993763
0.032499 -0.280044 0.357423 128 128 255 -0.081038 0.088022 -0.992817
0.038592 -0.273535 0.357457 128 128 255 -0.094999 0.088437 -0.991541
0.044247 -0.266641 0.357481 128 128 255 -0.111376 0.088947 -0.989790
0.049439 -0.259393 0.357495 128 128 255 -0.131040 0.089577 -0.987322
0.054146 -0.251820 0.357497 128 128 255 -0.155280 0.090359 -0.983729
0.058348 -0.243956 0.357489 128 128 255 -0.186154 0.091335 -0.978266
0.062027 -0.235833 0.357471 128 128 255 -0.227092 0.092561 -0.969465
0.065167 -0.227488 0.357441 128 128 255 -0.284165 0.094086 -0.954148
0.067754 -0.218956 0.357402 128 128 255 -0.368929 0.095857 -0.924501
0.069779 -0.210272 0.357352 128 128 255 -0.504340 0.097194 -0.858018
0.071231 -0.201475 0.357292 128 128 255 -0.727731 0.093796 -0.679418
0.072105 -0.192602 0.357222 128 128 255 -0.979490 0.066217 -0.190299
0.072397 -0.183692 0.357142 128 128 255 -0.988351 0.033753 0.148404
0.052028 -0.183685 0.334346 128 128 255 -0.656217 -0.010905 0.754493
0.051781 -0.176107 0.334251 128 128 255 -0.680730 -0.032607 0.731809
0.051039 -0.168562 0.334147 128 128 255 -0.677355 -0.076260 0.731693
0.049805 -0.161082 0.334035 128 128 255 -0.671167 -0.119659 0.731585
0.048084 -0.153699 0.333916 128 128 255 -0.662181 -0.162626 0.731484
0.045885 -0.146444 0.333789 128 128 255 -0.650423 -0.204981 0.731391
0.043216 -0.139349 0.333656 128 128 255 -0.635930 -0.246546 0.731305
0.040089 -0.132444 0.333517 128 128 255 -0.618749 -0.287149 0.731228
0.036517 -0.125759 0.333373 128 128 255 -0.598941 -0.326610 0.731160
0.032516 -0.119322 0.333224 128 128 255 -0.576576 -0.364761 0.731101
0.028103 -0.113161 0.333071 128 128 255 -0.551738 -0.401434 0.731051
0.023296 -0.107302 0.332914 128 128 255 -0.524519 -0.436467 0.731010
0.018116 -0.101770 0.332755 128 128 255 -0.495024 -0.469703 0.730979
0.012586 -0.096589 0.332594 128 128 255 -0.463371 -0.500989 0.730956
