ply
format ascii 1.0
element vertex 695
property float x
property float y
property float z
property uchar red
property uchar green
property uchar blue
property float nx
property float ny
property float nz
end_header
0.212072 0.518258 0.350000 128 128 255 -0.222288 -0.837865 -0.498568
0.156520 0.529308 0.350000 128 128 255 -0.111023 -0.859711 -0.498568
0.100000 0.533013 0.350000 128 128 255 0.002142 -0.866848 -0.498568
0.043481 0.529308 0.350000 128 128 255 0.115270 -0.859152 -0.498568
-0.012072 0.518258 0.350000 128 128 255 0.226426 -0.836756 -0.498568
-0.065707 0.500052 0.350000 128 128 255 0.333707 -0.800043 -0.498568
-0.116506 0.475000 0.350000 128 128 255 0.435279 -0.749641 -0.498568
-0.163601 0.443532 0.350000 128 128 255 0.529403 -0.686413 -0.498568
-0.206186 0.406186 0.350000 128 128 255 0.614469 -0.611439 -0.498568
-0.243532 0.363601 0.350000 128 128 255 0.689021 -0.526004 -0.498568
-0.275000 0.316506 0.350000 128 128 255 0.751783 -0.431569 -0.498568
-0.300052 0.265707 0.350000 128 128 255 0.801683 -0.329750 -0.498568
-0.318258 0.212072 0.350000 128 128 255 0.837865 -0.222288 -0.498568
-0.329308 0.156520 0.350000 128 128 255 0.859711 -0.111023 -0.498568
-0.333013 0.100000 0.350000 128 128 255 0.866848 0.002142 -0.498568
-0.329308 0.043481 0.350000 128 128 255 0.859152 0.115270 -0.498568
-0.318258 -0.012072 0.350000 128 128 255 0.836756 0.226426 -0.498568
-0.300052 -0.065707 0.350000 128 128 255 0.800043 0.333707 -0.498568
-0.275000 -0.116506 0.350000 128 128 255 0.749641 0.435279 -0.498568
-0.243532 -0.163601 0.350000 128 128 255 0.686413 0.529403 -0.498568
-0.206186 -0.206186 0.350000 128 128 255 0.611439 0.614468 -0.498568
-0.163601 -0.243532 0.350000 128 128 255 0.526004 0.689020 -0.498568
-0.116506 -0.275000 0.350000 128 128 255 0.431569 0.751783 -0.498568
-0.065707 -0.300052 0.350000 128 128 255 0.329750 0.801683 -0.498568
-0.012072 -0.318258 0.350000 128 128 255 0.222288 0.837865 -0.498568
0.043481 -0.329308 0.350000 128 128 255 0.111023 0.859711 -0.498568
0.100000 -0.333013 0.350000 128 128 255 -0.002142 0.866848 -0.498568
0.156520 -0.329308 0.350000 128 128 255 -0.115270 0.859152 -0.498568
0.212072 -0.318258 0.350000 128 128 255 -0.226426 0.836756 -0.498568
0.265707 -0.300052 0.350000 128 128 255 -0.333707 0.800043 -0.498568
0.316506 -0.275000 0.350000 128 128 255 -0.435279 0.749641 -0.498568
0.363601 -0.243532 0.350000 128 128 255 -0.529403 0.686413 -0.498568
0.406186 -0.206186 0.350000 128 128 255 -0.614468 0.611439 -0.498568
0.443532 -0.163601 0.350000 128 128 255 -0.689021 0.526004 -0.498568
0.475000 -0.116506 0.350000 128 128 255 -0.751783 0.431569 -0.498568
0.500052 -0.065707 0.350000 128 128 255 -0.801683 0.329750 -0.498568
0.518258 -0.012072 0.350000 128 128 255 -0.837865 0.222288 -0.498568
0.529308 0.043481 0.350000 128 128 255 -0.859711 0.111023 -0.498568
0.533013 0.100000 0.350000 128 128 255 -0.854207 0.055988 -0.516910
0.561940 0.100000 0.291342 128 128 255 -0.930519 -0.060990 -0.361130
0.557988 0.160295 0.291342 128 128 255 -0.916209 -0.122275 -0.381588
0.546200 0.219559 0.291342 128 128 255 -0.892411 -0.240818 -0.381588
0.526777 0.276777 0.291342 128 128 255 -0.853343 -0.355241 -0.381588
0.500052 0.330970 0.291342 128 128 255 -0.799674 -0.463585 -0.381588
0.466481 0.381211 0.291342 128 128 255 -0.732323 -0.563997 -0.381588
0.426641 0.426641 0.291342 128 128 255 -0.652442 -0.654760 -0.381588
0.381211 0.466481 0.291342 128 128 255 -0.561396 -0.734319 -0.381588
0.330970 0.500052 0.291342 128 128 255 -0.460746 -0.801314 -0.381588
0.276777 0.526777 0.291342 128 128 255 -0.352212 -0.854598 -0.381588
0.219559 0.546200 0.291342 128 128 255 -0.237651 -0.893259 -0.381588
0.160295 0.557988 0.291342 128 128 255 -0.119024 -0.916637 -0.381588
0.100000 0.561940 0.291342 128 128 255 0.001639 -0.924331 -0.381588
0.039705 0.557988 0.291342 128 128 255 0.122275 -0.916209 -0.381588
-0.019559 0.546200 0.291342 128 128 255 0.240818 -0.892411 -0.381588
-0.076777 0.526777 0.291342 128 128 255 0.355241 -0.853343 -0.381588
-0.130970 0.500052 0.291342 128 128 255 0.463585 -0.799674 -0.381588
-0.181211 0.466481 0.291342 128 128 255 0.563997 -0.732323 -0.381588
-0.226641 0.426641 0.291342 128 128 255 0.654760 -0.652442 -0.381588
-0.266481 0.381211 0.291342 128 128 255 0.734319 -0.561396 -0.381588
-0.300052 0.330970 0.291342 128 128 255 0.801314 -0.460746 -0.381588
-0.326777 0.276777 0.291342 128 128 255 0.854598 -0.352212 -0.381588
-0.346200 0.219559 0.291342 128 128 255 0.893259 -0.237651 -0.381588
-0.357988 0.160295 0.291342 128 128 255 0.916637 -0.119024 -0.381588
-0.361940 0.100000 0.291342 128 128 255 0.924331 0.001639 -0.381588
-0.357988 0.039705 0.291342 128 128 255 0.916209 0.122275 -0.381588
-0.346200 -0.019559 0.291342 128 128 255 0.892411 0.240818 -0.381588
-0.326777 -0.076777 0.291342 128 128 255 0.853343 0.355241 -0.381588
-0.300052 -0.130970 0.291342 128 128 255 0.799674 0.463585 -0.381588
-0.266481 -0.181211 0.291342 128 128 255 0.732323 0.563998 -0.381588
-0.226641 -0.226641 0.291342 128 128 255 0.652442 0.654760 -0.381588
-0.181211 -0.266481 0.291342 128 128 255 0.561397 0.734319 -0.381588
-0.130970 -0.300052 0.291342 128 128 255 0.460746 0.801314 -0.381588
-0.076777 -0.326777 0.291342 128 128 255 0.352212 0.854598 -0.381588
-0.019559 -0.346200 0.291342 128 128 255 0.237651 0.893259 -0.381588
0.039705 -0.357988 0.291342 128 128 255 0.119024 0.916637 -0.381588
0.100000 -0.361940 0.291342 128 128 255 -0.001639 0.924331 -0.381588
0.160295 -0.357988 0.291342 128 128 255 -0.122275 0.916209 -0.381588
0.219559 -0.346200 0.291342 128 128 255 -0.240818 0.892411 -0.381588
0.276777 -0.326777 0.291342 128 128 255 -0.355241 0.853343 -0.381588
0.330970 -0.300052 0.291342 128 128 255 -0.463585 0.799674 -0.381588
0.381211 -0.266481 0.291342 128 128 255 -0.563998 0.732323 -0.381588
0.426641 -0.226641 0.291342 128 128 255 -0.654760 0.652442 -0.381588
0.466481 -0.181211 0.291342 128 128 255 -0.734319 0.561396 -0.381588
0.500052 -0.130970 0.291342 128 128 255 -0.801314 0.460746 -0.381588
0.526777 -0.076777 0.291342 128 128 255 -0.854598 0.352212 -0.381588
0.546200 -0.019559 0.291342 128 128 255 -0.893259 0.237651 -0.381588
0.557988 0.039705 0.291342 128 128 255 -0.916637 0.119024 -0.381588
0.561940 0.100000 0.291342 128 128 255 -0.914030 0.059909 -0.401198
0.582963 0.100000 0.229410 128 128 255 -0.911864 0.115475 -0.393917
0.578831 0.163039 0.229410 128 128 255 -0.840989 -0.052037 -0.538544
0.566506 0.225000 0.229410 128 128 255 -0.751412 -0.182615 -0.634060
0.546200 0.284822 0.229410 128 128 255 -0.695765 -0.311998 -0.646968
0.518258 0.341481 0.229410 128 128 255 -0.672026 -0.457697 -0.582146
0.483160 0.394009 0.229410 128 128 255 -0.660138 -0.621909 -0.421244
0.441506 0.441506 0.229410 128 128 255 -0.623112 -0.764529 -0.165008
0.394009 0.483160 0.229410 128 128 255 -0.545372 -0.832662 0.096144
0.341481 0.518258 0.229410 128 128 255 -0.460925 -0.850589 0.253074
0.284822 0.546200 0.229410 128 128 255 -0.392338 -0.877297 0.276445
0.225000 0.566506 0.229410 128 128 255 -0.324904 -0.931026 0.166219
0.163039 0.578831 0.229410 128 128 255 -0.227192 -0.971547 -0.066930
0.100000 0.582963 0.229410 128 128 255 -0.090798 -0.935943 -0.340244
0.036961 0.578831 0.229410 128 128 255 0.052037 -0.840989 -0.538544
-0.025000 0.566506 0.229410 128 128 255 0.182615 -0.751412 -0.634060
-0.084822 0.546200 0.229410 128 128 255 0.311998 -0.695765 -0.646968
-0.141481 0.518258 0.229410 128 128 255 0.457697 -0.672026 -0.582146
-0.194009 0.483160 0.229410 128 128 255 0.621909 -0.660138 -0.421244
-0.241506 0.441506 0.229410 128 128 255 0.764528 -0.623112 -0.165008
-0.283160 0.394009 0.229410 128 128 255 0.832662 -0.545372 0.096144
-0.318258 0.341481 0.229410 128 128 255 0.850589 -0.460925 0.253074
-0.346200 0.284822 0.229410 128 128 255 0.877296 -0.392338 0.276445
-0.366506 0.225000 0.229410 128 128 255 0.931026 -0.324904 0.166219
-0.378831 0.163039 0.229410 128 128 255 0.971547 -0.227192 -0.066930
-0.382963 0.100000 0.229410 128 128 255 0.935943 -0.090798 -0.340244
-0.378831 0.036961 0.229410 128 128 255 0.840989 0.052037 -0.538544
-0.366506 -0.025000 0.229410 128 128 255 0.751412 0.182615 -0.634060
-0.346200 -0.084822 0.229410 128 128 255 0.695765 0.311998 -0.646968
-0.318258 -0.141481 0.229410 128 128 255 0.672026 0.457697 -0.582146
-0.283160 -0.194009 0.229410 128 128 255 0.660138 0.621909 -0.421243
-0.241506 -0.241506 0.229410 128 128 255 0.623112 0.764529 -0.165009
-0.194009 -0.283160 0.229410 128 128 255 0.545372 0.832662 0.096144
-0.141481 -0.318258 0.229410 128 128 255 0.460925 0.850589 0.253074
-0.084822 -0.346200 0.229410 128 128 255 0.392338 0.877296 0.276445
-0.025000 -0.366506 0.229410 128 128 255 0.324904 0.931026 0.166219
0.036961 -0.378831 0.229410 128 128 255 0.227192 0.971547 -0.066930
0.100000 -0.382963 0.229410 128 128 255 0.090798 0.935943 -0.340244
0.163039 -0.378831 0.229410 128 128 255 -0.052037 0.840989 -0.538544
0.225000 -0.366506 0.229410 128 128 255 -0.182615 0.751412 -0.634060
0.284822 -0.346200 0.229410 128 128 255 -0.311998 0.695765 -0.646968
0.341481 -0.318258 0.229410 128 128 255 -0.457697 0.672026 -0.582146
0.394009 -0.283160 0.229410 128 128 255 -0.621909 0.660138 -0.421243
0.441506 -0.241506 0.229410 128 128 255 -0.764529 0.623112 -0.165008
0.483160 -0.194009 0.229410 128 128 255 -0.832662 0.545372 0.096144
0.518258 -0.141481 0.229410 128 128 255 -0.850589 0.460925 0.253074
0.546200 -0.084822 0.229410 128 128 255 -0.877297 0.392338 0.276445
0.566506 -0.025000 0.229410 128 128 255 -0.931026 0.324904 0.166219
0.578831 0.036961 0.229410 128 128 255 -0.971547 0.227192 -0.066930
0.582963 0.100000 0.229410 128 128 255 -0.958326 0.062812 -0.278687
0.595722 0.100000 0.165263 128 128 255 -0.900978 0.422528 -0.098534
0.628343 0.169558 0.165263 128 128 255 -0.932126 0.215975 -0.290682
0.641033 0.244969 0.165263 128 128 255 -0.875879 -0.060929 -0.478669
0.626686 0.318160 0.165263 128 128 255 -0.758363 -0.336950 -0.557988
0.585077 0.380059 0.165263 128 128 255 -0.612946 -0.583845 -0.532375
0.522779 0.424410 0.165263 128 128 255 -0.458817 -0.788557 -0.409468
0.450529 0.450529 0.165263 128 128 255 -0.321437 -0.925556 -0.200062
0.379143 0.463787 0.165263 128 128 255 -0.246649 -0.967443 0.056728
0.315663 0.473539 0.165263 128 128 255 -0.272789 -0.919498 0.283037
0.261249 0.489290 0.165263 128 128 255 -0.377329 -0.838047 0.394081
0.211635 0.516629 0.165263 128 128 255 -0.481149 -0.799485 0.359611
0.159852 0.554620 0.165263 128 128 255 -0.512271 -0.834201 0.204176
0.100000 0.595722 0.165263 128 128 255 -0.425958 -0.904088 -0.034406
0.030442 0.628343 0.165263 128 128 255 -0.215975 -0.932126 -0.290682
-0.044969 0.641033 0.165263 128 128 255 0.060929 -0.875879 -0.478669
-0.118160 0.626686 0.165263 128 128 255 0.336950 -0.758363 -0.557988
-0.180059 0.585077 0.165263 128 128 255 0.583845 -0.612946 -0.532375
-0.224410 0.522779 0.165263 128 128 255 0.788557 -0.458817 -0.409468
-0.250529 0.450529 0.165263 128 128 255 0.925556 -0.321437 -0.200062
-0.263787 0.379143 0.165263 128 128 255 0.967443 -0.246649 0.056728
-0.273539 0.315663 0.165263 128 128 255 0.919498 -0.272789 0.283037
-0.289290 0.261249 0.165263 128 128 255 0.838047 -0.377329 0.394081
-0.316629 0.211635 0.165263 128 128 255 0.799485 -0.481149 0.359611
-0.354620 0.159852 0.165263 128 128 255 0.834201 -0.512271 0.204176
-0.395722 0.100000 0.165263 128 128 255 0.904088 -0.425958 -0.034407
-0.428343 0.030442 0.165263 128 128 255 0.932126 -0.215976 -0.290681
-0.441033 -0.044969 0.165263 128 128 255 0.875879 0.060929 -0.478669
-0.426686 -0.118160 0.165263 128 128 255 0.758363 0.336950 -0.557988
-0.385077 -0.180059 0.165263 128 128 255 0.612946 0.583845 -0.532375
-0.322779 -0.224410 0.165263 128 128 255 0.458817 0.788557 -0.409468
-0.250529 -0.250529 0.165263 128 128 255 0.321437 0.925556 -0.200062
-0.179143 -0.263787 0.165263 128 128 255 0.246649 0.967443 0.056728
-0.115663 -0.273539 0.165263 128 128 255 0.272789 0.919498 0.283037
-0.061249 -0.289290 0.165263 128 128 255 0.377329 0.838047 0.394081
-0.011635 -0.316629 0.165263 128 128 255 0.481149 0.799485 0.359611
0.040148 -0.354620 0.165263 128 128 255 0.512271 0.834201 0.204176
0.100000 -0.395722 0.165263 128 128 255 0.425958 0.904088 -0.034407
0.169558 -0.428343 0.165263 128 128 255 0.215976 0.932126 -0.290682
0.244969 -0.441033 0.165263 128 128 255 -0.060929 0.875879 -0.478669
0.318160 -0.426686 0.165263 128 128 255 -0.336950 0.758363 -0.557988
0.380059 -0.385077 0.165263 128 128 255 -0.583845 0.612946 -0.532375
0.424410 -0.322779 0.165263 128 128 255 -0.788557 0.458817 -0.409468
0.450529 -0.250529 0.165263 128 128 255 -0.925556 0.321437 -0.200062
0.463787 -0.179143 0.165263 128 128 255 -0.967443 0.246649 0.056728
0.473539 -0.115663 0.165263 128 128 255 -0.919498 0.272789 0.283037
0.489290 -0.061249 0.165263 128 128 255 -0.838047 0.377329 0.394081
0.516629 -0.011635 0.165263 128 128 255 -0.799485 0.481149 0.359611
0.554620 0.040148 0.165263 128 128 255 -0.834201 0.512271 0.204176
0.595722 0.100000 0.165263 128 128 255 -0.903030 0.427729 0.039808
0.600000 0.100000 0.100000 128 128 255 -0.905209 0.424512 0.019664
0.632902 0.170158 0.100000 128 128 255 -0.954465 0.298321 0.001292
0.645702 0.246220 0.100000 128 128 255 -0.999938 -0.011147 0.000801
0.631231 0.320043 0.100000 128 128 255 -0.923880 -0.382683 -0.000000
0.589263 0.382476 0.100000 128 128 255 -0.714945 -0.699180 -0.000801
0.526427 0.427209 0.100000 128 128 255 -0.463964 -0.885853 -0.001292
0.453553 0.453553 0.100000 128 128 255 -0.264388 -0.964415 -0.001416
0.381552 0.466926 0.100000 128 128 255 -0.168189 -0.985754 -0.001234
0.317524 0.476763 0.100000 128 128 255 -0.211429 -0.977393 -0.000760
0.262640 0.492649 0.100000 128 128 255 -0.382683 -0.923880 0.000000
0.212599 0.520224 0.100000 128 128 255 -0.541619 -0.840624 0.000761
0.160368 0.558543 0.100000 128 128 255 -0.578106 -0.815961 0.001234
0.100000 0.600000 0.100000 128 128 255 -0.494994 -0.868895 0.001416
0.029842 0.632902 0.100000 128 128 255 -0.298321 -0.954465 0.001292
-0.046220 0.645702 0.100000 128 128 255 0.011147 -0.999938 0.000801
-0.120043 0.631231 0.100000 128 128 255 0.382683 -0.923880 -0.000000
-0.182476 0.589263 0.100000 128 128 255 0.699180 -0.714945 -0.000801
-0.227209 0.526427 0.100000 128 128 255 0.885853 -0.463964 -0.001292
-0.253553 0.453553 0.100000 128 128 255 0.964415 -0.264388 -0.001416
-0.266926 0.381552 0.100000 128 128 255 0.985754 -0.168189 -0.001235
-0.276763 0.317524 0.100000 128 128 255 0.977393 -0.211429 -0.000760
-0.292649 0.262640 0.100000 128 128 255 0.923880 -0.382683 0.000000
-0.320224 0.212599 0.100000 128 128 255 0.840624 -0.541619 0.000760
-0.358543 0.160368 0.100000 128 128 255 0.815961 -0.578106 0.001235
-0.400000 0.100000 0.100000 128 128 255 0.868895 -0.494994 0.001416
-0.432902 0.029842 0.100000 128 128 255 0.954465 -0.298321 0.001292
-0.445702 -0.046220 0.100000 128 128 255 0.999938 0.011147 0.000801
-0.431231 -0.120043 0.100000 128 128 255 0.923880 0.382683 0.000000
-0.389263 -0.182476 0.100000 128 128 255 0.714945 0.699180 -0.000801
-0.326427 -0.227209 0.100000 128 128 255 0.463964 0.885853 -0.001292
-0.253553 -0.253553 0.100000 128 128 255 0.264388 0.964415 -0.001416
-0.181552 -0.266926 0.100000 128 128 255 0.168189 0.985754 -0.001235
-0.117524 -0.276763 0.100000 128 128 255 0.211429 0.977393 -0.000760
-0.062640 -0.292649 0.100000 128 128 255 0.382683 0.923880 0.000000
-0.012599 -0.320224 0.100000 128 128 255 0.541619 0.840624 0.000760
0.039632 -0.358543 0.100000 128 128 255 0.578106 0.815961 0.001235
0.100000 -0.400000 0.100000 128 128 255 0.494994 0.868895 0.001416
0.170158 -0.432902 0.100000 128 128 255 0.298321 0.954465 0.001292
0.246220 -0.445702 0.100000 128 128 255 -0.011147 0.999938 0.000801
0.320043 -0.431231 0.100000 128 128 255 -0.382683 0.923880 0.000000
0.382476 -0.389263 0.100000 128 128 255 -0.699180 0.714945 -0.000801
0.427209 -0.326427 0.100000 128 128 255 -0.885853 0.463964 -0.001292
0.453553 -0.253553 0.100000 128 128 255 -0.964415 0.264388 -0.001416
0.466926 -0.181552 0.100000 128 128 255 -0.985754 0.168189 -0.001234
0.476763 -0.117524 0.100000 128 128 255 -0.977393 0.211429 -0.000760
0.492649 -0.062640 0.100000 128 128 255 -0.923880 0.382683 0.000000
0.520224 -0.012599 0.100000 128 128 255 -0.840624 0.541618 0.000761
0.558543 0.039632 0.100000 128 128 255 -0.815961 0.578106 0.001234
0.600000 0.100000 0.100000 128 128 255 -0.824206 0.566007 -0.017904
0.595722 0.100000 0.034737 128 128 255 -0.911993 0.276587 0.302933
0.628343 0.169558 0.034737 128 128 255 -0.882027 0.233161 0.409468
0.641033 0.244969 0.034737 128 128 255 -0.846259 -0.020577 0.532375
0.626686 0.318160 0.034737 128 128 255 -0.774503 -0.297983 0.557988
0.585077 0.380059 0.034737 128 128 255 -0.662423 -0.576256 0.478669
0.522779 0.424410 0.034737 128 128 255 -0.506395 -0.811830 0.290681
0.450529 0.450529 0.034737 128 128 255 -0.338089 -0.940485 0.034406
0.379143 0.463787 0.034737 128 128 255 -0.227639 -0.952099 -0.204176
0.315663 0.473539 0.034737 128 128 255 -0.225098 -0.905545 -0.359611
0.261249 0.489290 0.034737 128 128 255 -0.325776 -0.859401 -0.394081
0.211635 0.516629 0.034737 128 128 255 -0.457292 -0.843074 -0.283037
0.159852 0.554620 0.034737 128 128 255 -0.509678 -0.858493 -0.056728
0.100000 0.595722 0.034737 128 128 255 -0.427177 -0.881757 0.200062
0.030442 0.628343 0.034737 128 128 255 -0.233161 -0.882027 0.409468
-0.044969 0.641033 0.034737 128 128 255 0.020577 -0.846259 0.532375
-0.118160 0.626686 0.034737 128 128 255 0.297983 -0.774503 0.557988
-0.180059 0.585077 0.034737 128 128 255 0.576256 -0.662423 0.478669
-0.224410 0.522779 0.034737 128 128 255 0.811830 -0.506395 0.290682
-0.250529 0.450529 0.034737 128 128 255 0.940485 -0.338089 0.034406
-0.263787 0.379143 0.034737 128 128 255 0.952099 -0.227639 -0.204176
-0.273539 0.315663 0.034737 128 128 255 0.905545 -0.225097 -0.359611
-0.289290 0.261249 0.034737 128 128 255 0.859401 -0.325777 -0.394081
-0.316629 0.211635 0.034737 128 128 255 0.843074 -0.457292 -0.283037
-0.354620 0.159852 0.034737 128 128 255 0.858493 -0.509678 -0.056728
-0.395722 0.100000 0.034737 128 128 255 0.881757 -0.427177 0.200062
-0.428343 0.030442 0.034737 128 128 255 0.882027 -0.233162 0.409468
-0.441033 -0.044969 0.034737 128 128 255 0.846259 0.020577 0.532375
-0.426686 -0.118160 0.034737 128 128 255 0.774503 0.297983 0.557988
-0.385077 -0.180059 0.034737 128 128 255 0.662423 0.576257 0.478669
-0.322779 -0.224410 0.034737 128 128 255 0.506395 0.811830 0.290681
-0.250529 -0.250529 0.034737 128 128 255 0.338089 0.940485 0.034406
-0.179143 -0.263787 0.034737 128 128 255 0.227639 0.952099 -0.204176
-0.115663 -0.273539 0.034737 128 128 255 0.225097 0.905545 -0.359611
-0.061249 -0.289290 0.034737 128 128 255 0.325777 0.859401 -0.394081
-0.011635 -0.316629 0.034737 128 128 255 0.457292 0.843074 -0.283037
0.040148 -0.354620 0.034737 128 128 255 0.509678 0.858493 -0.056728
0.100000 -0.395722 0.034737 128 128 255 0.427177 0.881757 0.200062
0.169558 -0.428343 0.034737 128 128 255 0.233162 0.882027 0.409468
0.244969 -0.441033 0.034737 128 128 255 -0.020577 0.846259 0.532375
0.318160 -0.426686 0.034737 128 128 255 -0.297983 0.774503 0.557988
0.380059 -0.385077 0.034737 128 128 255 -0.576257 0.662423 0.478669
0.424410 -0.322779 0.034737 128 128 255 -0.811830 0.506395 0.290681
0.450529 -0.250529 0.034737 128 128 255 -0.940485 0.338089 0.034406
0.463787 -0.179143 0.034737 128 128 255 -0.952099 0.227639 -0.204176
0.473539 -0.115663 0.034737 128 128 255 -0.905545 0.225098 -0.359611
0.489290 -0.061249 0.034737 128 128 255 -0.859401 0.325776 -0.394081
0.516629 -0.011635 0.034737 128 128 255 -0.843074 0.457292 -0.283037
0.554620 0.040148 0.034737 128 128 255 -0.858493 0.509678 -0.056728
0.595722 0.100000 0.034737 128 128 255 -0.821009 0.563811 0.089788
0.582963 0.100000 -0.029410 128 128 255 -0.958326 -0.062812 0.278687
0.578831 0.163039 -0.029410 128 128 255 -0.906545 -0.027032 0.421243
0.566506 0.225000 -0.029410 128 128 255 -0.798835 -0.151553 0.582146
0.546200 0.284822 -0.029410 128 128 255 -0.712596 -0.271364 0.646968
0.518258 0.341481 -0.029410 128 128 255 -0.660457 -0.402200 0.634060
0.483160 0.394009 -0.029410 128 128 255 -0.631464 -0.557873 0.538545
0.441506 0.441506 -0.029410 128 128 255 -0.597608 -0.726016 0.340244
0.394009 0.483160 -0.029410 128 128 255 -0.526339 -0.847637 0.066931
0.341481 0.518258 -0.029410 128 128 255 -0.428593 -0.888076 -0.166219
0.284822 0.546200 -0.029410 128 128 255 -0.342917 -0.897767 -0.276445
0.225000 0.566506 -0.029410 128 128 255 -0.275534 -0.927381 -0.253074
0.163039 0.578831 -0.029410 128 128 255 -0.203144 -0.974417 -0.096144
0.100000 0.582963 -0.029410 128 128 255 -0.099997 -0.981210 0.165008
0.036961 0.578831 -0.029410 128 128 255 0.027032 -0.906545 0.421243
-0.025000 0.566506 -0.029410 128 128 255 0.151553 -0.798835 0.582146
-0.084822 0.546200 -0.029410 128 128 255 0.271364 -0.712596 0.646968
-0.141481 0.518258 -0.029410 128 128 255 0.402200 -0.660457 0.634060
-0.194009 0.483160 -0.029410 128 128 255 0.557873 -0.631464 0.538544
-0.241506 0.441506 -0.029410 128 128 255 0.726016 -0.597608 0.340244
-0.283160 0.394009 -0.029410 128 128 255 0.847636 -0.526339 0.066931
-0.318258 0.341481 -0.029410 128 128 255 0.888076 -0.428593 -0.166219
-0.346200 0.284822 -0.029410 128 128 255 0.897767 -0.342917 -0.276445
-0.366506 0.225000 -0.029410 128 128 255 0.927380 -0.275535 -0.253074
-0.378831 0.163039 -0.029410 128 128 255 0.974417 -0.203144 -0.096144
-0.382963 0.100000 -0.029410 128 128 255 0.981210 -0.099997 0.165008
-0.378831 0.036961 -0.029410 128 128 255 0.906545 0.027032 0.421243
-0.366506 -0.025000 -0.029410 128 128 255 0.798835 0.151553 0.582146
-0.346200 -0.084822 -0.029410 128 128 255 0.712596 0.271364 0.646969
-0.318258 -0.141481 -0.029410 128 128 255 0.660457 0.402200 0.634060
-0.283160 -0.194009 -0.029410 128 128 255 0.631464 0.557873 0.538544
-0.241506 -0.241506 -0.029410 128 128 255 0.597608 0.726016 0.340244
-0.194009 -0.283160 -0.029410 128 128 255 0.526339 0.847636 0.066931
-0.141481 -0.318258 -0.029410 128 128 255 0.428593 0.888076 -0.166219
-0.084822 -0.346200 -0.029410 128 128 255 0.342917 0.897767 -0.276445
-0.025000 -0.366506 -0.029410 128 128 255 0.275534 0.927380 -0.253074
0.036961 -0.378831 -0.029410 128 128 255 0.203144 0.974417 -0.096144
0.100000 -0.382963 -0.029410 128 128 255 0.099997 0.981210 0.165008
0.163039 -0.378831 -0.029410 128 128 255 -0.027032 0.906545 0.421243
0.225000 -0.366506 -0.029410 128 128 255 -0.151553 0.798835 0.582146
0.284822 -0.346200 -0.029410 128 128 255 -0.271364 0.712596 0.646968
0.341481 -0.318258 -0.029410 128 128 255 -0.402200 0.660457 0.634060
0.394009 -0.283160 -0.029410 128 128 255 -0.557873 0.631464 0.538544
0.441506 -0.241506 -0.029410 128 128 255 -0.726016 0.597608 0.340244
0.483160 -0.194009 -0.029410 128 128 255 -0.847636 0.526339 0.066931
0.518258 -0.141481 -0.029410 128 128 255 -0.888076 0.428593 -0.166219
0.546200 -0.084822 -0.029410 128 128 255 -0.897767 0.342917 -0.276445
0.566506 -0.025000 -0.029410 128 128 255 -0.927381 0.275534 -0.253074
0.578831 0.036961 -0.029410 128 128 255 -0.974417 0.203144 -0.096144
0.582963 0.100000 -0.029410 128 128 255 -0.964966 0.258490 0.044991
0.561940 0.100000 -0.091342 128 128 255 -0.914030 -0.059909 0.401198
0.557988 0.160295 -0.091342 128 128 255 -0.916637 -0.119024 0.381588
0.546200 0.219559 -0.091342 128 128 255 -0.893259 -0.237651 0.381588
0.526777 0.276777 -0.091342 128 128 255 -0.854598 -0.352212 0.381588
0.500052 0.330970 -0.091342 128 128 255 -0.801314 -0.460746 0.381588
0.466481 0.381211 -0.091342 128 128 255 -0.734319 -0.561396 0.381588
0.426641 0.426641 -0.091342 128 128 255 -0.654760 -0.652442 0.381588
0.381211 0.466481 -0.091342 128 128 255 -0.563997 -0.732323 0.381588
0.330970 0.500052 -0.091342 128 128 255 -0.463585 -0.799675 0.381588
0.276777 0.526777 -0.091342 128 128 255 -0.355241 -0.853343 0.381588
0.219559 0.546200 -0.091342 128 128 255 -0.240818 -0.892411 0.381588
0.160295 0.557988 -0.091342 128 128 255 -0.122275 -0.916209 0.381588
0.100000 0.561940 -0.091342 128 128 255 -0.001639 -0.924331 0.381588
0.039705 0.557988 -0.091342 128 128 255 0.119024 -0.916637 0.381588
-0.019559 0.546200 -0.091342 128 128 255 0.237651 -0.893259 0.381588
-0.076777 0.526777 -0.091342 128 128 255 0.352212 -0.854598 0.381588
-0.130970 0.500052 -0.091342 128 128 255 0.460746 -0.801314 0.381588
-0.181211 0.466481 -0.091342 128 128 255 0.561396 -0.734319 0.381588
-0.226641 0.426641 -0.091342 128 128 255 0.652442 -0.654760 0.381588
-0.266481 0.381211 -0.091342 128 128 255 0.732323 -0.563998 0.381588
-0.300052 0.330970 -0.091342 128 128 255 0.799675 -0.463585 0.381588
-0.326777 0.276777 -0.091342 128 128 255 0.853343 -0.355241 0.381588
-0.346200 0.219559 -0.091342 128 128 255 0.892411 -0.240818 0.381588
-0.357988 0.160295 -0.091342 128 128 255 0.916209 -0.122275 0.381588
-0.361940 0.100000 -0.091342 128 128 255 0.924331 -0.001639 0.381588
-0.357988 0.039705 -0.091342 128 128 255 0.916637 0.119024 0.381588
-0.346200 -0.019559 -0.091342 128 128 255 0.893259 0.237651 0.381588
-0.326777 -0.076777 -0.091342 128 128 255 0.854598 0.352212 0.381588
-0.300052 -0.130970 -0.091342 128 128 255 0.801314 0.460746 0.381588
-0.266481 -0.181211 -0.091342 128 128 255 0.734319 0.561396 0.381588
-0.226641 -0.226641 -0.091342 128 128 255 0.654760 0.652442 0.381588
-0.181211 -0.266481 -0.091342 128 128 255 0.563998 0.732323 0.381588
-0.130970 -0.300052 -0.091342 128 128 255 0.463585 0.799674 0.381588
-0.076777 -0.326777 -0.091342 128 128 255 0.355241 0.853343 0.381588
-0.019559 -0.346200 -0.091342 128 128 255 0.240818 0.892411 0.381588
0.039705 -0.357988 -0.091342 128 128 255 0.122275 0.916209 0.381588
0.100000 -0.361940 -0.091342 128 128 255 0.001639 0.924331 0.381588
0.160295 -0.357988 -0.091342 128 128 255 -0.119024 0.916637 0.381588
0.219559 -0.346200 -0.091342 128 128 255 -0.237651 0.893259 0.381588
0.276777 -0.326777 -0.091342 128 128 255 -0.352212 0.854598 0.381588
0.330970 -0.300052 -0.091342 128 128 255 -0.460746 0.801314 0.381588
0.381211 -0.266481 -0.091342 128 128 255 -0.561396 0.734319 0.381588
0.426641 -0.226641 -0.091342 128 128 255 -0.652442 0.654760 0.381588
0.466481 -0.181211 -0.091342 128 128 255 -0.732323 0.563998 0.381588
0.500052 -0.130970 -0.091342 128 128 255 -0.799674 0.463585 0.381588
0.526777 -0.076777 -0.091342 128 128 255 -0.853343 0.355241 0.381588
0.546200 -0.019559 -0.091342 128 128 255 -0.892411 0.240818 0.381588
0.557988 0.039705 -0.091342 128 128 255 -0.916209 0.122275 0.381588
0.561940 0.100000 -0.091342 128 128 255 -0.930519 0.060990 0.361130
0.533013 0.100000 -0.150000 128 128 255 -0.854207 -0.055988 0.516910
0.529308 0.156520 -0.150000 128 128 255 -0.859711 -0.111023 0.498568
0.518258 0.212072 -0.150000 128 128 255 -0.837865 -0.222288 0.498568
0.500052 0.265707 -0.150000 128 128 255 -0.801683 -0.329750 0.498568
0.475000 0.316506 -0.150000 128 128 255 -0.751783 -0.431569 0.498568
0.443532 0.363601 -0.150000 128 128 255 -0.689021 -0.526004 0.498568
0.406186 0.406186 -0.150000 128 128 255 -0.614468 -0.611440 0.498568
0.363601 0.443532 -0.150000 128 128 255 -0.529403 -0.686413 0.498568
0.316506 0.475000 -0.150000 128 128 255 -0.435279 -0.749641 0.498568
0.265707 0.500052 -0.150000 128 128 255 -0.333707 -0.800043 0.498568
0.212072 0.518258 -0.150000 128 128 255 -0.226426 -0.836756 0.498568
0.156520 0.529308 -0.150000 128 128 255 -0.115270 -0.859152 0.498568
0.100000 0.533013 -0.150000 128 128 255 -0.002142 -0.866848 0.498568
0.043481 0.529308 -0.150000 128 128 255 0.111023 -0.859711 0.498568
-0.012072 0.518258 -0.150000 128 128 255 0.222288 -0.837865 0.498568
-0.065707 0.500052 -0.150000 128 128 255 0.329750 -0.801683 0.498568
-0.116506 0.475000 -0.150000 128 128 255 0.431569 -0.751783 0.498568
-0.163601 0.443532 -0.150000 128 128 255 0.526004 -0.689021 0.498568
-0.206186 0.406186 -0.150000 128 128 255 0.611440 -0.614468 0.498568
-0.243532 0.363601 -0.150000 128 128 255 0.686413 -0.529403 0.498568
-0.275000 0.316506 -0.150000 128 128 255 0.749641 -0.435279 0.498568
-0.300052 0.265707 -0.150000 128 128 255 0.800043 -0.333707 0.498568
-0.318258 0.212072 -0.150000 128 128 255 0.836756 -0.226426 0.498568
-0.329308 0.156520 -0.150000 128 128 255 0.859152 -0.115270 0.498568
-0.333013 0.100000 -0.150000 128 128 255 0.866848 -0.002142 0.498568
-0.329308 0.043481 -0.150000 128 128 255 0.859711 0.111023 0.498568
-0.318258 -0.012072 -0.150000 128 128 255 0.837865 0.222288 0.498568
-0.300052 -0.065707 -0.150000 128 128 255 0.801683 0.329750 0.498568
-0.275000 -0.116506 -0.150000 128 128 255 0.751783 0.431569 0.498568
-0.243532 -0.163601 -0.150000 128 128 255 0.689020 0.526004 0.498568
-0.206186 -0.206186 -0.150000 128 128 255 0.614468 0.611439 0.498568
-0.163601 -0.243532 -0.150000 128 128 255 0.529403 0.686413 0.498568
-0.116506 -0.275000 -0.150000 128 128 255 0.435279 0.749641 0.498568
-0.065707 -0.300052 -0.150000 128 128 255 0.333707 0.800043 0.498568
-0.012072 -0.318258 -0.150000 128 128 255 0.226426 0.836756 0.498568
0.043481 -0.329308 -0.150000 128 128 255 0.115270 0.859152 0.498568
0.100000 -0.333013 -0.150000 128 128 255 0.002142 0.866848 0.498568
0.156520 -0.329308 -0.150000 128 128 255 -0.111023 0.859711 0.498568
0.212072 -0.318258 -0.150000 128 128 255 -0.222288 0.837865 0.498568
0.265707 -0.300052 -0.150000 128 128 255 -0.329750 0.801683 0.498568
0.316506 -0.275000 -0.150000 128 128 255 -0.431569 0.751783 0.498568
0.363601 -0.243532 -0.150000 128 128 255 -0.526004 0.689021 0.498568
0.406186 -0.206186 -0.150000 128 128 255 -0.611439 0.614469 0.498568
0.443532 -0.163601 -0.150000 128 128 255 -0.686413 0.529403 0.498568
0.475000 -0.116506 -0.150000 128 128 255 -0.749641 0.435279 0.498568
0.500052 -0.065707 -0.150000 128 128 255 -0.800043 0.333707 0.498568
0.518258 -0.012072 -0.150000 128 128 255 -0.836756 0.226426 0.498568
0.529308 0.043481 -0.150000 128 128 255 -0.859152 0.115270 0.498568
0.533013 0.100000 -0.150000 128 128 255 -0.875751 0.057400 0.479339
0.496677 0.100000 -0.204381 128 128 255 -0.779873 -0.051116 0.623847
0.493283 0.151777 -0.204381 128 128 255 -0.788226 -0.101142 0.607017
0.483160 0.202667 -0.204381 128 128 255 -0.768281 -0.203161 0.607017
0.466481 0.251802 -0.204381 128 128 255 -0.735191 -0.301703 0.607017
0.443532 0.298338 -0.204381 128 128 255 -0.689521 -0.395084 0.607017
0.414705 0.341481 -0.204381 128 128 255 -0.632053 -0.481704 0.607017
0.380493 0.380493 -0.204381 128 128 255 -0.563771 -0.560083 0.607017
0.341481 0.414705 -0.204381 128 128 255 -0.485842 -0.628878 0.607017
0.298338 0.443532 -0.204381 128 128 255 -0.399601 -0.686913 0.607017
0.251802 0.466481 -0.204381 128 128 255 -0.306522 -0.733195 0.607017
0.202667 0.483160 -0.204381 128 128 255 -0.208198 -0.766931 0.607017
0.151777 0.493283 -0.204381 128 128 255 -0.106313 -0.787546 0.607017
0.100000 0.496677 -0.204381 128 128 255 -0.002608 -0.794685 0.607017
0.048223 0.493283 -0.204381 128 128 255 0.101142 -0.788226 0.607017
-0.002667 0.483160 -0.204381 128 128 255 0.203161 -0.768281 0.607017
-0.051802 0.466481 -0.204381 128 128 255 0.301703 -0.735191 0.607017
-0.098338 0.443532 -0.204381 128 128 255 0.395084 -0.689521 0.607017
-0.141481 0.414705 -0.204381 128 128 255 0.481705 -0.632053 0.607017
-0.180493 0.380493 -0.204381 128 128 255 0.560083 -0.563771 0.607017
-0.214705 0.341481 -0.204381 128 128 255 0.628878 -0.485842 0.607017
-0.243532 0.298338 -0.204381 128 128 255 0.686913 -0.399601 0.607017
-0.266481 0.251802 -0.204381 128 128 255 0.733195 -0.306522 0.607017
-0.283160 0.202667 -0.204381 128 128 255 0.766931 -0.208198 0.607017
-0.293283 0.151777 -0.204381 128 128 255 0.787546 -0.106312 0.607017
-0.296677 0.100000 -0.204381 128 128 255 0.794685 -0.002608 0.607017
-0.293283 0.048223 -0.204381 128 128 255 0.788226 0.101142 0.607017
-0.283160 -0.002667 -0.204381 128 128 255 0.768281 0.203161 0.607017
-0.266481 -0.051802 -0.204381 128 128 255 0.735191 0.301703 0.607017
-0.243532 -0.098338 -0.204381 128 128 255 0.689521 0.395084 0.607017
-0.214705 -0.141481 -0.204381 128 128 255 0.632053 0.481705 0.607017
-0.180493 -0.180493 -0.204381 128 128 255 0.563771 0.560083 0.607017
-0.141481 -0.214705 -0.204381 128 128 255 0.485842 0.628878 0.607017
-0.098338 -0.243532 -0.204381 128 128 255 0.399601 0.686913 0.607017
-0.051802 -0.266481 -0.204381 128 128 255 0.306522 0.733195 0.607017
-0.002667 -0.283160 -0.204381 128 128 255 0.208198 0.766931 0.607017
0.048223 -0.293283 -0.204381 128 128 255 0.106312 0.787546 0.607017
0.100000 -0.296677 -0.204381 128 128 255 0.002608 0.794685 0.607017
0.151777 -0.293283 -0.204381 128 128 255 -0.101142 0.788226 0.607017
0.202667 -0.283160 -0.204381 128 128 255 -0.203161 0.768281 0.607017
0.251802 -0.266481 -0.204381 128 128 255 -0.301703 0.735191 0.607017
0.298338 -0.243532 -0.204381 128 128 255 -0.395084 0.689521 0.607017
0.341481 -0.214705 -0.204381 128 128 255 -0.481704 0.632053 0.607017
0.380493 -0.180493 -0.204381 128 128 255 -0.560083 0.563771 0.607017
0.414705 -0.141481 -0.204381 128 128 255 -0.628878 0.485842 0.607017
0.443532 -0.098338 -0.204381 128 128 255 -0.686913 0.399601 0.607017
0.466481 -0.051802 -0.204381 128 128 255 -0.733195 0.306522 0.607017
0.483160 -0.002667 -0.204381 128 128 255 -0.766931 0.208198 0.607017
0.493283 0.048223 -0.204381 128 128 255 -0.787546 0.106313 0.607017
0.496677 0.100000 -0.204381 128 128 255 -0.806098 0.052835 0.589419
0.453553 0.100000 -0.253553 128 128 255 -0.692311 -0.045376 0.720171
0.450529 0.146148 -0.253553 128 128 255 -0.703452 -0.089556 0.705078
0.441506 0.191506 -0.253553 128 128 255 -0.685744 -0.180609 0.705078
0.426641 0.235299 -0.253553 128 128 255 -0.656303 -0.268571 0.705078
0.406186 0.276777 -0.253553 128 128 255 -0.615633 -0.351938 0.705078
0.380493 0.315230 -0.253553 128 128 255 -0.564429 -0.429284 0.705078
0.350000 0.350000 -0.253553 128 128 255 -0.503567 -0.499284 0.705079
0.315230 0.380493 -0.253553 128 128 255 -0.434090 -0.560741 0.705079
0.276777 0.406186 -0.253553 128 128 255 -0.357185 -0.612604 0.705079
0.235299 0.426641 -0.253553 128 128 255 -0.274168 -0.653985 0.705078
0.191506 0.441506 -0.253553 128 128 255 -0.186460 -0.684176 0.705078
0.146148 0.450529 -0.253553 128 128 255 -0.095562 -0.702661 0.705078
0.100000 0.453553 -0.253553 128 128 255 -0.003029 -0.709123 0.705078
0.053852 0.450529 -0.253553 128 128 255 0.089556 -0.703452 0.705078
0.008494 0.441506 -0.253553 128 128 255 0.180609 -0.685744 0.705078
-0.035299 0.426641 -0.253553 128 128 255 0.268571 -0.656303 0.705078
-0.076777 0.406186 -0.253553 128 128 255 0.351938 -0.615633 0.705078
-0.115230 0.380493 -0.253553 128 128 255 0.429284 -0.564429 0.705078
-0.150000 0.350000 -0.253553 128 128 255 0.499284 -0.503567 0.705078
-0.180493 0.315230 -0.253553 128 128 255 0.560741 -0.434090 0.705078
-0.206186 0.276777 -0.253553 128 128 255 0.612604 -0.357185 0.705078
-0.226641 0.235299 -0.253553 128 128 255 0.653985 -0.274168 0.705078
-0.241506 0.191506 -0.253553 128 128 255 0.684176 -0.186460 0.705078
-0.250529 0.146148 -0.253553 128 128 255 0.702661 -0.095562 0.705078
-0.253553 0.100000 -0.253553 128 128 255 0.709123 -0.003029 0.705078
-0.250529 0.053852 -0.253553 128 128 255 0.703452 0.089556 0.705078
-0.241506 0.008494 -0.253553 128 128 255 0.685744 0.180609 0.705078
-0.226641 -0.035299 -0.253553 128 128 255 0.656303 0.268571 0.705078
-0.206186 -0.076777 -0.253553 128 128 255 0.615633 0.351938 0.705078
-0.180493 -0.115230 -0.253553 128 128 255 0.564429 0.429284 0.705078
-0.150000 -0.150000 -0.253553 128 128 255 0.503567 0.499284 0.705078
-0.115230 -0.180493 -0.253553 128 128 255 0.434090 0.560741 0.705078
-0.076777 -0.206186 -0.253553 128 128 255 0.357185 0.612604 0.705078
-0.035299 -0.226641 -0.253553 128 128 255 0.274168 0.653985 0.705078
0.008494 -0.241506 -0.253553 128 128 255 0.186460 0.684176 0.705078
0.053852 -0.250529 -0.253553 128 128 255 0.095562 0.702661 0.705078
0.100000 -0.253553 -0.253553 128 128 255 0.003029 0.709123 0.705078
0.146148 -0.250529 -0.253553 128 128 255 -0.089556 0.703452 0.705078
0.191506 -0.241506 -0.253553 128 128 255 -0.180609 0.685744 0.705078
0.235299 -0.226641 -0.253553 128 128 255 -0.268571 0.656303 0.705078
0.276777 -0.206186 -0.253553 128 128 255 -0.351938 0.615633 0.705078
0.315230 -0.180493 -0.253553 128 128 255 -0.429284 0.564429 0.705078
0.350000 -0.150000 -0.253553 128 128 255 -0.499284 0.503567 0.705079
0.380493 -0.115230 -0.253553 128 128 255 -0.560741 0.434090 0.705079
0.406186 -0.076777 -0.253553 128 128 255 -0.612604 0.357185 0.705078
0.426641 -0.035299 -0.253553 128 128 255 -0.653985 0.274168 0.705078
0.441506 0.008494 -0.253553 128 128 255 -0.684176 0.186460 0.705078
0.450529 0.053852 -0.253553 128 128 255 -0.702661 0.095562 0.705078
0.453553 0.100000 -0.253553 128 128 255 -0.722750 0.047372 0.689485
0.404381 0.100000 -0.296677 128 128 255 -0.593067 -0.038872 0.804214
0.401777 0.139730 -0.296677 128 128 255 -0.606921 -0.076475 0.791074
0.394009 0.178780 -0.296677 128 128 255 -0.591747 -0.155040 0.791074
0.381211 0.216481 -0.296677 128 128 255 -0.566447 -0.230952 0.791074
0.363601 0.252190 -0.296677 128 128 255 -0.531456 -0.302912 0.791074
0.341481 0.285295 -0.296677 128 128 255 -0.487371 -0.369690 0.791074
0.315230 0.315230 -0.296677 128 128 255 -0.434948 -0.430142 0.791074
0.285295 0.341481 -0.296677 128 128 255 -0.375082 -0.483234 0.791074
0.252190 0.363601 -0.296677 128 128 255 -0.308798 -0.528058 0.791074
0.216481 0.381211 -0.296677 128 128 255 -0.237231 -0.563846 0.791074
0.178780 0.394009 -0.296677 128 128 255 -0.161605 -0.589987 0.791074
0.139730 0.401777 -0.296677 128 128 255 -0.083213 -0.606034 0.791074
0.100000 0.404381 -0.296677 128 128 255 -0.003398 -0.611711 0.791074
0.060270 0.401777 -0.296677 128 128 255 0.076475 -0.606921 0.791074
0.021220 0.394009 -0.296677 128 128 255 0.155040 -0.591747 0.791074
-0.016481 0.381211 -0.296677 128 128 255 0.230952 -0.566447 0.791074
-0.052190 0.363601 -0.296677 128 128 255 0.302912 -0.531456 0.791074
-0.085295 0.341481 -0.296677 128 128 255 0.369690 -0.487371 0.791074
-0.115230 0.315230 -0.296677 128 128 255 0.430142 -0.434948 0.791074
-0.141481 0.285295 -0.296677 128 128 255 0.483234 -0.375082 0.791074
-0.163601 0.252190 -0.296677 128 128 255 0.528058 -0.308798 0.791074
-0.181211 0.216481 -0.296677 128 128 255 0.563846 -0.237231 0.791074
-0.194009 0.178780 -0.296677 128 128 255 0.589987 -0.161605 0.791074
-0.201777 0.139730 -0.296677 128 128 255 0.606034 -0.083214 0.791074
-0.204381 0.100000 -0.296677 128 128 255 0.611710 -0.003398 0.791074
-0.201777 0.060270 -0.296677 128 128 255 0.606921 0.076475 0.791074
-0.194009 0.021220 -0.296677 128 128 255 0.591747 0.155040 0.791074
-0.181211 -0.016481 -0.296677 128 128 255 0.566447 0.230952 0.791074
-0.163601 -0.052190 -0.296677 128 128 255 0.531456 0.302912 0.791074
-0.141481 -0.085295 -0.296677 128 128 255 0.487371 0.369690 0.791074
-0.115230 -0.115230 -0.296677 128 128 255 0.434948 0.430142 0.791074
-0.085295 -0.141481 -0.296677 128 128 255 0.375082 0.483234 0.791074
-0.052190 -0.163601 -0.296677 128 128 255 0.308798 0.528058 0.791074
-0.016481 -0.181211 -0.296677 128 128 255 0.237231 0.563846 0.791074
0.021220 -0.194009 -0.296677 128 128 255 0.161605 0.589987 0.791074
0.060270 -0.201777 -0.296677 128 128 255 0.083214 0.606034 0.791074
0.100000 -0.204381 -0.296677 128 128 255 0.003398 0.611710 0.791074
0.139730 -0.201777 -0.296677 128 128 255 -0.076475 0.606921 0.791074
0.178780 -0.194009 -0.296677 128 128 255 -0.155040 0.591747 0.791074
0.216481 -0.181211 -0.296677 128 128 255 -0.230952 0.566447 0.791074
0.252190 -0.163601 -0.296677 128 128 255 -0.302912 0.531456 0.791074
0.285295 -0.141481 -0.296677 128 128 255 -0.369690 0.487371 0.791074
0.315230 -0.115230 -0.296677 128 128 255 -0.430142 0.434948 0.791074
0.341481 -0.085295 -0.296677 128 128 255 -0.483234 0.375082 0.791074
0.363601 -0.052190 -0.296677 128 128 255 -0.528058 0.308798 0.791074
0.381211 -0.016481 -0.296677 128 128 255 -0.563846 0.237231 0.791074
0.394009 0.021220 -0.296677 128 128 255 -0.589987 0.161605 0.791074
0.401777 0.060270 -0.296677 128 128 255 -0.606034 0.083213 0.791074
0.404381 0.100000 -0.296677 128 128 255 -0.627153 0.041106 0.777810
0.350000 0.100000 -0.333013 128 128 255 -0.483967 -0.031721 0.874511
0.347861 0.132632 -0.333013 128 128 255 -0.500450 -0.062144 0.863532
0.341481 0.164705 -0.333013 128 128 255 -0.488057 -0.126934 0.863532
0.330970 0.195671 -0.333013 128 128 255 -0.467314 -0.189552 0.863532
0.316506 0.225000 -0.333013 128 128 255 -0.438574 -0.248927 0.863532
0.298338 0.252190 -0.333013 128 128 255 -0.402331 -0.304043 0.863532
0.276777 0.276777 -0.333013 128 128 255 -0.359203 -0.353957 0.863532
0.252190 0.298338 -0.333013 128 128 255 -0.309929 -0.397814 0.863532
0.225000 0.316506 -0.333013 128 128 255 -0.255353 -0.434865 0.863532
0.195671 0.330970 -0.333013 128 128 255 -0.196407 -0.464474 0.863532
0.164705 0.341481 -0.333013 128 128 255 -0.134101 -0.486137 0.863532
0.132632 0.347861 -0.333013 128 128 255 -0.069500 -0.499482 0.863532
0.100000 0.350000 -0.333013 128 128 255 -0.003710 -0.504280 0.863532
0.067368 0.347861 -0.333013 128 128 255 0.062144 -0.500450 0.863532
0.035295 0.341481 -0.333013 128 128 255 0.126934 -0.488057 0.863532
0.004329 0.330970 -0.333013 128 128 255 0.189552 -0.467314 0.863532
-0.025000 0.316506 -0.333013 128 128 255 0.248927 -0.438574 0.863532
-0.052190 0.298338 -0.333013 128 128 255 0.304043 -0.402331 0.863532
-0.076777 0.276777 -0.333013 128 128 255 0.353957 -0.359203 0.863532
-0.098338 0.252190 -0.333013 128 128 255 0.397814 -0.309929 0.863532
-0.116506 0.225000 -0.333013 128 128 255 0.434865 -0.255353 0.863532
-0.130970 0.195671 -0.333013 128 128 255 0.464474 -0.196407 0.863532
-0.141481 0.164705 -0.333013 128 128 255 0.486137 -0.134101 0.863532
-0.147861 0.132632 -0.333013 128 128 255 0.499482 -0.069500 0.863532
-0.150000 0.100000 -0.333013 128 128 255 0.504280 -0.003710 0.863532
-0.147861 0.067368 -0.333013 128 128 255 0.500450 0.062144 0.863532
-0.141481 0.035295 -0.333013 128 128 255 0.488057 0.126934 0.863532
-0.130970 0.004329 -0.333013 128 128 255 0.467314 0.189552 0.863532
-0.116506 -0.025000 -0.333013 128 128 255 0.438574 0.248927 0.863532
-0.098338 -0.052190 -0.333013 128 128 255 0.402331 0.304043 0.863532
-0.076777 -0.076777 -0.333013 128 128 255 0.359203 0.353957 0.863532
-0.052190 -0.098338 -0.333013 128 128 255 0.309929 0.397814 0.863532
-0.025000 -0.116506 -0.333013 128 128 255 0.255353 0.434865 0.863532
0.004329 -0.130970 -0.333013 128 128 255 0.196407 0.464474 0.863532
0.035295 -0.141481 -0.333013 128 128 255 0.134101 0.486137 0.863532
0.067368 -0.147861 -0.333013 128 128 255 0.069500 0.499482 0.863532
0.100000 -0.150000 -0.333013 128 128 255 0.003710 0.504280 0.863532
0.132632 -0.147861 -0.333013 128 128 255 -0.062144 0.500450 0.863532
0.164705 -0.141481 -0.333013 128 128 255 -0.126934 0.488057 0.863532
0.195671 -0.130970 -0.333013 128 128 255 -0.189552 0.467314 0.863532
0.225000 -0.116506 -0.333013 128 128 255 -0.248927 0.438574 0.863532
0.252190 -0.098338 -0.333013 128 128 255 -0.304043 0.402331 0.863532
0.276777 -0.076777 -0.333013 128 128 255 -0.353957 0.359203 0.863532
0.298338 -0.052190 -0.333013 128 128 255 -0.397814 0.309929 0.863532
0.316506 -0.025000 -0.333013 128 128 255 -0.434865 0.255353 0.863532
0.330970 0.004329 -0.333013 128 128 255 -0.464475 0.196407 0.863532
0.341481 0.035295 -0.333013 128 128 255 -0.486137 0.134101 0.863532
0.347861 0.067368 -0.333013 128 128 255 -0.499482 0.069500 0.863532
0.350000 0.100000 -0.333013 128 128 255 -0.521015 0.034149 0.852864
0.291342 0.100000 -0.361940 128 128 255 -0.367224 -0.024069 0.929821
0.289705 0.124975 -0.361940 128 128 255 -0.386238 -0.046858 0.921208
0.284822 0.149523 -0.361940 128 128 255 -0.376818 -0.096871 0.921208
0.276777 0.173223 -0.361940 128 128 255 -0.360950 -0.145227 0.921208
0.265707 0.195671 -0.361940 128 128 255 -0.338906 -0.191098 0.921208
0.251802 0.216481 -0.361940 128 128 255 -0.311063 -0.233699 0.921208
0.235299 0.235299 -0.361940 128 128 255 -0.277898 -0.272301 0.921208
0.216481 0.251802 -0.361940 128 128 255 -0.239978 -0.306245 0.921208
0.195671 0.265707 -0.361940 128 128 255 -0.197952 -0.334948 0.921208
0.173223 0.276777 -0.361940 128 128 255 -0.152539 -0.357921 0.921208
0.149523 0.284822 -0.361940 128 128 255 -0.104516 -0.374769 0.921208
0.124975 0.289705 -0.361940 128 128 255 -0.054705 -0.385205 0.921208
0.100000 0.291342 -0.361940 128 128 255 -0.003957 -0.389050 0.921208
0.075025 0.289705 -0.361940 128 128 255 0.046858 -0.386238 0.921208
0.050477 0.284822 -0.361940 128 128 255 0.096871 -0.376818 0.921208
0.026777 0.276777 -0.361940 128 128 255 0.145227 -0.360950 0.921208
0.004329 0.265707 -0.361940 128 128 255 0.191098 -0.338906 0.921208
-0.016481 0.251802 -0.361940 128 128 255 0.233699 -0.311063 0.921208
-0.035299 0.235299 -0.361940 128 128 255 0.272301 -0.277898 0.921208
-0.051802 0.216481 -0.361940 128 128 255 0.306245 -0.239978 0.921208
-0.065707 0.195671 -0.361940 128 128 255 0.334948 -0.197952 0.921208
-0.076777 0.173223 -0.361940 128 128 255 0.357921 -0.152539 0.921208
-0.084822 0.149523 -0.361940 128 128 255 0.374769 -0.104516 0.921208
-0.089705 0.124975 -0.361940 128 128 255 0.385205 -0.054705 0.921208
-0.091342 0.100000 -0.361940 128 128 255 0.389050 -0.003957 0.921208
-0.089705 0.075025 -0.361940 128 128 255 0.386238 0.046858 0.921208
-0.084822 0.050477 -0.361940 128 128 255 0.376818 0.096871 0.921208
-0.076777 0.026777 -0.361940 128 128 255 0.360950 0.145227 0.921208
-0.065707 0.004329 -0.361940 128 128 255 0.338906 0.191098 0.921208
-0.051802 -0.016481 -0.361940 128 128 255 0.311063 0.233699 0.921208
-0.035299 -0.035299 -0.361940 128 128 255 0.277898 0.272301 0.921208
-0.016481 -0.051802 -0.361940 128 128 255 0.239978 0.306245 0.921208
0.004329 -0.065707 -0.361940 128 128 255 0.197952 0.334948 0.921208
0.026777 -0.076777 -0.361940 128 128 255 0.152539 0.357921 0.921208
0.050477 -0.084822 -0.361940 128 128 255 0.104516 0.374769 0.921208
0.075025 -0.089705 -0.361940 128 128 255 0.054705 0.385205 0.921208
0.100000 -0.091342 -0.361940 128 128 255 0.003957 0.389050 0.921208
0.124975 -0.089705 -0.361940 128 128 255 -0.046858 0.386238 0.921208
0.149523 -0.084822 -0.361940 128 128 255 -0.096871 0.376818 0.921208
0.173223 -0.076777 -0.361940 128 128 255 -0.145227 0.360950 0.921208
0.195671 -0.065707 -0.361940 128 128 255 -0.191098 0.338906 0.921208
0.216481 -0.051802 -0.361940 128 128 255 -0.233699 0.311063 0.921208
0.235299 -0.035299 -0.361940 128 128 255 -0.272301 0.277898 0.921208
0.251802 -0.016481 -0.361940 128 128 255 -0.306245 0.239978 0.921208
0.265707 0.004329 -0.361940 128 128 255 -0.334948 0.197952 0.921208
0.276777 0.026777 -0.361940 128 128 255 -0.357921 0.152539 0.921208
0.284822 0.050477 -0.361940 128 128 255 -0.374769 0.104516 0.921208
0.289705 0.075025 -0.361940 128 128 255 -0.385205 0.054705 0.921208
0.291342 0.100000 -0.361940 128 128 255 -0.406331 0.026632 0.913338
0.229410 0.100000 -0.382963 128 128 255 -0.246016 -0.016125 0.969132
0.228302 0.116891 -0.382963 128 128 255 -0.267349 -0.031024 0.963100
0.225000 0.133494 -0.382963 128 128 255 -0.261012 -0.065655 0.963100
0.219559 0.149523 -0.382963 128 128 255 -0.250209 -0.099162 0.963100
0.212072 0.164705 -0.382963 128 128 255 -0.235126 -0.130972 0.963100
0.202667 0.178780 -0.382963 128 128 255 -0.216019 -0.160542 0.963100
0.191506 0.191506 -0.382963 128 128 255 -0.193216 -0.187365 0.963100
0.178780 0.202667 -0.382963 128 128 255 -0.167107 -0.210981 0.963100
0.164705 0.212072 -0.382963 128 128 255 -0.138139 -0.230988 0.963100
0.149523 0.219559 -0.382963 128 128 255 -0.106807 -0.247043 0.963100
0.133494 0.225000 -0.382963 128 128 255 -0.073647 -0.258870 0.963100
0.116891 0.228302 -0.382963 128 128 255 -0.039228 -0.266269 0.963100
0.100000 0.229410 -0.382963 128 128 255 -0.004137 -0.269111 0.963100
0.083109 0.228302 -0.382963 128 128 255 0.031024 -0.267349 0.963100
0.066506 0.225000 -0.382963 128 128 255 0.065655 -0.261012 0.963100
0.050477 0.219559 -0.382963 128 128 255 0.099162 -0.250209 0.963100
0.035295 0.212072 -0.382963 128 128 255 0.130972 -0.235126 0.963100
0.021220 0.202667 -0.382963 128 128 255 0.160542 -0.216019 0.963100
0.008494 0.191506 -0.382963 128 128 255 0.187365 -0.193216 0.963100
