ply
format ascii 1.0
element vertex 694
property float x
property float y
property float z
property uchar red
property uchar green
property uchar blue
property float nx
property float ny
property float nz
end_header
-0.512262 0.019394 -0.604175 128 128 255 0.918580 -0.338490 0.204048
-0.514343 -0.022200 -0.614248 128 128 255 0.953351 0.188624 0.235675
-0.496503 -0.059832 -0.604175 128 128 255 0.720345 0.662906 0.204106
-0.461919 -0.090746 -0.576656 128 128 255 0.471698 0.867800 0.156281
-0.417783 -0.114473 -0.539064 128 128 255 0.337979 0.932789 0.125197
-0.373079 -0.133297 -0.501472 128 128 255 0.331739 0.936694 0.112042
-0.335908 -0.151671 -0.473953 128 128 255 0.498723 0.858956 0.116060
-0.311170 -0.174735 -0.463880 128 128 255 0.825409 0.550454 0.125300
-0.299329 -0.206416 -0.473953 128 128 255 0.984628 0.130461 0.116137
-0.296578 -0.247790 -0.501472 128 128 255 0.992256 -0.053438 0.112123
-0.296294 -0.296294 -0.539064 128 128 255 0.991052 -0.046198 0.125230
-0.291263 -0.346150 -0.576656 128 128 255 0.982425 0.102103 0.156256
-0.275938 -0.389931 -0.604175 128 128 255 0.888883 0.410186 0.204048
-0.247997 -0.420815 -0.614248 128 128 255 0.540744 0.807498 0.235675
-0.208772 -0.434810 -0.604175 128 128 255 0.040616 0.978106 0.204106
-0.162459 -0.432214 -0.576656 128 128 255 -0.280087 0.947168 0.156281
-0.114473 -0.417783 -0.539064 128 128 255 -0.420595 0.898569 0.125197
-0.069552 -0.399484 -0.501472 128 128 255 -0.427768 0.896918 0.112042
-0.030275 -0.386192 -0.473953 128 128 255 -0.254724 0.960024 0.116060
0.003526 -0.385008 -0.463880 128 128 255 0.194423 0.972882 0.125300
0.034301 -0.399037 -0.473953 128 128 255 0.603987 0.788487 0.116137
0.065501 -0.426347 -0.501472 128 128 255 0.739417 0.663845 0.112123
0.100000 -0.460444 -0.539064 128 128 255 0.733446 0.668113 0.125230
0.138811 -0.492141 -0.576656 128 128 255 0.622482 0.766877 0.156256
0.180606 -0.512262 -0.604175 128 128 255 0.338490 0.918580 0.204048
0.222200 -0.514343 -0.614248 128 128 255 -0.188624 0.953351 0.235675
0.259832 -0.496503 -0.604175 128 128 255 -0.662906 0.720345 0.204106
0.290746 -0.461919 -0.576656 128 128 255 -0.867800 0.471698 0.156281
0.314473 -0.417783 -0.539064 128 128 255 -0.932789 0.337979 0.125197
0.333297 -0.373079 -0.501472 128 128 255 -0.936694 0.331739 0.112042
0.351671 -0.335908 -0.473953 128 128 255 -0.858956 0.498722 0.116060
0.374735 -0.311170 -0.463880 128 128 255 -0.550454 0.825409 0.125300
0.406416 -0.299329 -0.473953 128 128 255 -0.130461 0.984628 0.116137
0.447790 -0.296578 -0.501472 128 128 255 0.053438 0.992256 0.112123
0.496294 -0.296294 -0.539064 128 128 255 0.046198 0.991052 0.125230
0.546150 -0.291263 -0.576656 128 128 255 -0.102103 0.982425 0.156256
0.589931 -0.275938 -0.604175 128 128 255 -0.410186 0.888883 0.204048
0.620815 -0.247997 -0.614248 128 128 255 -0.807499 0.540743 0.235675
0.634810 -0.208772 -0.604175 128 128 255 -0.978106 0.040616 0.204106
0.632214 -0.162459 -0.576656 128 128 255 -0.947168 -0.280087 0.156282
0.617783 -0.114473 -0.539064 128 128 255 -0.898569 -0.420595 0.125197
0.599484 -0.069552 -0.501472 128 128 255 -0.896918 -0.427768 0.112042
0.586192 -0.030275 -0.473953 128 128 255 -0.960024 -0.254724 0.116060
0.585007 0.003526 -0.463880 128 128 255 -0.972882 0.194423 0.125300
0.599037 0.034301 -0.473953 128 128 255 -0.788487 0.603987 0.116137
0.626347 0.065501 -0.501472 128 128 255 -0.663845 0.739418 0.112123
0.660444 0.100000 -0.539064 128 128 255 -0.650175 0.754406 0.090249
0.639729 0.100000 -0.603389 128 128 255 -0.528201 0.781922 0.331061
0.668947 0.137291 -0.643057 128 128 255 -0.633331 0.696560 0.337188
0.687381 0.177330 -0.672095 128 128 255 -0.795156 0.421404 0.436056
0.689065 0.217172 -0.682724 128 128 255 -0.840848 -0.165075 0.515485
0.672262 0.253337 -0.672095 128 128 255 -0.575783 -0.691068 0.436919
0.639909 0.283274 -0.643057 128 128 255 -0.321053 -0.884640 0.338139
0.598645 0.306545 -0.603389 128 128 255 -0.190119 -0.937272 0.292190
0.556770 0.325254 -0.563721 128 128 255 -0.178419 -0.937860 0.297632
0.521762 0.343505 -0.534683 128 128 255 -0.347782 -0.864247 0.363489
0.498152 0.366037 -0.524054 128 128 255 -0.748672 -0.497501 0.438159
0.486370 0.396472 -0.534683 128 128 255 -0.931837 0.012893 0.362649
0.482906 0.435799 -0.563721 128 128 255 -0.934467 0.196761 0.296741
0.481646 0.481646 -0.603389 128 128 255 -0.938463 0.185587 0.291282
0.475938 0.528675 -0.643057 128 128 255 -0.940375 0.044710 0.337188
0.460661 0.570022 -0.672095 128 128 255 -0.860238 -0.264283 0.436056
0.433679 0.599385 -0.682724 128 128 255 -0.477844 -0.711295 0.515485
0.396225 0.613077 -0.672095 128 128 255 0.081519 -0.895799 0.436919
0.352179 0.611368 -0.643057 128 128 255 0.398516 -0.852553 0.338139
0.306545 0.598645 -0.603389 128 128 255 0.528317 -0.797186 0.292190
0.263706 0.582263 -0.563721 128 128 255 0.537007 -0.789328 0.297632
0.226047 0.570415 -0.534683 128 128 255 0.365196 -0.857034 0.363489
0.193420 0.569652 -0.524054 128 128 255 -0.177604 -0.881177 0.438159
0.163567 0.582843 -0.534683 128 128 255 -0.668025 -0.649791 0.362649
0.133309 0.608201 -0.563721 128 128 255 -0.799900 -0.521637 0.296741
0.100000 0.639729 -0.603389 128 128 255 -0.794823 -0.532363 0.291282
0.062709 0.668947 -0.643057 128 128 255 -0.696560 -0.633331 0.337188
0.022670 0.687381 -0.672095 128 128 255 -0.421404 -0.795156 0.436056
-0.017172 0.689065 -0.682724 128 128 255 0.165074 -0.840848 0.515485
-0.053337 0.672262 -0.672095 128 128 255 0.691068 -0.575783 0.436919
-0.083274 0.639909 -0.643057 128 128 255 0.884640 -0.321053 0.338139
-0.106546 0.598645 -0.603389 128 128 255 0.937273 -0.190119 0.292190
-0.125254 0.556770 -0.563721 128 128 255 0.937860 -0.178419 0.297632
-0.143505 0.521762 -0.534683 128 128 255 0.864247 -0.347783 0.363489
-0.166037 0.498152 -0.524054 128 128 255 0.497501 -0.748672 0.438159
-0.196472 0.486370 -0.534683 128 128 255 -0.012893 -0.931837 0.362649
-0.235799 0.482906 -0.563721 128 128 255 -0.196761 -0.934467 0.296741
-0.281646 0.481646 -0.603389 128 128 255 -0.185587 -0.938463 0.291282
-0.328675 0.475938 -0.643057 128 128 255 -0.044710 -0.940375 0.337188
-0.370022 0.460661 -0.672095 128 128 255 0.264283 -0.860238 0.436056
-0.399385 0.433679 -0.682724 128 128 255 0.711295 -0.477844 0.515486
-0.413076 0.396225 -0.672095 128 128 255 0.895799 0.081519 0.436919
-0.411368 0.352179 -0.643057 128 128 255 0.852553 0.398516 0.338139
-0.398645 0.306545 -0.603389 128 128 255 0.797186 0.528317 0.292190
-0.382263 0.263706 -0.563721 128 128 255 0.789329 0.537007 0.297631
-0.370415 0.226047 -0.534683 128 128 255 0.857034 0.365196 0.363489
-0.369652 0.193420 -0.524054 128 128 255 0.881177 -0.177605 0.438159
-0.382843 0.163567 -0.534683 128 128 255 0.649791 -0.668025 0.362649
-0.408201 0.133309 -0.563721 128 128 255 0.521637 -0.799900 0.296741
-0.439729 0.100000 -0.603389 128 128 255 0.532364 -0.794823 0.291282
-0.468947 0.062709 -0.643057 128 128 255 0.633331 -0.696560 0.337188
-0.487381 0.022670 -0.672095 128 128 255 0.795156 -0.421404 0.436056
-0.489065 -0.017172 -0.682724 128 128 255 0.840848 0.165075 0.515486
-0.472262 -0.053337 -0.672095 128 128 255 0.575783 0.691068 0.436919
-0.439909 -0.083274 -0.643057 128 128 255 0.321053 0.884640 0.338139
-0.398645 -0.106546 -0.603389 128 128 255 0.190119 0.937273 0.292190
-0.356770 -0.125254 -0.563721 128 128 255 0.178419 0.937860 0.297632
-0.321762 -0.143505 -0.534683 128 128 255 0.347783 0.864247 0.363489
-0.298152 -0.166037 -0.524054 128 128 255 0.748672 0.497501 0.438159
-0.286370 -0.196472 -0.534683 128 128 255 0.931837 -0.012893 0.362649
-0.282906 -0.235799 -0.563721 128 128 255 0.934468 -0.196761 0.296741
-0.281646 -0.281646 -0.603389 128 128 255 0.938463 -0.185587 0.291282
-0.275938 -0.328675 -0.643057 128 128 255 0.940375 -0.044710 0.337188
-0.260661 -0.370022 -0.672095 128 128 255 0.860238 0.264283 0.436056
-0.233679 -0.399385 -0.682724 128 128 255 0.477844 0.711295 0.515486
-0.196225 -0.413076 -0.672095 128 128 255 -0.081519 0.895799 0.436919
-0.152179 -0.411368 -0.643057 128 128 255 -0.398516 0.852553 0.338139
-0.106546 -0.398645 -0.603389 128 128 255 -0.528317 0.797186 0.292190
-0.063706 -0.382263 -0.563721 128 128 255 -0.537006 0.789329 0.297632
-0.026047 -0.370415 -0.534683 128 128 255 -0.365196 0.857034 0.363489
0.006580 -0.369652 -0.524054 128 128 255 0.177605 0.881177 0.438159
0.036433 -0.382843 -0.534683 128 128 255 0.668025 0.649791 0.362649
0.066691 -0.408201 -0.563721 128 128 255 0.799900 0.521637 0.296741
0.100000 -0.439729 -0.603389 128 128 255 0.794823 0.532364 0.291282
0.137291 -0.468947 -0.643057 128 128 255 0.696560 0.633331 0.337188
0.177330 -0.487381 -0.672095 128 128 255 0.421404 0.795156 0.436056
0.217172 -0.489065 -0.682724 128 128 255 -0.165075 0.840848 0.515486
0.253337 -0.472262 -0.672095 128 128 255 -0.691068 0.575783 0.436919
0.283274 -0.439909 -0.643057 128 128 255 -0.884640 0.321053 0.338139
0.306545 -0.398645 -0.603389 128 128 255 -0.937272 0.190119 0.292190
0.325254 -0.356770 -0.563721 128 128 255 -0.937860 0.178419 0.297632
0.343505 -0.321762 -0.534683 128 128 255 -0.864247 0.347782 0.363489
0.366037 -0.298152 -0.524054 128 128 255 -0.497501 0.748672 0.438159
0.396472 -0.286370 -0.534683 128 128 255 0.012893 0.931837 0.362649
0.435799 -0.282906 -0.563721 128 128 255 0.196761 0.934468 0.296741
0.481646 -0.281646 -0.603389 128 128 255 0.185587 0.938463 0.291282
0.528675 -0.275938 -0.643057 128 128 255 0.044710 0.940375 0.337188
0.570022 -0.260661 -0.672095 128 128 255 -0.264283 0.860238 0.436056
0.599385 -0.233679 -0.682724 128 128 255 -0.711295 0.477844 0.515485
0.613077 -0.196225 -0.672095 128 128 255 -0.895799 -0.081518 0.436919
0.611368 -0.152179 -0.643057 128 128 255 -0.852553 -0.398516 0.338139
0.598645 -0.106546 -0.603389 128 128 255 -0.797186 -0.528317 0.292190
0.582263 -0.063706 -0.563721 128 128 255 -0.789328 -0.537007 0.297632
0.570415 -0.026047 -0.534683 128 128 255 -0.857034 -0.365196 0.363489
0.569652 0.006580 -0.524054 128 128 255 -0.881177 0.177604 0.438159
0.582843 0.036433 -0.534683 128 128 255 -0.649791 0.668025 0.362649
0.608201 0.066691 -0.563721 128 128 255 -0.521637 0.799900 0.296741
0.639729 0.100000 -0.603389 128 128 255 -0.535655 0.806595 0.249955
0.600013 0.100000 -0.648323 128 128 255 -0.287078 0.830816 0.476792
0.626662 0.134519 -0.689896 128 128 255 -0.396178 0.762667 0.511255
0.643438 0.171545 -0.720330 128 128 255 -0.525751 0.515869 0.676361
0.644895 0.208386 -0.731470 128 128 255 -0.546304 -0.105827 0.830875
0.629450 0.241866 -0.720330 128 128 255 -0.291051 -0.674702 0.678282
0.599782 0.269653 -0.689896 128 128 255 -0.076894 -0.854761 0.513294
0.561952 0.291347 -0.648323 128 128 255 0.036164 -0.892080 0.450429
0.523534 0.308864 -0.606749 128 128 255 0.064340 -0.875955 0.478082
0.491356 0.325950 -0.576315 128 128 255 -0.055315 -0.775792 0.628560
0.469552 0.346927 -0.565176 128 128 255 -0.475903 -0.314192 0.821462
0.458516 0.375099 -0.576315 128 128 255 -0.738393 0.249854 0.626377
0.455045 0.411366 -0.606749 128 128 255 -0.784400 0.397664 0.476003
0.453563 0.453563 -0.648323 128 128 255 -0.810132 0.377627 0.448424
0.447997 0.496815 -0.689896 128 128 255 -0.819427 0.259147 0.511255
0.433679 0.534858 -0.720330 128 128 255 -0.736537 -0.006988 0.676361
0.408658 0.561940 -0.731470 128 128 255 -0.311464 -0.461126 0.830875
0.374063 0.574692 -0.720330 128 128 255 0.271282 -0.682891 0.678282
0.333436 0.573362 -0.689896 128 128 255 0.550035 -0.658780 0.513294
0.291347 0.561952 -0.648323 128 128 255 0.656367 -0.605224 0.450429
0.251795 0.547173 -0.606749 128 128 255 0.664890 -0.573898 0.478082
0.216960 0.536501 -0.576315 128 128 255 0.509454 -0.587681 0.628560
0.186709 0.535916 -0.565176 128 128 255 -0.114347 -0.558682 0.821462
0.158985 0.548033 -0.576315 128 128 255 -0.698796 -0.345450 0.626377
0.130886 0.571224 -0.606749 128 128 255 -0.835846 -0.273464 0.476003
0.100000 0.600013 -0.648323 128 128 255 -0.839872 -0.305827 0.448424
0.065481 0.626662 -0.689896 128 128 255 -0.762667 -0.396178 0.511255
0.028455 0.643438 -0.720330 128 128 255 -0.515869 -0.525752 0.676361
-0.008386 0.644895 -0.731470 128 128 255 0.105827 -0.546304 0.830875
-0.041866 0.629450 -0.720330 128 128 255 0.674702 -0.291051 0.678282
-0.069653 0.599782 -0.689896 128 128 255 0.854761 -0.076894 0.513294
-0.091347 0.561952 -0.648323 128 128 255 0.892080 0.036164 0.450429
-0.108864 0.523534 -0.606749 128 128 255 0.875955 0.064341 0.478082
-0.125950 0.491356 -0.576315 128 128 255 0.775792 -0.055315 0.628560
-0.146927 0.469552 -0.565176 128 128 255 0.314192 -0.475903 0.821462
-0.175099 0.458516 -0.576315 128 128 255 -0.249854 -0.738393 0.626377
-0.211366 0.455045 -0.606749 128 128 255 -0.397664 -0.784400 0.476003
-0.253563 0.453563 -0.648323 128 128 255 -0.377627 -0.810132 0.448424
-0.296815 0.447997 -0.689896 128 128 255 -0.259147 -0.819427 0.511255
-0.334858 0.433679 -0.720330 128 128 255 0.006988 -0.736537 0.676361
-0.361940 0.408658 -0.731470 128 128 255 0.461126 -0.311464 0.830875
-0.374692 0.374063 -0.720330 128 128 255 0.682890 0.271282 0.678282
-0.373362 0.333436 -0.689896 128 128 255 0.658780 0.550035 0.513294
-0.361952 0.291347 -0.648323 128 128 255 0.605224 0.656367 0.450429
-0.347173 0.251795 -0.606749 128 128 255 0.573898 0.664890 0.478082
-0.336501 0.216960 -0.576315 128 128 255 0.587681 0.509454 0.628560
-0.335916 0.186709 -0.565176 128 128 255 0.558682 -0.114347 0.821461
-0.348033 0.158985 -0.576315 128 128 255 0.345450 -0.698796 0.626377
-0.371224 0.130886 -0.606749 128 128 255 0.273464 -0.835846 0.476003
-0.400013 0.100000 -0.648323 128 128 255 0.305827 -0.839873 0.448424
-0.426662 0.065481 -0.689896 128 128 255 0.396178 -0.762667 0.511255
-0.443438 0.028455 -0.720330 128 128 255 0.525752 -0.515869 0.676361
-0.444895 -0.008386 -0.731470 128 128 255 0.546304 0.105827 0.830875
-0.429450 -0.041866 -0.720330 128 128 255 0.291051 0.674702 0.678282
-0.399782 -0.069653 -0.689896 128 128 255 0.076894 0.854761 0.513294
-0.361952 -0.091347 -0.648323 128 128 255 -0.036164 0.892080 0.450429
-0.323534 -0.108864 -0.606749 128 128 255 -0.064341 0.875955 0.478082
-0.291356 -0.125950 -0.576315 128 128 255 0.055315 0.775792 0.628560
-0.269552 -0.146927 -0.565176 128 128 255 0.475904 0.314192 0.821462
-0.258516 -0.175099 -0.576315 128 128 255 0.738393 -0.249854 0.626377
-0.255045 -0.211366 -0.606749 128 128 255 0.784400 -0.397664 0.476003
-0.253563 -0.253563 -0.648323 128 128 255 0.810132 -0.377627 0.448424
-0.247997 -0.296815 -0.689896 128 128 255 0.819427 -0.259147 0.511255
-0.233679 -0.334858 -0.720330 128 128 255 0.736537 0.006988 0.676361
-0.208658 -0.361940 -0.731470 128 128 255 0.311464 0.461126 0.830875
-0.174064 -0.374692 -0.720330 128 128 255 -0.271282 0.682890 0.678282
-0.133436 -0.373362 -0.689896 128 128 255 -0.550035 0.658780 0.513294
-0.091347 -0.361952 -0.648323 128 128 255 -0.656367 0.605224 0.450429
-0.051795 -0.347173 -0.606749 128 128 255 -0.664890 0.573898 0.478082
-0.016960 -0.336501 -0.576315 128 128 255 -0.509454 0.587681 0.628560
0.013291 -0.335916 -0.565176 128 128 255 0.114347 0.558682 0.821461
0.041015 -0.348033 -0.576315 128 128 255 0.698796 0.345450 0.626377
0.069114 -0.371224 -0.606749 128 128 255 0.835846 0.273464 0.476003
0.100000 -0.400013 -0.648323 128 128 255 0.839873 0.305827 0.448424
0.134519 -0.426662 -0.689896 128 128 255 0.762667 0.396178 0.511255
0.171545 -0.443438 -0.720330 128 128 255 0.515869 0.525751 0.676361
0.208386 -0.444895 -0.731470 128 128 255 -0.105827 0.546304 0.830875
0.241866 -0.429450 -0.720330 128 128 255 -0.674702 0.291051 0.678282
0.269653 -0.399782 -0.689896 128 128 255 -0.854761 0.076894 0.513294
0.291347 -0.361952 -0.648323 128 128 255 -0.892080 -0.036164 0.450429
0.308864 -0.323534 -0.606749 128 128 255 -0.875955 -0.064340 0.478082
0.325950 -0.291356 -0.576315 128 128 255 -0.775792 0.055315 0.628560
0.346927 -0.269552 -0.565176 128 128 255 -0.314192 0.475904 0.821462
0.375099 -0.258516 -0.576315 128 128 255 0.249854 0.738393 0.626377
0.411366 -0.255045 -0.606749 128 128 255 0.397664 0.784400 0.476003
0.453563 -0.253563 -0.648323 128 128 255 0.377627 0.810132 0.448424
0.496815 -0.247997 -0.689896 128 128 255 0.259147 0.819427 0.511255
0.534858 -0.233679 -0.720330 128 128 255 -0.006988 0.736537 0.676361
0.561940 -0.208658 -0.731470 128 128 255 -0.461126 0.311464 0.830875
0.574692 -0.174064 -0.720330 128 128 255 -0.682890 -0.271282 0.678282
0.573362 -0.133436 -0.689896 128 128 255 -0.658780 -0.550035 0.513294
0.561952 -0.091347 -0.648323 128 128 255 -0.605224 -0.656367 0.450429
0.547173 -0.051795 -0.606749 128 128 255 -0.573898 -0.664890 0.478082
0.536501 -0.016960 -0.576315 128 128 255 -0.587681 -0.509454 0.628560
0.535916 0.013291 -0.565176 128 128 255 -0.558682 0.114347 0.821462
0.548033 0.041015 -0.576315 128 128 255 -0.345450 0.698796 0.626377
0.571224 0.069114 -0.606749 128 128 255 -0.273464 0.835846 0.476003
0.600013 0.100000 -0.648323 128 128 255 -0.324830 0.848149 0.418484
0.543301 0.100000 -0.667820 128 128 255 -0.051348 0.844839 0.532552
0.567299 0.130628 -0.711122 128 128 255 -0.134084 0.791642 0.596090
0.582440 0.163514 -0.742820 128 128 255 -0.193676 0.576142 0.794072
0.583823 0.196238 -0.754423 128 128 255 -0.146731 -0.026888 0.988811
0.570022 0.225942 -0.742820 128 128 255 0.039408 -0.603782 0.796175
0.543449 0.250531 -0.711122 128 128 255 0.176729 -0.781384 0.598503
0.509557 0.269644 -0.667820 128 128 255 0.262360 -0.807776 0.527888
0.475163 0.285010 -0.624519 128 128 255 0.307670 -0.764810 0.566043
0.446410 0.300000 -0.592820 128 128 255 0.264033 -0.601959 0.753612
0.427018 0.318506 -0.581218 128 128 255 -0.075658 -0.047614 0.995996
0.417341 0.343505 -0.592820 128 128 255 -0.455684 0.477527 0.751212
0.414496 0.375805 -0.624519 128 128 255 -0.588691 0.579544 0.563535
0.413461 0.413461 -0.667820 128 128 255 -0.645736 0.554034 0.525425
0.408772 0.452088 -0.711122 128 128 255 -0.654587 0.464964 0.596090
0.396225 0.486048 -0.742820 128 128 255 -0.544344 0.270444 0.794072
0.374063 0.510165 -0.754423 128 128 255 -0.084742 -0.122768 0.988811
0.343301 0.521410 -0.742820 128 128 255 0.454804 -0.399073 0.796175
0.307124 0.520007 -0.711122 128 128 255 0.677488 -0.427556 0.598503
0.269644 0.509557 -0.667820 128 128 255 0.756700 -0.385667 0.527888
0.234459 0.496102 -0.624519 128 128 255 0.758358 -0.323247 0.566043
0.203528 0.486370 -0.592820 128 128 255 0.612349 -0.238950 0.753612
0.176729 0.485744 -0.581218 128 128 255 -0.019830 -0.087166 0.995996
0.152210 0.496578 -0.592820 128 128 255 -0.659880 0.015445 0.751213
0.127358 0.517406 -0.624519 128 128 255 -0.826067 -0.006468 0.563535
0.100000 0.543301 -0.667820 128 128 255 -0.848365 -0.064843 0.525425
0.069372 0.567299 -0.711122 128 128 255 -0.791642 -0.134084 0.596090
0.036486 0.582440 -0.742820 128 128 255 -0.576142 -0.193676 0.794072
0.003762 0.583823 -0.754423 128 128 255 0.026888 -0.146731 0.988811
-0.025942 0.570022 -0.742820 128 128 255 0.603782 0.039408 0.796175
-0.050531 0.543449 -0.711122 128 128 255 0.781384 0.176729 0.598503
-0.069644 0.509557 -0.667820 128 128 255 0.807776 0.262360 0.527888
-0.085010 0.475163 -0.624519 128 128 255 0.764810 0.307670 0.566043
-0.100000 0.446410 -0.592820 128 128 255 0.601959 0.264033 0.753612
-0.118506 0.427018 -0.581218 128 128 255 0.047614 -0.075658 0.995996
-0.143505 0.417341 -0.592820 128 128 255 -0.477527 -0.455684 0.751212
-0.175805 0.414496 -0.624519 128 128 255 -0.579544 -0.588691 0.563535
-0.213461 0.413461 -0.667820 128 128 255 -0.554034 -0.645736 0.525425
-0.252088 0.408772 -0.711122 128 128 255 -0.464964 -0.654587 0.596090
-0.286048 0.396225 -0.742820 128 128 255 -0.270444 -0.544344 0.794072
-0.310165 0.374063 -0.754423 128 128 255 0.122768 -0.084742 0.988811
-0.321410 0.343301 -0.742820 128 128 255 0.399073 0.454804 0.796175
-0.320007 0.307124 -0.711122 128 128 255 0.427556 0.677488 0.598503
-0.309557 0.269644 -0.667820 128 128 255 0.385667 0.756700 0.527888
-0.296102 0.234459 -0.624519 128 128 255 0.323247 0.758358 0.566043
-0.286370 0.203528 -0.592820 128 128 255 0.238950 0.612349 0.753612
-0.285744 0.176729 -0.581218 128 128 255 0.087166 -0.019830 0.995996
-0.296578 0.152210 -0.592820 128 128 255 -0.015445 -0.659880 0.751212
-0.317406 0.127358 -0.624519 128 128 255 0.006468 -0.826067 0.563535
-0.343301 0.100000 -0.667820 128 128 255 0.064843 -0.848365 0.525425
-0.367299 0.069372 -0.711122 128 128 255 0.134084 -0.791642 0.596090
-0.382440 0.036486 -0.742820 128 128 255 0.193677 -0.576142 0.794072
-0.383823 0.003762 -0.754423 128 128 255 0.146731 0.026888 0.988811
-0.370022 -0.025942 -0.742820 128 128 255 -0.039408 0.603782 0.796175
-0.343449 -0.050531 -0.711122 128 128 255 -0.176729 0.781384 0.598503
-0.309557 -0.069644 -0.667820 128 128 255 -0.262360 0.807776 0.527888
-0.275163 -0.085010 -0.624519 128 128 255 -0.307670 0.764810 0.566043
-0.246410 -0.100000 -0.592820 128 128 255 -0.264033 0.601959 0.753612
-0.227018 -0.118506 -0.581218 128 128 255 0.075658 0.047614 0.995996
-0.217341 -0.143505 -0.592820 128 128 255 0.455684 -0.477527 0.751212
-0.214496 -0.175805 -0.624519 128 128 255 0.588691 -0.579544 0.563535
-0.213461 -0.213461 -0.667820 128 128 255 0.645736 -0.554034 0.525425
-0.208772 -0.252088 -0.711122 128 128 255 0.654587 -0.464964 0.596090
-0.196225 -0.286048 -0.742820 128 128 255 0.544344 -0.270444 0.794072
-0.174064 -0.310165 -0.754423 128 128 255 0.084742 0.122768 0.988811
-0.143301 -0.321410 -0.742820 128 128 255 -0.454804 0.399073 0.796175
-0.107124 -0.320007 -0.711122 128 128 255 -0.677488 0.427556 0.598503
-0.069644 -0.309557 -0.667820 128 128 255 -0.756700 0.385667 0.527888
-0.034459 -0.296102 -0.624519 128 128 255 -0.758358 0.323247 0.566043
-0.003528 -0.286370 -0.592820 128 128 255 -0.612349 0.238950 0.753612
0.023271 -0.285744 -0.581218 128 128 255 0.019830 0.087166 0.995996
0.047790 -0.296578 -0.592820 128 128 255 0.659880 -0.015445 0.751212
0.072642 -0.317406 -0.624519 128 128 255 0.826067 0.006468 0.563535
0.100000 -0.343301 -0.667820 128 128 255 0.848365 0.064843 0.525425
0.130628 -0.367299 -0.711122 128 128 255 0.791642 0.134084 0.596090
0.163514 -0.382440 -0.742820 128 128 255 0.576142 0.193677 0.794072
0.196238 -0.383823 -0.754423 128 128 255 -0.026888 0.146731 0.988811
0.225942 -0.370022 -0.742820 128 128 255 -0.603782 -0.039408 0.796175
0.250531 -0.343449 -0.711122 128 128 255 -0.781384 -0.176729 0.598503
0.269644 -0.309557 -0.667820 128 128 255 -0.807776 -0.262360 0.527888
0.285010 -0.275163 -0.624519 128 128 255 -0.764810 -0.307670 0.566043
0.300000 -0.246410 -0.592820 128 128 255 -0.601960 -0.264033 0.753612
0.318506 -0.227018 -0.581218 128 128 255 -0.047614 0.075658 0.995996
0.343505 -0.217341 -0.592820 128 128 255 0.477527 0.455684 0.751212
0.375805 -0.214496 -0.624519 128 128 255 0.579544 0.588691 0.563535
0.413461 -0.213461 -0.667820 128 128 255 0.554034 0.645736 0.525425
0.452088 -0.208772 -0.711122 128 128 255 0.464964 0.654587 0.596090
0.486048 -0.196225 -0.742820 128 128 255 0.270444 0.544344 0.794072
0.510165 -0.174064 -0.754423 128 128 255 -0.122768 0.084742 0.988811
0.521410 -0.143301 -0.742820 128 128 255 -0.399073 -0.454804 0.796175
0.520007 -0.107124 -0.711122 128 128 255 -0.427556 -0.677488 0.598503
0.509557 -0.069644 -0.667820 128 128 255 -0.385667 -0.756700 0.527888
0.496102 -0.034459 -0.624519 128 128 255 -0.323247 -0.758358 0.566043
0.486370 -0.003528 -0.592820 128 128 255 -0.238950 -0.612349 0.753612
0.485744 0.023271 -0.581218 128 128 255 -0.087166 0.019830 0.995996
0.496578 0.047790 -0.592820 128 128 255 0.015445 0.659880 0.751213
0.517406 0.072642 -0.624519 128 128 255 -0.006468 0.826067 0.563535
0.543301 0.100000 -0.667820 128 128 255 -0.078886 0.851819 0.517862
0.475945 0.100000 -0.662342 128 128 255 0.100160 0.856133 0.506956
0.497208 0.126034 -0.707185 128 128 255 0.052397 0.808473 0.586196
0.510705 0.154070 -0.740013 128 128 255 0.048972 0.616170 0.786089
0.512101 0.181972 -0.752029 128 128 255 0.152941 0.031459 0.987734
0.500134 0.207215 -0.740013 128 128 255 0.279335 -0.549182 0.787636
0.476935 0.227952 -0.707185 128 128 255 0.355728 -0.726144 0.588365
0.447328 0.243868 -0.662342 128 128 255 0.419421 -0.745158 0.518484
0.417341 0.256495 -0.617498 128 128 255 0.474463 -0.682458 0.556001
0.392407 0.268821 -0.584670 128 128 255 0.480960 -0.473278 0.738028
0.375812 0.284292 -0.572655 128 128 255 0.203453 0.137042 0.969446
0.367869 0.305543 -0.584670 128 128 255 -0.252999 0.627594 0.736286
0.366024 0.333297 -0.617498 128 128 255 -0.448425 0.701649 0.553717
0.365834 0.365834 -0.662342 128 128 255 -0.527488 0.674804 0.516135
0.362459 0.399277 -0.707185 128 128 255 -0.534626 0.608727 0.586196
0.352179 0.428646 -0.740013 128 128 255 -0.401070 0.470326 0.786089
0.333436 0.449362 -0.752029 128 128 255 0.085901 0.130390 0.987734
0.307124 0.458750 -0.740013 128 128 255 0.585850 -0.190811 0.787636
0.276057 0.457009 -0.707185 128 128 255 0.764999 -0.261924 0.588365
0.243868 0.447328 -0.662342 128 128 255 0.823482 -0.230331 0.518484
0.213735 0.435053 -0.617498 128 128 255 0.818066 -0.147075 0.556001
0.187388 0.426137 -0.584670 128 128 255 0.674748 0.005432 0.738028
0.164715 0.425343 -0.572655 128 128 255 0.046959 0.240767 0.969446
0.144071 0.434753 -0.584670 128 128 255 -0.622673 0.264879 0.736286
0.123142 0.453073 -0.617498 128 128 255 -0.813226 0.179056 0.553717
0.100000 0.475945 -0.662342 128 128 255 -0.850149 0.104168 0.516135
0.073966 0.497208 -0.707185 128 128 255 -0.808473 0.052397 0.586196
0.045930 0.510705 -0.740013 128 128 255 -0.616170 0.048972 0.786089
0.018028 0.512101 -0.752029 128 128 255 -0.031459 0.152941 0.987734
-0.007215 0.500134 -0.740013 128 128 255 0.549182 0.279335 0.787636
-0.027952 0.476935 -0.707185 128 128 255 0.726144 0.355728 0.588365
-0.043868 0.447328 -0.662342 128 128 255 0.745158 0.419421 0.518484
-0.056495 0.417341 -0.617498 128 128 255 0.682458 0.474463 0.556001
-0.068821 0.392407 -0.584670 128 128 255 0.473278 0.480960 0.738028
-0.084292 0.375812 -0.572655 128 128 255 -0.137042 0.203453 0.969446
-0.105543 0.367869 -0.584670 128 128 255 -0.627594 -0.252999 0.736286
-0.133297 0.366024 -0.617498 128 128 255 -0.701649 -0.448425 0.553717
-0.165834 0.365834 -0.662342 128 128 255 -0.674804 -0.527488 0.516135
-0.199277 0.362459 -0.707185 128 128 255 -0.608727 -0.534626 0.586196
-0.228646 0.352179 -0.740013 128 128 255 -0.470326 -0.401070 0.786089
-0.249362 0.333436 -0.752029 128 128 255 -0.130390 0.085901 0.987734
-0.258750 0.307124 -0.740013 128 128 255 0.190811 0.585850 0.787636
-0.257009 0.276057 -0.707185 128 128 255 0.261924 0.764999 0.588365
-0.247328 0.243868 -0.662342 128 128 255 0.230331 0.823481 0.518484
-0.235053 0.213735 -0.617498 128 128 255 0.147075 0.818066 0.556001
-0.226137 0.187388 -0.584670 128 128 255 -0.005432 0.674748 0.738028
-0.225343 0.164715 -0.572655 128 128 255 -0.240767 0.046959 0.969446
-0.234753 0.144071 -0.584670 128 128 255 -0.264879 -0.622673 0.736286
-0.253073 0.123142 -0.617498 128 128 255 -0.179056 -0.813226 0.553717
-0.275945 0.100000 -0.662342 128 128 255 -0.104168 -0.850149 0.516135
-0.297208 0.073966 -0.707185 128 128 255 -0.052397 -0.808473 0.586196
-0.310705 0.045930 -0.740013 128 128 255 -0.048972 -0.616170 0.786089
-0.312101 0.018028 -0.752029 128 128 255 -0.152941 -0.031459 0.987734
-0.300134 -0.007215 -0.740013 128 128 255 -0.279335 0.549182 0.787636
-0.276935 -0.027952 -0.707185 128 128 255 -0.355728 0.726144 0.588365
-0.247328 -0.043868 -0.662342 128 128 255 -0.419421 0.745158 0.518484
-0.217341 -0.056495 -0.617498 128 128 255 -0.474463 0.682458 0.556001
-0.192407 -0.068821 -0.584670 128 128 255 -0.480960 0.473278 0.738028
-0.175812 -0.084292 -0.572655 128 128 255 -0.203453 -0.137042 0.969446
-0.167869 -0.105543 -0.584670 128 128 255 0.252999 -0.627594 0.736286
-0.166024 -0.133297 -0.617498 128 128 255 0.448426 -0.701649 0.553717
-0.165834 -0.165834 -0.662342 128 128 255 0.527488 -0.674804 0.516135
-0.162459 -0.199277 -0.707185 128 128 255 0.534626 -0.608727 0.586196
-0.152179 -0.228646 -0.740013 128 128 255 0.401070 -0.470326 0.786089
-0.133436 -0.249362 -0.752029 128 128 255 -0.085901 -0.130390 0.987734
-0.107124 -0.258750 -0.740013 128 128 255 -0.585850 0.190811 0.787636
-0.076057 -0.257009 -0.707185 128 128 255 -0.764999 0.261924 0.588365
-0.043868 -0.247328 -0.662342 128 128 255 -0.823481 0.230331 0.518484
-0.013735 -0.235053 -0.617498 128 128 255 -0.818066 0.147074 0.556001
0.012612 -0.226137 -0.584670 128 128 255 -0.674748 -0.005432 0.738028
0.035285 -0.225343 -0.572655 128 128 255 -0.046959 -0.240767 0.969446
0.055929 -0.234753 -0.584670 128 128 255 0.622673 -0.264879 0.736286
0.076858 -0.253073 -0.617498 128 128 255 0.813226 -0.179056 0.553717
0.100000 -0.275945 -0.662342 128 128 255 0.850149 -0.104168 0.516135
0.126034 -0.297208 -0.707185 128 128 255 0.808473 -0.052397 0.586196
0.154070 -0.310705 -0.740013 128 128 255 0.616170 -0.048972 0.786089
0.181972 -0.312101 -0.752029 128 128 255 0.031459 -0.152941 0.987734
0.207215 -0.300134 -0.740013 128 128 255 -0.549182 -0.279335 0.787636
0.227952 -0.276935 -0.707185 128 128 255 -0.726144 -0.355728 0.588365
0.243868 -0.247328 -0.662342 128 128 255 -0.745158 -0.419421 0.518484
0.256495 -0.217341 -0.617498 128 128 255 -0.682458 -0.474463 0.556001
0.268821 -0.192407 -0.584670 128 128 255 -0.473278 -0.480960 0.738028
0.284292 -0.175812 -0.572655 128 128 255 0.137042 -0.203453 0.969446
0.305543 -0.167869 -0.584670 128 128 255 0.627594 0.252999 0.736286
0.333297 -0.166024 -0.617498 128 128 255 0.701649 0.448426 0.553717
0.365834 -0.165834 -0.662342 128 128 255 0.674804 0.527488 0.516135
0.399277 -0.162459 -0.707185 128 128 255 0.608727 0.534626 0.586196
0.428646 -0.152179 -0.740013 128 128 255 0.470326 0.401070 0.786089
0.449362 -0.133436 -0.752029 128 128 255 0.130390 -0.085901 0.987734
0.458750 -0.107124 -0.740013 128 128 255 -0.190811 -0.585850 0.787636
0.457009 -0.076057 -0.707185 128 128 255 -0.261924 -0.764999 0.588365
0.447328 -0.043868 -0.662342 128 128 255 -0.230331 -0.823481 0.518484
0.435053 -0.013735 -0.617498 128 128 255 -0.147074 -0.818066 0.556001
0.426137 0.012612 -0.584670 128 128 255 0.005432 -0.674748 0.738028
0.425343 0.035285 -0.572655 128 128 255 0.240767 -0.046959 0.969446
0.434753 0.055929 -0.584670 128 128 255 0.264879 0.622673 0.736286
0.453073 0.076858 -0.617498 128 128 255 0.179056 0.813226 0.553717
0.475945 0.100000 -0.662342 128 128 255 0.108296 0.843843 0.525548
0.406147 0.100000 -0.639104 128 128 255 0.150459 0.887955 0.434623
0.424584 0.121274 -0.685298 128 128 255 0.130106 0.844284 0.519863
0.436385 0.144286 -0.719114 128 128 255 0.156836 0.674376 0.721540
0.437797 0.167192 -0.731492 128 128 255 0.307576 0.060880 0.949574
0.427727 0.187814 -0.719114 128 128 255 0.401317 -0.562973 0.722500
0.408018 0.204558 -0.685298 128 128 255 0.441301 -0.730087 0.521753
0.382843 0.217157 -0.639104 128 128 255 0.492837 -0.741753 0.454878
0.357414 0.226942 -0.592910 128 128 255 0.554194 -0.673814 0.488716
0.336430 0.236503 -0.559093 128 128 255 0.594128 -0.453620 0.664260
0.322733 0.248825 -0.546716 128 128 255 0.338156 0.225226 0.913742
0.316590 0.266195 -0.559093 128 128 255 -0.190477 0.723869 0.663123
0.315787 0.289241 -0.592910 128 128 255 -0.409455 0.771675 0.486688
0.316478 0.316478 -0.639104 128 128 255 -0.495874 0.741060 0.452702
0.314473 0.344559 -0.685298 128 128 255 -0.504999 0.688998 0.519863
0.306545 0.369175 -0.719114 128 128 255 -0.365956 0.587755 0.721540
0.291347 0.386371 -0.731492 128 128 255 0.174441 0.260538 0.949574
0.269644 0.393832 -0.719114 128 128 255 0.681856 -0.114308 0.722500
0.243868 0.391736 -0.685298 128 128 255 0.828296 -0.204203 0.521753
0.217157 0.382843 -0.639104 128 128 255 0.872987 -0.176010 0.454878
0.192257 0.371781 -0.592910 128 128 255 0.868333 -0.084585 0.488716
0.170659 0.363703 -0.559093 128 128 255 0.740870 0.099354 0.664260
0.152260 0.362731 -0.546716 128 128 255 0.079854 0.398371 0.913742
0.135634 0.370670 -0.559093 128 128 255 -0.646540 0.377165 0.663123
0.118772 0.386398 -0.592910 128 128 255 -0.835185 0.256128 0.486688
0.100000 0.406147 -0.639104 128 128 255 -0.874644 0.173372 0.452702
0.078726 0.424584 -0.685298 128 128 255 -0.844284 0.130107 0.519863
0.055714 0.436385 -0.719114 128 128 255 -0.674376 0.156836 0.721540
0.032808 0.437797 -0.731492 128 128 255 -0.060880 0.307576 0.949574
0.012186 0.427727 -0.719114 128 128 255 0.562973 0.401317 0.722500
-0.004558 0.408018 -0.685298 128 128 255 0.730087 0.441301 0.521753
-0.017157 0.382843 -0.639104 128 128 255 0.741753 0.492837 0.454878
-0.026942 0.357414 -0.592910 128 128 255 0.673814 0.554194 0.488716
-0.036503 0.336430 -0.559093 128 128 255 0.453620 0.594128 0.664260
-0.048825 0.322733 -0.546716 128 128 255 -0.225226 0.338156 0.913742
-0.066195 0.316590 -0.559093 128 128 255 -0.723869 -0.190477 0.663123
-0.089241 0.315787 -0.592910 128 128 255 -0.771675 -0.409454 0.486688
-0.116478 0.316478 -0.639104 128 128 255 -0.741060 -0.495874 0.452702
-0.144559 0.314473 -0.685298 128 128 255 -0.688998 -0.504999 0.519863
-0.169175 0.306545 -0.719114 128 128 255 -0.587755 -0.365956 0.721540
-0.186371 0.291347 -0.731492 128 128 255 -0.260538 0.174441 0.949574
-0.193832 0.269644 -0.719114 128 128 255 0.114308 0.681856 0.722500
-0.191736 0.243868 -0.685298 128 128 255 0.204203 0.828296 0.521753
-0.182843 0.217157 -0.639104 128 128 255 0.176010 0.872987 0.454878
-0.171781 0.192257 -0.592910 128 128 255 0.084585 0.868333 0.488716
-0.163703 0.170659 -0.559093 128 128 255 -0.099354 0.740870 0.664260
-0.162731 0.152260 -0.546716 128 128 255 -0.398371 0.079854 0.913742
-0.170670 0.135634 -0.559093 128 128 255 -0.377165 -0.646540 0.663123
-0.186398 0.118772 -0.592910 128 128 255 -0.256128 -0.835185 0.486688
-0.206147 0.100000 -0.639104 128 128 255 -0.173372 -0.874644 0.452702
-0.224584 0.078726 -0.685298 128 128 255 -0.130106 -0.844284 0.519863
-0.236385 0.055714 -0.719114 128 128 255 -0.156836 -0.674376 0.721540
-0.237797 0.032808 -0.731492 128 128 255 -0.307576 -0.060880 0.949574
-0.227727 0.012186 -0.719114 128 128 255 -0.401317 0.562973 0.722500
-0.208018 -0.004558 -0.685298 128 128 255 -0.441301 0.730087 0.521753
-0.182843 -0.017157 -0.639104 128 128 255 -0.492837 0.741753 0.454878
-0.157414 -0.026942 -0.592910 128 128 255 -0.554194 0.673814 0.488716
-0.136430 -0.036503 -0.559093 128 128 255 -0.594128 0.453620 0.664260
-0.122733 -0.048825 -0.546716 128 128 255 -0.338156 -0.225226 0.913742
-0.116590 -0.066195 -0.559093 128 128 255 0.190477 -0.723869 0.663123
-0.115787 -0.089241 -0.592910 128 128 255 0.409455 -0.771675 0.486688
-0.116478 -0.116478 -0.639104 128 128 255 0.495874 -0.741060 0.452702
-0.114473 -0.144559 -0.685298 128 128 255 0.504999 -0.688998 0.519863
-0.106546 -0.169175 -0.719114 128 128 255 0.365956 -0.587755 0.721540
-0.091347 -0.186371 -0.731492 128 128 255 -0.174441 -0.260538 0.949574
-0.069644 -0.193832 -0.719114 128 128 255 -0.681856 0.114308 0.722500
-0.043868 -0.191736 -0.685298 128 128 255 -0.828296 0.204203 0.521753
-0.017157 -0.182843 -0.639104 128 128 255 -0.872987 0.176010 0.454878
0.007743 -0.171781 -0.592910 128 128 255 -0.868333 0.084585 0.488716
0.029341 -0.163703 -0.559093 128 128 255 -0.740870 -0.099354 0.664260
0.047740 -0.162731 -0.546716 128 128 255 -0.079854 -0.398371 0.913742
0.064366 -0.170670 -0.559093 128 128 255 0.646540 -0.377165 0.663123
0.081228 -0.186398 -0.592910 128 128 255 0.835185 -0.256128 0.486688
0.100000 -0.206147 -0.639104 128 128 255 0.874644 -0.173372 0.452702
0.121274 -0.224584 -0.685298 128 128 255 0.844284 -0.130106 0.519863
0.144286 -0.236385 -0.719114 128 128 255 0.674376 -0.156836 0.721540
0.167192 -0.237797 -0.731492 128 128 255 0.060880 -0.307576 0.949574
0.187814 -0.227727 -0.719114 128 128 255 -0.562973 -0.401317 0.722500
0.204558 -0.208018 -0.685298 128 128 255 -0.730087 -0.441301 0.521753
0.217157 -0.182843 -0.639104 128 128 255 -0.741753 -0.492837 0.454878
0.226942 -0.157414 -0.592910 128 128 255 -0.673814 -0.554194 0.488716
0.236503 -0.136430 -0.559093 128 128 255 -0.453620 -0.594128 0.664260
0.248825 -0.122733 -0.546716 128 128 255 0.225226 -0.338156 0.913742
0.266195 -0.116590 -0.559093 128 128 255 0.723869 0.190477 0.663123
0.289241 -0.115787 -0.592910 128 128 255 0.771675 0.409455 0.486688
0.316478 -0.116478 -0.639104 128 128 255 0.741060 0.495874 0.452702
0.344559 -0.114473 -0.685298 128 128 255 0.688998 0.504999 0.519863
0.369175 -0.106546 -0.719114 128 128 255 0.587755 0.365956 0.721540
0.386371 -0.091347 -0.731492 128 128 255 0.260538 -0.174441 0.949574
0.393832 -0.069644 -0.719114 128 128 255 -0.114308 -0.681856 0.722500
0.391736 -0.043868 -0.685298 128 128 255 -0.204203 -0.828296 0.521753
0.382843 -0.017157 -0.639104 128 128 255 -0.176010 -0.872987 0.454878
0.371781 0.007743 -0.592910 128 128 255 -0.084585 -0.868333 0.488716
0.363703 0.029341 -0.559093 128 128 255 0.099354 -0.740870 0.664260
0.362731 0.047740 -0.546716 128 128 255 0.398371 -0.079854 0.913742
0.370670 0.064366 -0.559093 128 128 255 0.377165 0.646540 0.663123
0.386398 0.081228 -0.592910 128 128 255 0.256128 0.835185 0.486688
0.406147 0.100000 -0.639104 128 128 255 0.196630 0.860095 0.470716
0.341080 0.100000 -0.610198 128 128 255 0.112315 0.933805 0.339697
0.356601 0.116819 -0.657544 128 128 255 0.105095 0.900018 0.422993
0.366616 0.135101 -0.692204 128 128 255 0.133789 0.764531 0.630550
0.367974 0.153303 -0.704891 128 128 255 0.333481 0.064848 0.940524
0.359754 0.169601 -0.692204 128 128 255 0.414472 -0.655611 0.631179
0.343505 0.182659 -0.657544 128 128 255 0.439675 -0.791320 0.424852
0.322729 0.192257 -0.610198 128 128 255 0.488604 -0.793465 0.362877
0.301803 0.199518 -0.562851 128 128 255 0.553884 -0.734737 0.391630
0.284673 0.206621 -0.528191 128 128 255 0.619199 -0.546117 0.564224
0.273724 0.216078 -0.515505 128 128 255 0.360379 0.238452 0.901814
0.269176 0.229814 -0.528191 128 128 255 -0.265946 0.782239 0.563361
0.269170 0.248358 -0.562851 128 128 255 -0.465819 0.794486 0.389621
0.270469 0.270469 -0.610198 128 128 255 -0.545254 0.756700 0.360697
0.269552 0.293337 -0.657544 128 128 255 -0.562095 0.710722 0.422993
0.263706 0.313346 -0.692204 128 128 255 -0.446002 0.635208 0.630550
0.251795 0.327177 -0.704891 128 128 255 0.189953 0.281661 0.940524
0.234459 0.332889 -0.692204 128 128 255 0.756663 -0.170511 0.631179
0.213735 0.330632 -0.657544 128 128 255 0.870445 -0.248651 0.424852
0.192257 0.322729 -0.610198 128 128 255 0.906560 -0.215569 0.362877
0.172326 0.313067 -0.562851 128 128 255 0.911193 -0.127882 0.391630
0.155191 0.305976 -0.528191 128 128 255 0.824003 0.051677 0.564224
0.140761 0.304921 -0.515505 128 128 255 0.086215 0.423437 0.901814
0.127834 0.311418 -0.528191 128 128 255 -0.741179 0.365074 0.563361
0.114716 0.324526 -0.562851 128 128 255 -0.891170 0.232403 0.389621
0.100000 0.341080 -0.610198 128 128 255 -0.920621 0.149515 0.360697
0.083181 0.356601 -0.657544 128 128 255 -0.900018 0.105095 0.422993
0.064899 0.366616 -0.692204 128 128 255 -0.764531 0.133789 0.630550
0.046697 0.367974 -0.704891 128 128 255 -0.064848 0.333481 0.940524
0.030399 0.359754 -0.692204 128 128 255 0.655611 0.414472 0.631179
0.017341 0.343505 -0.657544 128 128 255 0.791320 0.439675 0.424852
0.007743 0.322729 -0.610198 128 128 255 0.793465 0.488604 0.362877
0.000482 0.301803 -0.562851 128 128 255 0.734737 0.553884 0.391630
-0.006621 0.284673 -0.528191 128 128 255 0.546117 0.619199 0.564224
-0.016078 0.273724 -0.515505 128 128 255 -0.238452 0.360379 0.901814
-0.029814 0.269176 -0.528191 128 128 255 -0.782239 -0.265946 0.563361
-0.048358 0.269170 -0.562851 128 128 255 -0.794486 -0.465819 0.389621
-0.070469 0.270469 -0.610198 128 128 255 -0.756700 -0.545254 0.360697
-0.093337 0.269552 -0.657544 128 128 255 -0.710722 -0.562095 0.422993
-0.113346 0.263706 -0.692204 128 128 255 -0.635208 -0.446002 0.630550
-0.127177 0.251795 -0.704891 128 128 255 -0.281661 0.189953 0.940524
-0.132889 0.234459 -0.692204 128 128 255 0.170511 0.756663 0.631179
-0.130632 0.213735 -0.657544 128 128 255 0.248651 0.870445 0.424852
-0.122729 0.192257 -0.610198 128 128 255 0.215569 0.906560 0.362877
-0.113067 0.172326 -0.562851 128 128 255 0.127882 0.911193 0.391630
-0.105976 0.155191 -0.528191 128 128 255 -0.051677 0.824003 0.564224
-0.104921 0.140761 -0.515505 128 128 255 -0.423437 0.086215 0.901814
-0.111418 0.127834 -0.528191 128 128 255 -0.365074 -0.741179 0.563361
-0.124526 0.114716 -0.562851 128 128 255 -0.232403 -0.891170 0.389621
-0.141080 0.100000 -0.610198 128 128 255 -0.149515 -0.920621 0.360697
-0.156601 0.083181 -0.657544 128 128 255 -0.105095 -0.900018 0.422993
-0.166616 0.064899 -0.692204 128 128 255 -0.133789 -0.764531 0.630550
-0.167974 0.046697 -0.704891 128 128 255 -0.333481 -0.064848 0.940524
-0.159754 0.030399 -0.692204 128 128 255 -0.414472 0.655611 0.631179
-0.143505 0.017341 -0.657544 128 128 255 -0.439675 0.791320 0.424852
-0.122729 0.007743 -0.610198 128 128 255 -0.488604 0.793465 0.362877
-0.101803 0.000482 -0.562851 128 128 255 -0.553884 0.734737 0.391630
-0.084673 -0.006621 -0.528191 128 128 255 -0.619199 0.546117 0.564224
-0.073724 -0.016078 -0.515505 128 128 255 -0.360379 -0.238452 0.901814
-0.069176 -0.029814 -0.528191 128 128 255 0.265946 -0.782239 0.563361
-0.069170 -0.048358 -0.562851 128 128 255 0.465819 -0.794486 0.389621
-0.070469 -0.070469 -0.610198 128 128 255 0.545254 -0.756700 0.360697
-0.069552 -0.093337 -0.657544 128 128 255 0.562095 -0.710722 0.422993
-0.063706 -0.113346 -0.692204 128 128 255 0.446002 -0.635208 0.630550
-0.051795 -0.127177 -0.704891 128 128 255 -0.189953 -0.281661 0.940524
-0.034459 -0.132889 -0.692204 128 128 255 -0.756663 0.170511 0.631179
-0.013735 -0.130632 -0.657544 128 128 255 -0.870445 0.248651 0.424852
0.007743 -0.122729 -0.610198 128 128 255 -0.906560 0.215569 0.362877
0.027674 -0.113067 -0.562851 128 128 255 -0.911193 0.127882 0.391630
0.044809 -0.105976 -0.528191 128 128 255 -0.824003 -0.051677 0.564224
0.059239 -0.104921 -0.515505 128 128 255 -0.086215 -0.423437 0.901814
0.072166 -0.111418 -0.528191 128 128 255 0.741179 -0.365074 0.563361
0.085284 -0.124526 -0.562851 128 128 255 0.891170 -0.232403 0.389621
0.100000 -0.141080 -0.610198 128 128 255 0.920621 -0.149515 0.360697
0.116819 -0.156601 -0.657544 128 128 255 0.900018 -0.105095 0.422993
0.135101 -0.166616 -0.692204 128 128 255 0.764531 -0.133789 0.630550
0.153303 -0.167974 -0.704891 128 128 255 0.064848 -0.333481 0.940524
0.169601 -0.159754 -0.692204 128 128 255 -0.655611 -0.414472 0.631179
0.182659 -0.143505 -0.657544 128 128 255 -0.791320 -0.439675 0.424852
0.192257 -0.122729 -0.610198 128 128 255 -0.793465 -0.488604 0.362877
0.199518 -0.101803 -0.562851 128 128 255 -0.734737 -0.553884 0.391630
0.206621 -0.084673 -0.528191 128 128 255 -0.546117 -0.619199 0.564224
0.216078 -0.073724 -0.515505 128 128 255 0.238452 -0.360379 0.901814
0.229814 -0.069176 -0.528191 128 128 255 0.782239 0.265946 0.563361
0.248358 -0.069170 -0.562851 128 128 255 0.794486 0.465819 0.389621
0.270469 -0.070469 -0.610198 128 128 255 0.756700 0.545254 0.360697
0.293337 -0.069552 -0.657544 128 128 255 0.710722 0.562095 0.422994
0.313346 -0.063706 -0.692204 128 128 255 0.635208 0.446002 0.630550
0.327177 -0.051795 -0.704891 128 128 255 0.281661 -0.189953 0.940524
0.332889 -0.034459 -0.692204 128 128 255 -0.170511 -0.756663 0.631179
0.330632 -0.013735 -0.657544 128 128 255 -0.248651 -0.870445 0.424852
0.322729 0.007743 -0.610198 128 128 255 -0.215569 -0.906560 0.362877
0.313067 0.027674 -0.562851 128 128 255 -0.127882 -0.911193 0.391630
0.305976 0.044809 -0.528191 128 128 255 0.051677 -0.824003 0.564224
0.304921 0.059239 -0.515505 128 128 255 0.423437 -0.086215 0.901814
0.311418 0.072166 -0.528191 128 128 255 0.365074 0.741179 0.563361
0.324526 0.085284 -0.562851 128 128 255 0.232403 0.891170 0.389621
0.341080 0.100000 -0.610198 128 128 255 0.187301 0.905213 0.381455
0.284641 0.100000 -0.589089 128 128 255 0.021207 0.969998 0.242185
0.297159 0.112922 -0.637385 128 128 255 0.007569 0.949659 0.313194
0.305284 0.127026 -0.672741 128 128 255 -0.004340 0.860395 0.509610
0.306478 0.141071 -0.685682 128 128 255 0.199661 0.037445 0.979149
0.300000 0.153590 -0.672741 128 128 255 0.323854 -0.796564 0.510495
0.287096 0.163511 -0.637385 128 128 255 0.369014 -0.874316 0.315277
0.270586 0.170659 -0.589089 128 128 255 0.424863 -0.866221 0.262969
0.253993 0.175941 -0.540793 128 128 255 0.487314 -0.825734 0.284058
0.240492 0.181113 -0.505437 128 128 255 0.549151 -0.712288 0.437126
0.232003 0.188202 -0.492496 128 128 255 0.228261 0.148930 0.962142
0.228703 0.198757 -0.505437 128 128 255 -0.446988 0.781118 0.435955
0.229091 0.213210 -0.540793 128 128 255 -0.575783 0.767481 0.281863
0.230561 0.230561 -0.589089 128 128 255 -0.637195 0.725291 0.260646
0.230275 0.248550 -0.637385 128 128 255 -0.666158 0.676863 0.313194
0.226047 0.264268 -0.672741 128 128 255 -0.611459 0.605322 0.509610
0.216960 0.275043 -0.685682 128 128 255 0.114704 0.167660 0.979149
0.203528 0.279315 -0.672741 128 128 255 0.792255 -0.334257 0.510495
0.187388 0.277206 -0.637385 128 128 255 0.879167 -0.357302 0.315277
0.170659 0.270586 -0.589089 128 128 255 0.912934 -0.312088 0.262969
0.155191 0.262588 -0.540793 128 128 255 0.928465 -0.239298 0.284058
0.141987 0.256699 -0.505437 128 128 255 0.891972 -0.115355 0.437126
0.130972 0.255708 -0.492496 128 128 255 0.056095 0.266715 0.962142
0.121175 0.260839 -0.505437 128 128 255 -0.868402 0.236265 0.435956
0.111230 0.271332 -0.540793 128 128 255 -0.949831 0.135551 0.281863
0.100000 0.284641 -0.589089 128 128 255 -0.963423 0.062293 0.260646
0.087078 0.297159 -0.637385 128 128 255 -0.949659 0.007569 0.313194
0.072974 0.305284 -0.672741 128 128 255 -0.860395 -0.004340 0.509610
0.058929 0.306478 -0.685682 128 128 255 -0.037445 0.199661 0.979149
0.046410 0.300000 -0.672741 128 128 255 0.796564 0.323854 0.510495
0.036489 0.287096 -0.637385 128 128 255 0.874316 0.369014 0.315277
0.029341 0.270586 -0.589089 128 128 255 0.866221 0.424863 0.262969
0.024059 0.253993 -0.540793 128 128 255 0.825734 0.487314 0.284058
0.018887 0.240492 -0.505437 128 128 255 0.712288 0.549151 0.437126
0.011798 0.232003 -0.492496 128 128 255 -0.148930 0.228261 0.962142
0.001243 0.228703 -0.505437 128 128 255 -0.781118 -0.446988 0.435955
-0.013210 0.229091 -0.540793 128 128 255 -0.767481 -0.575783 0.281863
-0.030561 0.230561 -0.589089 128 128 255 -0.725291 -0.637195 0.260646
-0.048550 0.230275 -0.637385 128 128 255 -0.676862 -0.666158 0.313194
-0.064268 0.226047 -0.672741 128 128 255 -0.605322 -0.611460 0.509610
-0.075043 0.216960 -0.685682 128 128 255 -0.167660 0.114704 0.979149
-0.079315 0.203528 -0.672741 128 128 255 0.334257 0.792255 0.510495
-0.077206 0.187388 -0.637385 128 128 255 0.357302 0.879168 0.315277
-0.070586 0.170659 -0.589089 128 128 255 0.312088 0.912934 0.262969
-0.062588 0.155191 -0.540793 128 128 255 0.239298 0.928465 0.284058
-0.056699 0.141987 -0.505437 128 128 255 0.115355 0.891972 0.437126
-0.055708 0.130972 -0.492496 128 128 255 -0.266715 0.056096 0.962142
-0.060839 0.121175 -0.505437 128 128 255 -0.236265 -0.868402 0.435955
-0.071332 0.111230 -0.540793 128 128 255 -0.135551 -0.949831 0.281863
-0.084641 0.100000 -0.589089 128 128 255 -0.062293 -0.963423 0.260646
-0.097159 0.087078 -0.637385 128 128 255 -0.007569 -0.949659 0.313194
-0.105284 0.072974 -0.672741 128 128 255 0.004340 -0.860395 0.509610
-0.106478 0.058929 -0.685682 128 128 255 -0.199661 -0.037445 0.979149
-0.100000 0.046410 -0.672741 128 128 255 -0.323854 0.796564 0.510495
-0.087096 0.036489 -0.637385 128 128 255 -0.369014 0.874316 0.315277
-0.070586 0.029341 -0.589089 128 128 255 -0.424863 0.866221 0.262969
-0.053993 0.024059 -0.540793 128 128 255 -0.487314 0.825734 0.284058
-0.040492 0.018887 -0.505437 128 128 255 -0.549151 0.712288 0.437126
-0.032003 0.011798 -0.492496 128 128 255 -0.228261 -0.148930 0.962142
-0.028703 0.001243 -0.505437 128 128 255 0.446988 -0.781118 0.435955
-0.029091 -0.013210 -0.540793 128 128 255 0.575783 -0.767481 0.281863
-0.030561 -0.030561 -0.589089 128 128 255 0.637195 -0.725291 0.260646
-0.030275 -0.048550 -0.637385 128 128 255 0.666158 -0.676862 0.313194
-0.026047 -0.064268 -0.672741 128 128 255 0.611460 -0.605322 0.509610
-0.016960 -0.075043 -0.685682 128 128 255 -0.114704 -0.167659 0.979149
-0.003528 -0.079315 -0.672741 128 128 255 -0.792255 0.334257 0.510495
