ply
format ascii 1.0
element vertex 697
property float x
property float y
property float z
property uchar red
property uchar green
property uchar blue
property float nx
property float ny
property float nz
end_header
0.100000 0.100000 0.992162 128 128 255 -0.600458 -0.798644 -0.040235
0.100000 0.100000 1.000000 128 128 255 -0.594345 -0.803242 -0.039445
0.100000 0.100000 1.007838 128 128 255 -0.588609 -0.807316 -0.042196
0.100000 0.100000 1.015000 128 128 255 -0.583713 -0.810442 -0.049621
0.100000 0.100000 1.020871 128 128 255 -0.580593 -0.811493 -0.066269
0.100000 0.100000 1.024945 128 128 255 -0.582074 -0.805461 -0.111452
0.100000 0.100000 1.026870 128 128 255 -0.591626 -0.692562 -0.412717
0.100000 0.100000 1.026481 128 128 255 0.493727 0.843370 -0.212040
0.100000 0.100000 1.023812 128 128 255 0.526604 0.845250 -0.090780
0.100000 0.100000 1.019092 128 128 255 0.531204 0.845062 -0.060766
0.100000 0.100000 1.012728 128 128 255 0.531885 0.845419 -0.048631
0.100000 0.100000 1.005267 128 128 255 0.531712 0.845805 -0.043543
0.100000 0.100000 0.997354 128 128 255 0.531548 0.845951 -0.042709
0.100000 0.100000 0.989668 128 128 255 0.531801 0.845628 -0.045840
0.100000 0.100000 0.982871 128 128 255 0.532928 0.844388 -0.054744
0.100000 0.100000 0.977550 128 128 255 0.536058 0.840713 -0.076448
0.100000 0.100000 0.974163 128 128 255 0.545714 0.824880 -0.147542
0.100000 0.100000 0.973000 128 128 255 0.127189 -0.241587 -0.962008
0.100000 0.100000 0.974163 128 128 255 -0.483298 -0.863293 -0.145425
0.100000 0.100000 0.977550 128 128 255 -0.500426 -0.862163 -0.079053
0.100000 0.100000 0.982871 128 128 255 -0.504873 -0.861206 -0.058547
0.100000 0.100000 0.989668 128 128 255 -0.506661 -0.860667 -0.050473
0.100000 0.100000 0.997354 128 128 255 -0.507849 -0.860092 -0.048286
0.100000 0.100000 1.005267 128 128 255 -0.509345 -0.859083 -0.050438
0.100000 0.100000 1.012728 128 128 255 -0.511836 -0.857151 -0.057590
0.100000 0.100000 1.019092 128 128 255 -0.516188 -0.853326 -0.073376
0.100000 0.100000 1.023812 128 128 255 -0.524166 -0.844315 -0.111274
0.100000 0.100000 1.026481 128 128 255 -0.540239 -0.800893 -0.258287
0.100000 0.100000 1.026870 128 128 255 0.339188 0.780361 -0.525346
0.100000 0.100000 1.024945 128 128 255 0.489732 0.859345 -0.147274
0.100000 0.100000 1.020871 128 128 255 0.511864 0.854475 -0.088705
0.100000 0.100000 1.015000 128 128 255 0.525461 0.848149 -0.067337
0.100000 0.100000 1.007838 128 128 255 0.537330 0.841370 -0.058074
0.100000 0.100000 1.000000 128 128 255 0.548905 0.834068 -0.055083
0.100000 0.100000 0.992162 128 128 255 0.560682 0.826065 -0.057036
0.100000 0.100000 0.985000 128 128 255 0.573033 0.816944 -0.065083
0.100000 0.100000 0.979129 128 128 255 0.586680 0.805388 -0.084601
0.100000 0.100000 0.975055 128 128 255 0.603681 0.785152 -0.138223
0.100000 0.100000 0.973130 128 128 255 0.610713 0.648127 -0.454928
0.100000 0.100000 0.973519 128 128 255 -0.524537 -0.802126 -0.285403
0.100000 0.100000 0.976188 128 128 255 -0.587651 -0.799995 -0.121136
0.100000 0.100000 0.980908 128 128 255 -0.608197 -0.789523 -0.082161
0.100000 0.100000 0.987272 128 128 255 -0.622704 -0.779563 -0.067236
0.100000 0.100000 0.994733 128 128 255 -0.635374 -0.769728 -0.061787
0.100000 0.100000 1.002646 128 128 255 -0.647266 -0.759725 -0.062171
0.100000 0.100000 1.010332 128 128 255 -0.658584 -0.749415 -0.068143
0.100000 0.100000 1.017129 128 128 255 -0.668939 -0.738742 -0.082344
0.100000 0.100000 1.022450 128 128 255 -0.676536 -0.727459 -0.114467
0.100000 0.100000 1.025837 128 128 255 -0.670247 -0.711541 -0.210898
0.100000 0.100000 1.027000 128 128 255 -0.102072 -0.240855 -0.965179
0.100000 0.100000 1.025837 128 128 255 0.721655 0.652052 -0.232470
0.100000 0.100000 1.022450 128 128 255 0.739014 0.663152 -0.118689
0.100000 0.100000 1.017129 128 128 255 0.749179 0.657133 -0.083113
0.100000 0.100000 1.010332 128 128 255 0.758209 0.648495 -0.067632
0.100000 0.100000 1.002646 128 128 255 0.766458 0.639394 -0.060972
0.100000 0.100000 0.994733 128 128 255 0.773899 0.630456 -0.060048
0.100000 0.100000 0.987272 128 128 255 0.780386 0.621927 -0.064841
0.100000 0.100000 0.980908 128 128 255 0.785429 0.613947 -0.078552
0.100000 0.100000 0.976188 128 128 255 0.786833 0.606547 -0.113993
0.100000 0.100000 0.973519 128 128 255 0.762966 0.594618 -0.253597
0.100000 0.100000 0.973130 128 128 255 -0.712421 -0.442582 -0.544590
0.100000 0.100000 0.975055 128 128 255 -0.817028 -0.557907 -0.145617
0.100000 0.100000 0.979129 128 128 255 -0.824444 -0.559197 -0.087127
0.100000 0.100000 0.985000 128 128 255 -0.829517 -0.554516 -0.066439
0.100000 0.100000 0.992162 128 128 255 -0.833979 -0.548749 -0.057906
0.100000 0.100000 1.000000 128 128 255 -0.794269 -0.607566 0.000000
0.189463 0.100000 1.008333 128 128 255 -0.017618 0.795680 -0.605461
0.190123 0.104427 1.016133 128 128 255 -0.040224 0.857130 -0.513528
0.190495 0.108913 1.023261 128 128 255 -0.078266 0.817912 -0.569995
0.190518 0.113427 1.029104 128 128 255 -0.105392 0.730438 -0.674798
0.190142 0.117930 1.033157 128 128 255 -0.103358 0.539443 -0.835655
0.189337 0.122378 1.035073 128 128 255 -0.035597 0.161752 -0.986189
0.188095 0.126723 1.034686 128 128 255 0.096843 -0.303103 -0.948024
0.186431 0.130925 1.032030 128 128 255 0.216164 -0.592772 -0.775819
0.184382 0.134952 1.027333 128 128 255 0.299414 -0.714881 -0.631899
0.182001 0.138784 1.020999 128 128 255 0.360911 -0.757178 -0.544449
0.179355 0.142416 1.013575 128 128 255 0.409901 -0.762196 -0.501037
0.176512 0.145860 1.005699 128 128 255 0.449199 -0.745474 -0.492432
0.173544 0.149140 0.998050 128 128 255 0.477110 -0.710416 -0.517373
0.170509 0.152293 0.991287 128 128 255 0.485701 -0.651299 -0.583012
0.167455 0.155359 0.985991 128 128 255 0.451993 -0.546897 -0.704703
0.164411 0.158379 0.982620 128 128 255 0.315597 -0.343862 -0.884397
0.161389 0.161389 0.981463 128 128 255 0.002448 0.002015 -0.999995
0.158379 0.164411 0.982620 128 128 255 -0.343246 0.314737 -0.884942
0.155359 0.167455 0.985991 128 128 255 -0.546071 0.450876 -0.706058
0.152293 0.170509 0.991287 128 128 255 -0.650441 0.484583 -0.584898
0.149140 0.173544 0.998050 128 128 255 -0.709561 0.476048 -0.519520
0.145860 0.176512 1.005699 128 128 255 -0.744597 0.448190 -0.494673
0.142416 0.179355 1.013575 128 128 255 -0.761257 0.408931 -0.503253
0.138784 0.182001 1.020999 128 128 255 -0.756143 0.359978 -0.546502
0.134952 0.184382 1.027333 128 128 255 -0.713739 0.298540 -0.633601
0.130925 0.186431 1.032030 128 128 255 -0.591638 0.215436 -0.776886
0.126723 0.188095 1.034686 128 128 255 -0.302279 0.096432 -0.948329
0.122378 0.189337 1.035073 128 128 255 0.162512 -0.035705 -0.986060
0.117930 0.190142 1.033157 128 128 255 0.540686 -0.103335 -0.834854
0.113427 0.190518 1.029104 128 128 255 0.731865 -0.105245 -0.673274
0.108913 0.190495 1.023261 128 128 255 0.819299 -0.078008 -0.568035
0.104427 0.190123 1.016133 128 128 255 0.858447 -0.039878 -0.511349
0.100000 0.189463 1.008333 128 128 255 0.870776 0.002079 -0.491676
0.095648 0.188588 1.000533 128 128 255 0.861937 0.044356 -0.505072
0.091375 0.187569 0.993405 128 128 255 0.827111 0.083554 -0.555793
0.087173 0.186471 0.987562 128 128 255 0.745508 0.112934 -0.656859
0.083024 0.185346 0.983508 128 128 255 0.559269 0.114054 -0.821103
0.078902 0.184227 0.981592 128 128 255 0.169688 0.045753 -0.984435
0.074784 0.183127 0.981979 128 128 255 -0.320114 -0.094074 -0.942697
0.070647 0.182036 0.984635 128 128 255 -0.611565 -0.216398 -0.761026
0.066480 0.180924 0.989333 128 128 255 -0.726885 -0.299089 -0.618210
0.062283 0.179746 0.995666 128 128 255 -0.763749 -0.359416 -0.536197
0.058071 0.178444 1.003091 128 128 255 -0.764993 -0.407079 -0.499072
0.053873 0.176957 1.010966 128 128 255 -0.745291 -0.444706 -0.496767
0.049734 0.175228 1.018615 128 128 255 -0.707315 -0.470217 -0.527828
0.045707 0.173206 1.025379 128 128 255 -0.644729 -0.475096 -0.598839
0.041849 0.170857 1.030674 128 128 255 -0.536311 -0.435988 -0.722693
0.038220 0.168164 1.034046 128 128 255 -0.333207 -0.296313 -0.895082
0.034869 0.165131 1.035203 128 128 255 -0.003204 0.003705 -0.999988
0.031836 0.161780 1.034046 128 128 255 0.296873 0.334147 -0.894546
0.029143 0.158151 1.030674 128 128 255 0.436597 0.537578 -0.721382
0.026794 0.154293 1.025379 128 128 255 0.475607 0.646063 -0.596993
0.024772 0.150266 1.018615 128 128 255 0.470610 0.708634 -0.525703
0.023043 0.146127 1.010966 128 128 255 0.445007 0.746599 -0.494530
0.021556 0.141929 1.003091 128 128 255 0.407316 0.766314 -0.496846
0.020254 0.137717 0.995666 128 128 255 0.359615 0.765113 -0.534115
0.019076 0.133520 0.989333 128 128 255 0.299265 0.728291 -0.616468
0.017964 0.129353 0.984635 128 128 255 0.216541 0.612890 -0.759919
0.016873 0.125216 0.981979 128 128 255 0.094165 0.320967 -0.942397
0.015773 0.121098 0.981592 128 128 255 -0.045505 -0.169049 -0.984557
0.014654 0.116976 0.983508 128 128 255 -0.113554 -0.558156 -0.821929
0.013529 0.112827 0.987562 128 128 255 -0.112377 -0.744206 -0.658429
0.012431 0.108625 0.993405 128 128 255 -0.083029 -0.825820 -0.557788
0.011412 0.104352 1.000533 128 128 255 -0.043882 -0.860671 -0.507267
0.010537 0.100000 1.008333 128 128 255 -0.001665 -0.869504 -0.493922
0.009877 0.095573 1.016133 128 128 255 0.040224 -0.857130 -0.513527
0.009505 0.091087 1.023261 128 128 255 0.078266 -0.817912 -0.569995
0.009482 0.086573 1.029104 128 128 255 0.105392 -0.730438 -0.674799
0.009858 0.082070 1.033157 128 128 255 0.103358 -0.539443 -0.835654
0.010663 0.077622 1.035073 128 128 255 0.035597 -0.161752 -0.986189
0.011905 0.073277 1.034686 128 128 255 -0.096843 0.303103 -0.948024
0.013569 0.069075 1.032030 128 128 255 -0.216164 0.592771 -0.775819
0.015618 0.065048 1.027333 128 128 255 -0.299414 0.714881 -0.631899
0.017999 0.061216 1.020999 128 128 255 -0.360911 0.757178 -0.544449
0.020645 0.057584 1.013575 128 128 255 -0.409901 0.762196 -0.501037
0.023488 0.054140 1.005699 128 128 255 -0.449199 0.745474 -0.492432
0.026456 0.050860 0.998050 128 128 255 -0.477110 0.710416 -0.517373
0.029491 0.047707 0.991287 128 128 255 -0.485702 0.651299 -0.583012
0.032545 0.044641 0.985991 128 128 255 -0.451993 0.546897 -0.704703
0.035589 0.041621 0.982620 128 128 255 -0.315597 0.343862 -0.884397
0.038611 0.038611 0.981463 128 128 255 -0.002448 -0.002015 -0.999995
0.041621 0.035589 0.982620 128 128 255 0.343246 -0.314737 -0.884942
0.044641 0.032545 0.985991 128 128 255 0.546070 -0.450876 -0.706058
0.047707 0.029491 0.991287 128 128 255 0.650442 -0.484583 -0.584897
0.050860 0.026456 0.998050 128 128 255 0.709561 -0.476048 -0.519520
0.054140 0.023488 1.005699 128 128 255 0.744597 -0.448190 -0.494674
0.057584 0.020645 1.013575 128 128 255 0.761257 -0.408931 -0.503253
0.061216 0.017999 1.020999 128 128 255 0.756143 -0.359978 -0.546502
0.065048 0.015618 1.027333 128 128 255 0.713739 -0.298540 -0.633601
0.069075 0.013569 1.032030 128 128 255 0.591637 -0.215436 -0.776886
0.073277 0.011905 1.034686 128 128 255 0.302278 -0.096432 -0.948329
0.077622 0.010663 1.035073 128 128 255 -0.162512 0.035705 -0.986060
0.082070 0.009858 1.033157 128 128 255 -0.540686 0.103335 -0.834854
0.086573 0.009482 1.029104 128 128 255 -0.731864 0.105245 -0.673274
0.091087 0.009505 1.023261 128 128 255 -0.819300 0.078008 -0.568034
0.095573 0.009877 1.016133 128 128 255 -0.858447 0.039878 -0.511349
0.100000 0.010537 1.008333 128 128 255 -0.870776 -0.002079 -0.491676
0.104352 0.011412 1.000533 128 128 255 -0.861937 -0.044356 -0.505072
0.108625 0.012431 0.993405 128 128 255 -0.827111 -0.083554 -0.555794
0.112827 0.013529 0.987562 128 128 255 -0.745508 -0.112934 -0.656859
0.116976 0.014654 0.983508 128 128 255 -0.559269 -0.114054 -0.821103
0.121098 0.015773 0.981592 128 128 255 -0.169688 -0.045753 -0.984435
0.125216 0.016873 0.981979 128 128 255 0.320114 0.094074 -0.942697
0.129353 0.017964 0.984635 128 128 255 0.611565 0.216398 -0.761026
0.133520 0.019076 0.989333 128 128 255 0.726885 0.299089 -0.618211
0.137717 0.020254 0.995666 128 128 255 0.763749 0.359416 -0.536197
0.141929 0.021556 1.003091 128 128 255 0.764993 0.407079 -0.499072
0.146127 0.023043 1.010966 128 128 255 0.745291 0.444706 -0.496767
0.150266 0.024772 1.018615 128 128 255 0.707315 0.470217 -0.527828
0.154293 0.026794 1.025379 128 128 255 0.644729 0.475096 -0.598839
0.158151 0.029143 1.030674 128 128 255 0.536311 0.435987 -0.722693
0.161780 0.031836 1.034046 128 128 255 0.333207 0.296313 -0.895082
0.165131 0.034869 1.035203 128 128 255 0.003204 -0.003705 -0.999988
0.168164 0.038220 1.034046 128 128 255 -0.296873 -0.334147 -0.894546
0.170857 0.041849 1.030674 128 128 255 -0.436598 -0.537579 -0.721382
0.173206 0.045707 1.025379 128 128 255 -0.475608 -0.646063 -0.596993
0.175228 0.049734 1.018615 128 128 255 -0.470610 -0.708634 -0.525704
0.176957 0.053873 1.010966 128 128 255 -0.445007 -0.746599 -0.494530
0.178444 0.058071 1.003091 128 128 255 -0.407316 -0.766314 -0.496846
0.179746 0.062283 0.995666 128 128 255 -0.359615 -0.765113 -0.534115
0.180924 0.066480 0.989333 128 128 255 -0.299265 -0.728291 -0.616468
0.182036 0.070647 0.984635 128 128 255 -0.216541 -0.612889 -0.759919
0.183127 0.074784 0.981979 128 128 255 -0.094165 -0.320967 -0.942398
0.184227 0.078902 0.981592 128 128 255 0.045505 0.169049 -0.984557
0.185346 0.083024 0.983508 128 128 255 0.113554 0.558156 -0.821929
0.186471 0.087173 0.987562 128 128 255 0.112377 0.744206 -0.658429
0.187569 0.091375 0.993405 128 128 255 0.083029 0.825820 -0.557788
0.188588 0.095648 1.000533 128 128 255 0.043882 0.860671 -0.507267
0.189463 0.100000 1.008333 128 128 255 0.024449 0.936344 -0.350231
0.279961 0.100000 1.004725 128 128 255 -0.131042 0.599800 -0.789346
0.281271 0.108905 1.012412 128 128 255 -0.132148 0.636963 -0.759484
0.282007 0.117926 1.019437 128 128 255 -0.163415 0.572883 -0.803182
0.282041 0.127003 1.025195 128 128 255 -0.184466 0.458823 -0.869168
0.281276 0.136058 1.029191 128 128 255 -0.183263 0.282337 -0.941648
0.279653 0.145001 1.031079 128 128 255 -0.146968 0.048803 -0.987936
0.277156 0.153740 1.030697 128 128 255 -0.075214 -0.197328 -0.977448
0.273815 0.162192 1.028079 128 128 255 0.013297 -0.397247 -0.917615
0.269703 0.170293 1.023450 128 128 255 0.097633 -0.527263 -0.844074
0.264927 0.178005 1.017208 128 128 255 0.167836 -0.597320 -0.784245
0.259618 0.185317 1.009891 128 128 255 0.221395 -0.624290 -0.749164
0.253915 0.192253 1.002129 128 128 255 0.256981 -0.619492 -0.741748
0.247956 0.198861 0.994591 128 128 255 0.270949 -0.587050 -0.762863
0.241862 0.205212 0.987926 128 128 255 0.255176 -0.524381 -0.812348
0.235726 0.211388 0.982707 128 128 255 0.195889 -0.423111 -0.884649
0.229607 0.217469 0.979384 128 128 255 0.078518 -0.275370 -0.958127
0.223527 0.223527 0.978244 128 128 255 -0.091984 -0.093567 -0.991355
0.217469 0.229607 0.979384 128 128 255 -0.273862 0.076871 -0.958692
0.211388 0.235726 0.982707 128 128 255 -0.421674 0.194226 -0.885701
0.205212 0.241862 0.987926 128 128 255 -0.522994 0.253543 -0.813752
0.198861 0.247956 0.994591 128 128 255 -0.585678 0.269374 -0.764473
0.192253 0.253915 1.002129 128 128 255 -0.618085 0.255472 -0.743442
0.185317 0.259618 1.009891 128 128 255 -0.622795 0.219958 -0.750830
0.178005 0.264927 1.017208 128 128 255 -0.595690 0.166487 -0.785770
0.170293 0.269703 1.023450 128 128 255 -0.525466 0.096411 -0.845335
0.162192 0.273815 1.028079 128 128 255 -0.395279 0.012261 -0.918479
0.153740 0.277156 1.030697 128 128 255 -0.195221 -0.075994 -0.977811
0.145001 0.279653 1.031079 128 128 255 0.051000 -0.147448 -0.987754
0.136058 0.281276 1.029191 128 128 255 0.284562 -0.183443 -0.940943
0.127003 0.282041 1.025195 128 128 255 0.461014 -0.184383 -0.868026
0.117926 0.282007 1.019437 128 128 255 0.574998 -0.163121 -0.801729
0.108905 0.281271 1.012412 128 128 255 0.638997 -0.131694 -0.757852
0.100000 0.279961 1.004725 128 128 255 0.664228 -0.097973 -0.741082
0.091245 0.278217 0.997038 128 128 255 0.654991 -0.067448 -0.752620
0.082648 0.276182 0.990013 128 128 255 0.607731 -0.045482 -0.792839
0.074192 0.273985 0.984255 128 128 255 0.510690 -0.039067 -0.858877
0.065841 0.271730 0.980260 128 128 255 0.347815 -0.057025 -0.935827
0.057547 0.269483 0.978371 128 128 255 0.119198 -0.104827 -0.987321
0.049260 0.267268 0.978753 128 128 255 -0.128972 -0.174192 -0.976229
0.040938 0.265067 0.981371 128 128 255 -0.329113 -0.246041 -0.911673
0.032557 0.262821 0.986000 128 128 255 -0.454358 -0.308137 -0.835829
0.024118 0.260438 0.992242 128 128 255 -0.516296 -0.358319 -0.777847
0.015651 0.257805 0.999559 128 128 255 -0.532766 -0.397183 -0.747266
0.007216 0.254801 1.007321 128 128 255 -0.514770 -0.423807 -0.745251
-0.001101 0.251308 1.014859 128 128 255 -0.465660 -0.434140 -0.771157
-0.009193 0.247230 1.021525 128 128 255 -0.382583 -0.419574 -0.823157
-0.016945 0.242497 1.026743 128 128 255 -0.259113 -0.365808 -0.893893
-0.024240 0.237077 1.030066 128 128 255 -0.093679 -0.256735 -0.961931
-0.030976 0.230976 1.031206 128 128 255 0.093523 -0.091931 -0.991364
-0.037077 0.224239 1.030066 128 128 255 0.258085 0.095463 -0.961394
-0.042497 0.216945 1.026743 128 128 255 0.366913 0.261029 -0.892882
-0.047230 0.209193 1.021525 128 128 255 0.420446 0.384553 -0.821793
-0.051308 0.201101 1.014859 128 128 255 0.434819 0.467646 -0.769572
-0.054801 0.192784 1.007321 128 128 255 0.424341 0.516766 -0.743564
-0.057805 0.184349 0.999559 128 128 255 0.397621 0.534788 -0.745587
-0.060438 0.175882 0.992242 128 128 255 0.358709 0.518364 -0.776290
-0.062821 0.167443 0.986000 128 128 255 0.308526 0.456485 -0.834526
-0.065067 0.159062 0.981371 128 128 255 0.246472 0.331284 -0.910770
-0.067268 0.150740 0.978753 128 128 255 0.174703 0.131150 -0.975848
-0.069483 0.142453 0.978371 128 128 255 0.105441 -0.117044 -0.987514
-0.071730 0.134159 0.980260 128 128 255 0.057720 -0.345703 -0.936567
-0.073985 0.125808 0.984255 128 128 255 0.039794 -0.508633 -0.860063
-0.076182 0.117352 0.990013 128 128 255 0.046192 -0.605732 -0.794327
-0.078217 0.108755 0.997038 128 128 255 0.068104 -0.653021 -0.754272
-0.079961 0.100000 1.004725 128 128 255 0.098544 -0.662246 -0.742778
-0.081271 0.091095 1.012412 128 128 255 0.132148 -0.636963 -0.759484
-0.082007 0.082074 1.019437 128 128 255 0.163415 -0.572883 -0.803181
-0.082041 0.072997 1.025195 128 128 255 0.184466 -0.458823 -0.869168
-0.081276 0.063942 1.029191 128 128 255 0.183263 -0.282337 -0.941648
-0.079653 0.054999 1.031079 128 128 255 0.146968 -0.048803 -0.987936
-0.077156 0.046260 1.030697 128 128 255 0.075214 0.197328 -0.977448
-0.073815 0.037808 1.028079 128 128 255 -0.013296 0.397247 -0.917615
-0.069703 0.029707 1.023450 128 128 255 -0.097633 0.527263 -0.844074
-0.064927 0.021995 1.017208 128 128 255 -0.167836 0.597321 -0.784244
-0.059618 0.014683 1.009891 128 128 255 -0.221395 0.624290 -0.749164
-0.053915 0.007747 1.002129 128 128 255 -0.256981 0.619492 -0.741748
-0.047956 0.001139 0.994591 128 128 255 -0.270949 0.587050 -0.762863
-0.041862 -0.005212 0.987926 128 128 255 -0.255176 0.524381 -0.812348
-0.035726 -0.011388 0.982707 128 128 255 -0.195889 0.423111 -0.884649
-0.029607 -0.017469 0.979384 128 128 255 -0.078518 0.275370 -0.958127
-0.023527 -0.023527 0.978244 128 128 255 0.091984 0.093567 -0.991355
-0.017469 -0.029607 0.979384 128 128 255 0.273862 -0.076871 -0.958692
-0.011388 -0.035726 0.982707 128 128 255 0.421674 -0.194226 -0.885702
-0.005212 -0.041862 0.987926 128 128 255 0.522994 -0.253543 -0.813752
0.001139 -0.047956 0.994591 128 128 255 0.585678 -0.269374 -0.764473
0.007747 -0.053915 1.002129 128 128 255 0.618084 -0.255471 -0.743442
0.014683 -0.059618 1.009891 128 128 255 0.622795 -0.219958 -0.750830
0.021995 -0.064927 1.017208 128 128 255 0.595691 -0.166488 -0.785770
0.029707 -0.069703 1.023450 128 128 255 0.525466 -0.096411 -0.845335
0.037808 -0.073815 1.028079 128 128 255 0.395279 -0.012261 -0.918479
0.046260 -0.077156 1.030697 128 128 255 0.195221 0.075994 -0.977811
0.054999 -0.079653 1.031079 128 128 255 -0.051000 0.147448 -0.987754
0.063942 -0.081276 1.029191 128 128 255 -0.284562 0.183443 -0.940943
0.072997 -0.082041 1.025195 128 128 255 -0.461014 0.184383 -0.868026
0.082074 -0.082007 1.019437 128 128 255 -0.574998 0.163121 -0.801729
0.091095 -0.081271 1.012412 128 128 255 -0.638997 0.131694 -0.757852
0.100000 -0.079961 1.004725 128 128 255 -0.664228 0.097973 -0.741082
0.108755 -0.078217 0.997038 128 128 255 -0.654991 0.067448 -0.752620
0.117352 -0.076182 0.990013 128 128 255 -0.607731 0.045482 -0.792839
0.125808 -0.073985 0.984255 128 128 255 -0.510690 0.039067 -0.858877
0.134159 -0.071730 0.980260 128 128 255 -0.347815 0.057025 -0.935827
0.142453 -0.069483 0.978371 128 128 255 -0.119198 0.104827 -0.987321
0.150740 -0.067268 0.978753 128 128 255 0.128973 0.174192 -0.976229
0.159062 -0.065067 0.981371 128 128 255 0.329113 0.246041 -0.911673
0.167443 -0.062821 0.986000 128 128 255 0.454358 0.308137 -0.835829
0.175882 -0.060438 0.992242 128 128 255 0.516297 0.358319 -0.777847
0.184349 -0.057805 0.999559 128 128 255 0.532766 0.397183 -0.747266
0.192784 -0.054801 1.007321 128 128 255 0.514770 0.423807 -0.745251
0.201101 -0.051308 1.014859 128 128 255 0.465660 0.434140 -0.771157
0.209193 -0.047230 1.021525 128 128 255 0.382583 0.419574 -0.823157
0.216945 -0.042497 1.026743 128 128 255 0.259113 0.365808 -0.893893
0.224239 -0.037077 1.030066 128 128 255 0.093679 0.256735 -0.961931
0.230976 -0.030976 1.031206 128 128 255 -0.093523 0.091931 -0.991364
0.237077 -0.024240 1.030066 128 128 255 -0.258085 -0.095463 -0.961394
0.242497 -0.016945 1.026743 128 128 255 -0.366913 -0.261029 -0.892882
0.247230 -0.009193 1.021525 128 128 255 -0.420446 -0.384553 -0.821793
0.251308 -0.001101 1.014859 128 128 255 -0.434818 -0.467645 -0.769572
0.254801 0.007216 1.007321 128 128 255 -0.424341 -0.516766 -0.743564
0.257805 0.015651 0.999559 128 128 255 -0.397621 -0.534787 -0.745587
0.260438 0.024118 0.992242 128 128 255 -0.358709 -0.518364 -0.776290
0.262821 0.032557 0.986000 128 128 255 -0.308526 -0.456485 -0.834526
0.265067 0.040938 0.981371 128 128 255 -0.246472 -0.331284 -0.910770
0.267268 0.049260 0.978753 128 128 255 -0.174703 -0.131150 -0.975848
0.269483 0.057547 0.978371 128 128 255 -0.105441 0.117044 -0.987514
0.271730 0.065841 0.980260 128 128 255 -0.057720 0.345703 -0.936567
0.273985 0.074192 0.984255 128 128 255 -0.039794 0.508633 -0.860063
0.276182 0.082648 0.990013 128 128 255 -0.046192 0.605732 -0.794327
0.278217 0.091245 0.997038 128 128 255 -0.068104 0.653021 -0.754272
0.279961 0.100000 1.004725 128 128 255 -0.058002 0.731948 -0.678887
0.369056 0.100000 0.986959 128 128 255 -0.280585 0.464931 -0.839709
0.371004 0.113314 0.994459 128 128 255 -0.272756 0.477998 -0.834939
0.372094 0.126799 1.001314 128 128 255 -0.298353 0.409628 -0.862085
0.372137 0.140368 1.006932 128 128 255 -0.315415 0.302418 -0.899476
0.370988 0.153903 1.010830 128 128 255 -0.314967 0.156999 -0.936027
0.368559 0.167271 1.012672 128 128 255 -0.289334 -0.015474 -0.957103
0.364827 0.180334 1.012300 128 128 255 -0.237797 -0.190953 -0.952360
0.359836 0.192971 1.009746 128 128 255 -0.169187 -0.342513 -0.924154
0.353696 0.205084 1.005229 128 128 255 -0.096785 -0.454514 -0.885466
0.346564 0.216616 0.999139 128 128 255 -0.031552 -0.525323 -0.850317
0.338635 0.227553 0.992000 128 128 255 0.019728 -0.560365 -0.828011
0.330118 0.237928 0.984427 128 128 255 0.052641 -0.565497 -0.823068
0.321218 0.247813 0.977072 128 128 255 0.062937 -0.544046 -0.836691
0.312114 0.257315 0.970568 128 128 255 0.045395 -0.496371 -0.866923
0.302946 0.266553 0.965476 128 128 255 -0.005372 -0.421288 -0.906911
0.293800 0.275650 0.962234 128 128 255 -0.090809 -0.320281 -0.942960
0.284709 0.284709 0.961122 128 128 255 -0.201913 -0.203894 -0.957945
0.275650 0.293800 0.962234 128 128 255 -0.318381 -0.092829 -0.943407
0.266553 0.302946 0.965476 128 128 255 -0.419475 -0.007385 -0.907737
0.257315 0.312114 0.970568 128 128 255 -0.494623 0.043427 -0.868022
0.247813 0.321218 0.977072 128 128 255 -0.542313 0.061034 -0.837957
0.237928 0.330118 0.984427 128 128 255 -0.563720 0.050815 -0.824401
0.227553 0.338635 0.992000 128 128 255 -0.558487 0.017997 -0.829318
0.216616 0.346564 0.999139 128 128 255 -0.523291 -0.033161 -0.851509
0.205084 0.353696 1.005229 128 128 255 -0.452288 -0.098229 -0.886446
0.192971 0.359836 1.009746 128 128 255 -0.340083 -0.170409 -0.924826
0.180334 0.364827 1.012300 128 128 255 -0.188350 -0.238734 -0.952644
0.167271 0.368559 1.012672 128 128 255 -0.012769 -0.289938 -0.956960
0.153903 0.370988 1.010830 128 128 255 0.159725 -0.315232 -0.935477
0.140368 0.372137 1.006932 128 128 255 0.305093 -0.315370 -0.898588
0.126799 0.372094 1.001314 128 128 255 0.412223 -0.298049 -0.860952
0.113314 0.371004 0.994459 128 128 255 0.480510 -0.272251 -0.833660
0.100000 0.369056 0.986959 128 128 255 0.512876 -0.245352 -0.822654
0.086910 0.366460 0.979459 128 128 255 0.511001 -0.223068 -0.830132
0.074055 0.363427 0.972605 128 128 255 0.473566 -0.210259 -0.855293
0.061410 0.360151 0.966987 128 128 255 0.396927 -0.211287 -0.893200
0.048922 0.356784 0.963089 128 128 255 0.279296 -0.229099 -0.932474
0.036520 0.353427 0.961246 128 128 255 0.129103 -0.262900 -0.956147
0.024129 0.350115 0.961618 128 128 255 -0.029490 -0.306747 -0.951334
0.011686 0.346820 0.964173 128 128 255 -0.166312 -0.352444 -0.920936
-0.000842 0.343455 0.968690 128 128 255 -0.262650 -0.394143 -0.880719
-0.013457 0.339884 0.974780 128 128 255 -0.315392 -0.429193 -0.846357
-0.026111 0.335938 0.981919 128 128 255 -0.329072 -0.456033 -0.826889
-0.038717 0.331436 0.989492 128 128 255 -0.308661 -0.472275 -0.825642
-0.051146 0.326206 0.996847 128 128 255 -0.256940 -0.473670 -0.842389
-0.063238 0.320102 1.003350 128 128 255 -0.174922 -0.453650 -0.873845
-0.074822 0.313021 1.008442 128 128 255 -0.064532 -0.404067 -0.912450
-0.085724 0.304915 1.011684 128 128 255 0.066781 -0.318772 -0.945476
-0.095794 0.295794 1.012797 128 128 255 0.202394 -0.200430 -0.958574
-0.104915 0.285724 1.011684 128 128 255 0.320461 -0.064607 -0.945056
-0.113021 0.274822 1.008442 128 128 255 0.405460 0.066842 -0.911665
-0.120102 0.263238 1.003350 128 128 255 0.454767 0.177306 -0.872783
-0.126206 0.251146 0.996847 128 128 255 0.474554 0.259359 -0.841149
-0.131436 0.238717 0.989492 128 128 255 0.472985 0.311109 -0.824316
-0.135938 0.226111 0.981919 128 128 255 0.456626 0.331553 -0.825570
-0.139884 0.213457 0.974780 128 128 255 0.429730 0.317927 -0.845136
-0.143455 0.200842 0.968690 128 128 255 0.394679 0.265254 -0.879698
-0.146820 0.188314 0.964173 128 128 255 0.353027 0.168981 -0.920227
-0.150115 0.175871 0.961618 128 128 255 0.307412 0.032198 -0.951031
-0.153427 0.163480 0.961246 128 128 255 0.263652 -0.126409 -0.956299
-0.156784 0.151078 0.963089 128 128 255 0.229916 -0.276665 -0.933057
-0.160151 0.138590 0.966987 128 128 255 0.212127 -0.394380 -0.894129
-0.163427 0.125945 0.972605 128 128 255 0.211078 -0.471086 -0.856460
-0.166460 0.113090 0.979459 128 128 255 0.223824 -0.508554 -0.831430
-0.169056 0.100000 0.986959 128 128 255 0.246005 -0.510416 -0.823989
-0.171004 0.086686 0.994459 128 128 255 0.272756 -0.477998 -0.834939
-0.172094 0.073201 1.001314 128 128 255 0.298353 -0.409628 -0.862085
-0.172137 0.059632 1.006932 128 128 255 0.315415 -0.302418 -0.899476
-0.170988 0.046097 1.010830 128 128 255 0.314967 -0.156999 -0.936027
-0.168559 0.032729 1.012672 128 128 255 0.289334 0.015474 -0.957103
-0.164827 0.019666 1.012300 128 128 255 0.237797 0.190953 -0.952360
-0.159836 0.007029 1.009746 128 128 255 0.169187 0.342513 -0.924154
-0.153696 -0.005084 1.005229 128 128 255 0.096785 0.454514 -0.885466
-0.146564 -0.016616 0.999139 128 128 255 0.031552 0.525323 -0.850317
-0.138635 -0.027553 0.992000 128 128 255 -0.019728 0.560365 -0.828011
-0.130118 -0.037928 0.984427 128 128 255 -0.052641 0.565497 -0.823068
-0.121218 -0.047813 0.977072 128 128 255 -0.062937 0.544047 -0.836691
-0.112114 -0.057315 0.970568 128 128 255 -0.045395 0.496371 -0.866923
-0.102946 -0.066553 0.965476 128 128 255 0.005372 0.421287 -0.906911
-0.093800 -0.075650 0.962234 128 128 255 0.090809 0.320281 -0.942960
-0.084709 -0.084709 0.961122 128 128 255 0.201913 0.203894 -0.957945
-0.075650 -0.093800 0.962234 128 128 255 0.318381 0.092829 -0.943407
-0.066553 -0.102946 0.965476 128 128 255 0.419475 0.007385 -0.907737
-0.057315 -0.112114 0.970568 128 128 255 0.494623 -0.043427 -0.868022
-0.047813 -0.121218 0.977072 128 128 255 0.542313 -0.061034 -0.837956
-0.037928 -0.130118 0.984427 128 128 255 0.563720 -0.050815 -0.824401
-0.027553 -0.138635 0.992000 128 128 255 0.558487 -0.017997 -0.829318
-0.016616 -0.146564 0.999139 128 128 255 0.523291 0.033161 -0.851509
-0.005084 -0.153696 1.005229 128 128 255 0.452288 0.098229 -0.886446
0.007029 -0.159836 1.009746 128 128 255 0.340083 0.170409 -0.924827
0.019666 -0.164827 1.012300 128 128 255 0.188350 0.238734 -0.952644
0.032729 -0.168559 1.012672 128 128 255 0.012769 0.289938 -0.956960
0.046097 -0.170988 1.010830 128 128 255 -0.159725 0.315232 -0.935477
0.059632 -0.172137 1.006932 128 128 255 -0.305093 0.315370 -0.898588
0.073201 -0.172094 1.001314 128 128 255 -0.412223 0.298049 -0.860952
0.086686 -0.171004 0.994459 128 128 255 -0.480510 0.272251 -0.833660
0.100000 -0.169056 0.986959 128 128 255 -0.512876 0.245352 -0.822655
0.113090 -0.166460 0.979459 128 128 255 -0.511001 0.223068 -0.830132
0.125945 -0.163427 0.972605 128 128 255 -0.473566 0.210259 -0.855293
0.138590 -0.160151 0.966987 128 128 255 -0.396927 0.211287 -0.893200
0.151078 -0.156784 0.963089 128 128 255 -0.279296 0.229099 -0.932474
0.163480 -0.153427 0.961246 128 128 255 -0.129103 0.262900 -0.956147
0.175871 -0.150115 0.961618 128 128 255 0.029490 0.306747 -0.951334
0.188314 -0.146820 0.964173 128 128 255 0.166313 0.352444 -0.920936
0.200842 -0.143455 0.968690 128 128 255 0.262650 0.394143 -0.880719
0.213457 -0.139884 0.974780 128 128 255 0.315392 0.429193 -0.846357
0.226111 -0.135938 0.981919 128 128 255 0.329072 0.456033 -0.826889
0.238717 -0.131436 0.989492 128 128 255 0.308661 0.472275 -0.825642
0.251146 -0.126206 0.996847 128 128 255 0.256940 0.473670 -0.842389
0.263238 -0.120102 1.003350 128 128 255 0.174922 0.453650 -0.873845
0.274822 -0.113021 1.008442 128 128 255 0.064532 0.404067 -0.912450
0.285724 -0.104915 1.011684 128 128 255 -0.066781 0.318772 -0.945476
0.295794 -0.095794 1.012797 128 128 255 -0.202394 0.200430 -0.958574
0.304915 -0.085724 1.011684 128 128 255 -0.320461 0.064607 -0.945056
0.313021 -0.074822 1.008442 128 128 255 -0.405460 -0.066841 -0.911666
0.320102 -0.063238 1.003350 128 128 255 -0.454767 -0.177306 -0.872783
0.326206 -0.051146 0.996847 128 128 255 -0.474554 -0.259359 -0.841149
0.331436 -0.038717 0.989492 128 128 255 -0.472984 -0.311109 -0.824316
0.335938 -0.026111 0.981919 128 128 255 -0.456626 -0.331553 -0.825569
0.339884 -0.013457 0.974780 128 128 255 -0.429730 -0.317927 -0.845136
0.343455 -0.000842 0.968690 128 128 255 -0.394679 -0.265254 -0.879698
0.346820 0.011686 0.964173 128 128 255 -0.353027 -0.168981 -0.920227
0.350115 0.024129 0.961618 128 128 255 -0.307413 -0.032198 -0.951031
0.353427 0.036520 0.961246 128 128 255 -0.263652 0.126409 -0.956299
0.356784 0.048922 0.963089 128 128 255 -0.229916 0.276665 -0.933057
0.360151 0.061410 0.966987 128 128 255 -0.212127 0.394380 -0.894129
0.363427 0.074055 0.972605 128 128 255 -0.211078 0.471086 -0.856460
0.366460 0.086910 0.979459 128 128 255 -0.223824 0.508554 -0.831430
0.369056 0.100000 0.986959 128 128 255 -0.203822 0.562097 -0.801563
0.453961 0.100000 0.954538 128 128 255 -0.430569 0.375350 -0.820806
0.456530 0.117515 0.961779 128 128 255 -0.420393 0.372955 -0.827148
0.457969 0.135257 0.968396 128 128 255 -0.441141 0.304076 -0.844353
0.458031 0.153109 0.973820 128 128 255 -0.454475 0.204478 -0.866972
0.456522 0.170917 0.977583 128 128 255 -0.453198 0.078005 -0.887990
0.453328 0.188504 0.979362 128 128 255 -0.431763 -0.065194 -0.899628
0.448417 0.205691 0.979003 128 128 255 -0.389504 -0.209002 -0.896998
0.441850 0.222316 0.976537 128 128 255 -0.332036 -0.336553 -0.881183
0.433767 0.238251 0.972176 128 128 255 -0.268876 -0.436636 -0.858519
0.424380 0.253420 0.966296 128 128 255 -0.209538 -0.505706 -0.836873
0.413943 0.267806 0.959404 128 128 255 -0.161374 -0.545357 -0.822523
0.402734 0.281452 0.952093 128 128 255 -0.129662 -0.558816 -0.819093
0.391020 0.294453 0.944992 128 128 255 -0.118507 -0.548726 -0.827560
0.379039 0.306950 0.938713 128 128 255 -0.131274 -0.516553 -0.846133
0.366975 0.319100 0.933797 128 128 255 -0.169759 -0.463459 -0.869706
0.354942 0.331066 0.930667 128 128 255 -0.231968 -0.392615 -0.889969
0.342982 0.342982 0.929593 128 128 255 -0.309910 -0.311920 -0.898143
0.331066 0.354942 0.930667 128 128 255 -0.390673 -0.234023 -0.890285
0.319100 0.366975 0.933797 128 128 255 -0.461587 -0.171823 -0.870296
0.306950 0.379039 0.938713 128 128 255 -0.514725 -0.133312 -0.846927
0.294453 0.391020 0.944992 128 128 255 -0.546899 -0.120494 -0.828482
0.281452 0.402734 0.952093 128 128 255 -0.556937 -0.131572 -0.820067
0.267806 0.413943 0.959404 128 128 255 -0.543375 -0.163182 -0.823477
0.253420 0.424380 0.966296 128 128 255 -0.503576 -0.211206 -0.837737
0.238251 0.433767 0.972176 128 128 255 -0.434331 -0.270359 -0.859222
0.222316 0.441850 0.976537 128 128 255 -0.334066 -0.333278 -0.881661
0.205691 0.448417 0.979003 128 128 255 -0.206359 -0.390451 -0.897198
0.188504 0.453328 0.979362 128 128 255 -0.062452 -0.432378 -0.899527
0.170917 0.456522 0.977583 128 128 255 0.080783 -0.453475 -0.887600
0.153109 0.458031 0.973820 128 128 255 0.207232 -0.454439 -0.866337
0.135257 0.457969 0.968396 128 128 255 0.306776 -0.440837 -0.843535
0.117515 0.456530 0.961779 128 128 255 0.375593 -0.419878 -0.826216
0.100000 0.453961 0.954538 128 128 255 0.413353 -0.398155 -0.818909
0.082779 0.450539 0.947296 128 128 255 0.420434 -0.380974 -0.823464
0.065868 0.446544 0.940679 128 128 255 0.396610 -0.372395 -0.839061
0.049235 0.442229 0.935255 128 128 255 0.341558 -0.375123 -0.861754
0.032808 0.437797 0.931492 128 128 255 0.257375 -0.389877 -0.884168
0.016493 0.433379 0.929713 128 128 255 0.152292 -0.414617 -0.897162
0.000192 0.429022 0.930072 128 128 255 0.041997 -0.444896 -0.894597
-0.016176 0.424690 0.932538 128 128 255 -0.055120 -0.475840 -0.877803
-0.032659 0.420267 0.936899 128 128 255 -0.125536 -0.504011 -0.854525
-0.049255 0.415574 0.942779 128 128 255 -0.163659 -0.527416 -0.833695
-0.065906 0.410388 0.949671 128 128 255 -0.169447 -0.544321 -0.821585
-0.082493 0.404471 0.956983 128 128 255 -0.144903 -0.552184 -0.821034
-0.098847 0.397596 0.964083 128 128 255 -0.092260 -0.547132 -0.831946
-0.114759 0.389569 0.970362 128 128 255 -0.014085 -0.524013 -0.851594
-0.130001 0.380257 0.975278 128 128 255 0.085153 -0.477394 -0.874554
-0.144346 0.369594 0.978408 128 128 255 0.197010 -0.404087 -0.893253
-0.157594 0.357594 0.979482 128 128 255 0.308601 -0.306612 -0.900419
-0.169594 0.344346 0.978408 128 128 255 0.405810 -0.194802 -0.892956
-0.180257 0.330001 0.975278 128 128 255 0.478833 -0.082788 -0.873994
-0.189569 0.314759 0.970362 128 128 255 0.525182 0.016550 -0.850829
-0.197596 0.298847 0.964083 128 128 255 0.548071 0.094788 -0.831044
-0.204471 0.282493 0.956983 128 128 255 0.552943 0.147473 -0.820065
-0.210388 0.265906 0.949671 128 128 255 0.544958 0.172054 -0.820620
-0.215574 0.249255 0.942779 128 128 255 0.527990 0.166308 -0.832807
-0.220267 0.232659 0.936899 128 128 255 0.504578 0.128230 -0.853791
-0.224690 0.216176 0.932538 128 128 255 0.476448 0.057856 -0.877297
-0.229022 0.199808 0.930072 128 128 255 0.445576 -0.039244 -0.894383
-0.233379 0.183507 0.929713 128 128 255 0.415379 -0.149554 -0.897270
-0.237797 0.167192 0.931492 128 128 255 0.390704 -0.254684 -0.884582
-0.242229 0.150765 0.935255 128 128 255 0.375980 -0.338924 -0.862421
-0.246544 0.134132 0.940679 128 128 255 0.373237 -0.394020 -0.839906
-0.250539 0.117221 0.947296 128 128 255 0.381756 -0.417860 -0.824412
-0.253961 0.100000 0.954538 128 128 255 0.398829 -0.410761 -0.819884
-0.256530 0.082485 0.961779 128 128 255 0.420393 -0.372955 -0.827148
-0.257969 0.064743 0.968396 128 128 255 0.441141 -0.304077 -0.844353
-0.258031 0.046891 0.973820 128 128 255 0.454475 -0.204479 -0.866972
-0.256522 0.029083 0.977583 128 128 255 0.453198 -0.078005 -0.887990
-0.253328 0.011496 0.979362 128 128 255 0.431763 0.065194 -0.899628
-0.248417 -0.005691 0.979003 128 128 255 0.389504 0.209002 -0.896998
-0.241850 -0.022316 0.976537 128 128 255 0.332036 0.336554 -0.881183
-0.233767 -0.038251 0.972176 128 128 255 0.268876 0.436636 -0.858519
-0.224380 -0.053420 0.966296 128 128 255 0.209538 0.505706 -0.836873
-0.213943 -0.067806 0.959404 128 128 255 0.161374 0.545357 -0.822523
-0.202734 -0.081452 0.952093 128 128 255 0.129662 0.558816 -0.819093
-0.191020 -0.094453 0.944992 128 128 255 0.118507 0.548726 -0.827560
-0.179039 -0.106950 0.938713 128 128 255 0.131273 0.516553 -0.846133
-0.166975 -0.119100 0.933797 128 128 255 0.169759 0.463459 -0.869706
-0.154942 -0.131066 0.930667 128 128 255 0.231969 0.392615 -0.889969
-0.142982 -0.142982 0.929593 128 128 255 0.309910 0.311920 -0.898143
-0.131066 -0.154942 0.930667 128 128 255 0.390673 0.234024 -0.890285
-0.119100 -0.166975 0.933797 128 128 255 0.461587 0.171823 -0.870296
-0.106950 -0.179039 0.938713 128 128 255 0.514725 0.133312 -0.846927
-0.094453 -0.191020 0.944992 128 128 255 0.546899 0.120494 -0.828482
-0.081452 -0.202734 0.952093 128 128 255 0.556937 0.131573 -0.820067
-0.067806 -0.213943 0.959404 128 128 255 0.543375 0.163182 -0.823477
-0.053420 -0.224380 0.966296 128 128 255 0.503576 0.211207 -0.837737
-0.038251 -0.233767 0.972176 128 128 255 0.434331 0.270359 -0.859222
-0.022316 -0.241850 0.976537 128 128 255 0.334066 0.333278 -0.881661
-0.005691 -0.248417 0.979003 128 128 255 0.206359 0.390451 -0.897198
0.011496 -0.253328 0.979362 128 128 255 0.062452 0.432378 -0.899527
0.029083 -0.256522 0.977583 128 128 255 -0.080783 0.453475 -0.887600
0.046891 -0.258031 0.973820 128 128 255 -0.207232 0.454439 -0.866337
0.064743 -0.257969 0.968396 128 128 255 -0.306776 0.440837 -0.843535
0.082485 -0.256530 0.961779 128 128 255 -0.375593 0.419877 -0.826216
0.100000 -0.253961 0.954538 128 128 255 -0.413353 0.398155 -0.818909
0.117221 -0.250539 0.947296 128 128 255 -0.420434 0.380974 -0.823465
0.134132 -0.246544 0.940679 128 128 255 -0.396610 0.372395 -0.839061
0.150765 -0.242229 0.935255 128 128 255 -0.341559 0.375123 -0.861754
0.167192 -0.237797 0.931492 128 128 255 -0.257376 0.389877 -0.884168
0.183507 -0.233379 0.929713 128 128 255 -0.152292 0.414617 -0.897162
0.199808 -0.229022 0.930072 128 128 255 -0.041997 0.444896 -0.894597
0.216176 -0.224690 0.932538 128 128 255 0.055120 0.475841 -0.877803
0.232659 -0.220267 0.936899 128 128 255 0.125536 0.504011 -0.854525
0.249255 -0.215574 0.942779 128 128 255 0.163659 0.527416 -0.833695
0.265906 -0.210388 0.949671 128 128 255 0.169447 0.544321 -0.821585
0.282493 -0.204471 0.956983 128 128 255 0.144903 0.552184 -0.821033
0.298847 -0.197596 0.964083 128 128 255 0.092260 0.547133 -0.831946
0.314759 -0.189569 0.970362 128 128 255 0.014085 0.524013 -0.851594
0.330001 -0.180257 0.975278 128 128 255 -0.085153 0.477394 -0.874553
0.344346 -0.169594 0.978408 128 128 255 -0.197010 0.404087 -0.893253
0.357594 -0.157594 0.979482 128 128 255 -0.308601 0.306612 -0.900419
0.369594 -0.144346 0.978408 128 128 255 -0.405810 0.194802 -0.892956
0.380257 -0.130001 0.975278 128 128 255 -0.478833 0.082788 -0.873994
0.389569 -0.114759 0.970362 128 128 255 -0.525181 -0.016549 -0.850829
0.397596 -0.098847 0.964083 128 128 255 -0.548071 -0.094788 -0.831044
0.404471 -0.082493 0.956983 128 128 255 -0.552943 -0.147473 -0.820065
0.410388 -0.065906 0.949671 128 128 255 -0.544958 -0.172054 -0.820620
0.415574 -0.049255 0.942779 128 128 255 -0.527990 -0.166308 -0.832807
0.420267 -0.032659 0.936899 128 128 255 -0.504578 -0.128230 -0.853791
0.424690 -0.016176 0.932538 128 128 255 -0.476448 -0.057855 -0.877297
0.429022 0.000192 0.930072 128 128 255 -0.445576 0.039244 -0.894383
0.433379 0.016493 0.929713 128 128 255 -0.415379 0.149554 -0.897270
0.437797 0.032808 0.931492 128 128 255 -0.390704 0.254684 -0.884582
0.442229 0.049235 0.935255 128 128 255 -0.375980 0.338924 -0.862421
0.446544 0.065868 0.940679 128 128 255 -0.373237 0.394020 -0.839906
0.450539 0.082779 0.947296 128 128 255 -0.381756 0.417861 -0.824412
0.453961 0.100000 0.954538 128 128 255 -0.361197 0.450352 -0.816529
0.532331 0.100000 0.908835 128 128 255 -0.559499 0.314434 -0.766872
0.535501 0.121395 0.915747 128 128 255 -0.550858 0.302240 -0.777950
0.537287 0.143069 0.922064 128 128 255 -0.567722 0.233029 -0.789550
0.537384 0.164880 0.927242 128 128 255 -0.577853 0.138463 -0.804310
0.535557 0.186638 0.930835 128 128 255 -0.575266 0.023098 -0.817640
0.531662 0.208126 0.932532 128 128 255 -0.555615 -0.104285 -0.824874
0.525661 0.229123 0.932190 128 128 255 -0.518352 -0.231473 -0.823244
0.517628 0.249430 0.929835 128 128 255 -0.467616 -0.346102 -0.813356
0.507737 0.268890 0.925673 128 128 255 -0.410831 -0.439385 -0.798849
0.496247 0.287411 0.920060 128 128 255 -0.356120 -0.507566 -0.784573
0.483472 0.304970 0.913481 128 128 255 -0.310432 -0.550785 -0.774770
0.469753 0.321621 0.906501 128 128 255 -0.279024 -0.570983 -0.772091
0.455421 0.337484 0.899723 128 128 255 -0.265670 -0.570314 -0.777278
0.440766 0.352730 0.893729 128 128 255 -0.272724 -0.550569 -0.788984
0.426016 0.367555 0.889036 128 128 255 -0.300517 -0.513649 -0.803651
0.411312 0.382157 0.886049 128 128 255 -0.346169 -0.462927 -0.816006
0.396705 0.396705 0.885023 128 128 255 -0.402884 -0.404685 -0.820923
0.382157 0.411312 0.886049 128 128 255 -0.461183 -0.348017 -0.816207
0.367555 0.426016 0.889036 128 128 255 -0.511955 -0.302389 -0.804029
0.352730 0.440766 0.893729 128 128 255 -0.548898 -0.274594 -0.789499
0.337484 0.455421 0.899723 128 128 255 -0.568630 -0.267508 -0.777881
0.321621 0.469753 0.906501 128 128 255 -0.569245 -0.280799 -0.772730
0.304970 0.483472 0.913481 128 128 255 -0.548953 -0.312109 -0.775396
0.287411 0.496247 0.920060 128 128 255 -0.505607 -0.357660 -0.785137
0.268890 0.507737 0.925673 128 128 255 -0.437280 -0.412189 -0.799304
0.249430 0.517628 0.929835 128 128 255 -0.343852 -0.468742 -0.813662
0.229123 0.525661 0.932190 128 128 255 -0.229095 -0.519205 -0.823372
0.208126 0.531662 0.932532 128 128 255 -0.101819 -0.556167 -0.824810
0.186638 0.535557 0.930835 128 128 255 0.025607 -0.575514 -0.817391
0.164880 0.537384 0.927242 128 128 255 0.140971 -0.577817 -0.803900
0.143069 0.537287 0.922064 128 128 255 0.235508 -0.567440 -0.789017
0.121395 0.535501 0.915747 128 128 255 0.304679 -0.550376 -0.777339
0.100000 0.532331 0.908835 128 128 255 0.346927 -0.532443 -0.772105
0.078968 0.528120 0.901923 128 128 255 0.362038 -0.518410 -0.774713
0.058317 0.523213 0.895606 128 128 255 0.350236 -0.511705 -0.784533
0.038007 0.517920 0.890428 128 128 255 0.312481 -0.514174 -0.798737
0.017950 0.512491 0.886836 128 128 255 0.251947 -0.525715 -0.812494
-0.001970 0.507088 0.885138 128 128 255 0.175897 -0.544163 -0.820334
-0.021876 0.501770 0.885481 128 128 255 0.095977 -0.565998 -0.818801
-0.041867 0.496490 0.887835 128 128 255 0.025391 -0.587767 -0.808632
-0.062002 0.491107 0.891998 128 128 255 -0.025295 -0.607058 -0.794255
-0.082280 0.485399 0.897610 128 128 255 -0.050354 -0.622290 -0.781166
-0.102629 0.479092 0.904190 128 128 255 -0.048155 -0.631842 -0.773600
-0.122904 0.471893 0.911169 128 128 255 -0.019384 -0.633325 -0.773643
-0.142896 0.463520 0.917948 128 128 255 0.034099 -0.623311 -0.781231
-0.162349 0.453737 0.923941 128 128 255 0.109253 -0.597588 -0.794325
-0.180982 0.442377 0.928634 128 128 255 0.201022 -0.552135 -0.809158
-0.198515 0.429361 0.931622 128 128 255 0.301461 -0.484979 -0.820924
-0.214704 0.414704 0.932647 128 128 255 0.400129 -0.398342 -0.825361
-0.229361 0.398515 0.931622 128 128 255 0.486531 -0.299470 -0.820735
-0.242377 0.380982 0.928634 128 128 255 0.553439 -0.198874 -0.808798
-0.253737 0.362349 0.923941 128 128 255 0.598655 -0.106993 -0.793829
-0.263520 0.342896 0.917948 128 128 255 0.624173 -0.031764 -0.780640
-0.271893 0.322904 0.911169 128 128 255 0.634023 0.021766 -0.773007
-0.279092 0.302629 0.904190 128 128 255 0.632427 0.050571 -0.772967
-0.285399 0.282280 0.897610 128 128 255 0.622814 0.052794 -0.780587
-0.291107 0.262002 0.891998 128 128 255 0.607571 0.027756 -0.793780
-0.296490 0.241867 0.887835 128 128 255 0.588313 -0.022920 -0.808308
-0.301770 0.221876 0.885481 128 128 255 0.566607 -0.093506 -0.818665
-0.307088 0.201970 0.885138 128 128 255 0.544846 -0.173446 -0.820402
-0.312491 0.182050 0.886836 128 128 255 0.526462 -0.249523 -0.812758
-0.317920 0.161993 0.890428 128 128 255 0.514956 -0.310087 -0.799166
-0.323213 0.141683 0.895606 128 128 255 0.512483 -0.347859 -0.785083
-0.328120 0.121032 0.901923 128 128 255 0.519138 -0.359658 -0.775334
-0.332331 0.100000 0.908835 128 128 255 0.533073 -0.344525 -0.772746
-0.335501 0.078605 0.915747 128 128 255 0.550858 -0.302240 -0.777950
-0.337287 0.056931 0.922064 128 128 255 0.567722 -0.233029 -0.789550
-0.337384 0.035120 0.927242 128 128 255 0.577853 -0.138463 -0.804310
-0.335557 0.013362 0.930835 128 128 255 0.575266 -0.023098 -0.817640
-0.331662 -0.008126 0.932532 128 128 255 0.555615 0.104285 -0.824874
-0.325661 -0.029123 0.932190 128 128 255 0.518352 0.231473 -0.823244
-0.317628 -0.049430 0.929835 128 128 255 0.467616 0.346102 -0.813356
-0.307737 -0.068890 0.925673 128 128 255 0.410831 0.439385 -0.798849
-0.296247 -0.087411 0.920060 128 128 255 0.356120 0.507566 -0.784573
-0.283472 -0.104970 0.913481 128 128 255 0.310432 0.550785 -0.774770
-0.269753 -0.121621 0.906501 128 128 255 0.279024 0.570983 -0.772091
-0.255421 -0.137484 0.899723 128 128 255 0.265670 0.570314 -0.777278
-0.240766 -0.152730 0.893729 128 128 255 0.272724 0.550569 -0.788984
-0.226016 -0.167555 0.889036 128 128 255 0.300517 0.513649 -0.803651
-0.211312 -0.182157 0.886049 128 128 255 0.346169 0.462927 -0.816006
-0.196705 -0.196705 0.885023 128 128 255 0.402885 0.404685 -0.820923
-0.182157 -0.211312 0.886049 128 128 255 0.461183 0.348017 -0.816207
-0.167555 -0.226016 0.889036 128 128 255 0.511955 0.302389 -0.804029
-0.152730 -0.240766 0.893729 128 128 255 0.548898 0.274594 -0.789499
-0.137484 -0.255421 0.899723 128 128 255 0.568630 0.267507 -0.777881
-0.121621 -0.269753 0.906501 128 128 255 0.569245 0.280799 -0.772730
-0.104970 -0.283472 0.913481 128 128 255 0.548953 0.312109 -0.775396
-0.087411 -0.296247 0.920060 128 128 255 0.505607 0.357660 -0.785137
-0.068890 -0.307737 0.925673 128 128 255 0.437280 0.412188 -0.799304
-0.049430 -0.317628 0.929835 128 128 255 0.343852 0.468743 -0.813662
-0.029123 -0.325661 0.932190 128 128 255 0.229095 0.519205 -0.823372
-0.008126 -0.331662 0.932532 128 128 255 0.101819 0.556167 -0.824809
0.013362 -0.335557 0.930835 128 128 255 -0.025606 0.575514 -0.817391
0.035120 -0.337384 0.927242 128 128 255 -0.140972 0.577817 -0.803900
0.056931 -0.337287 0.922064 128 128 255 -0.235508 0.567440 -0.789017
0.078605 -0.335501 0.915747 128 128 255 -0.304679 0.550376 -0.777339
0.100000 -0.332331 0.908835 128 128 255 -0.346927 0.532443 -0.772105
0.121032 -0.328120 0.901923 128 128 255 -0.362038 0.518410 -0.774713
0.141683 -0.323213 0.895606 128 128 255 -0.350237 0.511705 -0.784533
0.161993 -0.317920 0.890428 128 128 255 -0.312482 0.514174 -0.798737
0.182050 -0.312491 0.886836 128 128 255 -0.251947 0.525715 -0.812494
0.201970 -0.307088 0.885138 128 128 255 -0.175897 0.544163 -0.820334
0.221876 -0.301770 0.885481 128 128 255 -0.095977 0.565998 -0.818801
0.241867 -0.296490 0.887835 128 128 255 -0.025391 0.587767 -0.808632
0.262002 -0.291107 0.891998 128 128 255 0.025295 0.607058 -0.794255
0.282280 -0.285399 0.897610 128 128 255 0.050354 0.622290 -0.781166
0.302629 -0.279092 0.904190 128 128 255 0.048155 0.631842 -0.773600
0.322904 -0.271893 0.911169 128 128 255 0.019383 0.633325 -0.773643
0.342896 -0.263520 0.917948 128 128 255 -0.034099 0.623311 -0.781230
0.362349 -0.253737 0.923941 128 128 255 -0.109253 0.597588 -0.794325
0.380982 -0.242377 0.928634 128 128 255 -0.201022 0.552135 -0.809158
0.398515 -0.229361 0.931622 128 128 255 -0.301461 0.484979 -0.820924
0.414704 -0.214704 0.932647 128 128 255 -0.400129 0.398342 -0.825361
0.429361 -0.198515 0.931622 128 128 255 -0.486531 0.299470 -0.820735
0.442377 -0.180982 0.928634 128 128 255 -0.553439 0.198874 -0.808798
