ply
format ascii 1.0
element vertex 695
property float x
property float y
property float z
property uchar red
property uchar green
property uchar blue
property float nx
property float ny
property float nz
end_header
0.606549 -0.658104 0.376581 128 128 255 -0.569443 0.711191 -0.412241
0.641874 -0.630633 0.375937 128 128 255 -0.546955 0.705815 -0.450184
0.677449 -0.603624 0.376118 128 128 255 -0.525052 0.703204 -0.479401
0.713445 -0.576832 0.377096 128 128 255 -0.508212 0.701495 -0.499625
0.749889 -0.549889 0.378801 128 128 255 -0.500019 0.698757 -0.511585
0.786652 -0.522345 0.381117 128 128 255 -0.502768 0.693060 -0.516616
0.823442 -0.493713 0.383895 128 128 255 -0.517428 0.682490 -0.516213
0.859820 -0.463521 0.386961 128 128 255 -0.543790 0.665160 -0.511717
0.895225 -0.431352 0.390124 128 128 255 -0.580662 0.639275 -0.504142
0.929009 -0.396889 0.393190 128 128 255 -0.626032 0.603247 -0.494143
0.960485 -0.359939 0.395974 128 128 255 -0.677190 0.555905 -0.482062
0.988975 -0.320454 0.398308 128 128 255 -0.730876 0.496763 -0.468025
1.013861 -0.278534 0.400057 128 128 255 -0.783514 0.426310 -0.452068
1.034633 -0.234417 0.401120 128 128 255 -0.831602 0.346202 -0.434261
1.050928 -0.188461 0.401441 128 128 255 -0.872197 0.259253 -0.414800
1.062555 -0.141107 0.401009 128 128 255 -0.903390 0.169159 -0.394046
1.069515 -0.092849 0.399861 128 128 255 -0.924589 0.079989 -0.372473
1.072000 -0.044183 0.398079 128 128 255 -0.936523 -0.004374 -0.350580
1.070374 0.004427 0.395784 128 128 255 -0.940958 -0.080692 -0.328765
1.065148 0.052585 0.393127 128 128 255 -0.940271 -0.146599 -0.307244
1.056940 0.100000 0.390285 128 128 255 -0.936772 -0.163426 -0.309434
1.080785 0.100000 0.295090 128 128 255 -0.952189 -0.249758 -0.175948
1.068438 0.147576 0.292867 128 128 255 -0.944889 -0.267386 -0.188917
1.054374 0.193998 0.290755 128 128 255 -0.936149 -0.300096 -0.183215
1.039198 0.239317 0.288862 128 128 255 -0.930266 -0.322285 -0.175324
1.023436 0.283683 0.287281 128 128 255 -0.927762 -0.335150 -0.164112
1.007497 0.327316 0.286089 128 128 255 -0.928408 -0.340502 -0.148718
0.991648 0.370478 0.285340 128 128 255 -0.931287 -0.340776 -0.128751
0.976001 0.413438 0.285066 128 128 255 -0.934993 -0.338931 -0.104469
0.960511 0.456436 0.285269 128 128 255 -0.937946 -0.338168 -0.076810
0.944985 0.499648 0.285929 128 128 255 -0.938681 -0.341531 -0.047266
0.929104 0.543165 0.287000 128 128 255 -0.936019 -0.351508 -0.017624
0.912454 0.586966 0.288413 128 128 255 -0.929069 -0.369762 0.010309
0.894564 0.630911 0.290084 128 128 255 -0.917128 -0.397063 0.034896
0.874949 0.674741 0.291914 128 128 255 -0.899556 -0.433363 0.054742
0.853145 0.718090 0.293800 128 128 255 -0.875707 -0.477935 0.068673
0.828754 0.760504 0.295638 128 128 255 -0.844921 -0.529509 0.075685
0.801475 0.801475 0.297328 128 128 255 -0.806582 -0.586359 0.074895
0.771122 0.840469 0.298783 128 128 255 -0.760222 -0.646349 0.065539
0.737642 0.876970 0.299931 128 128 255 -0.705673 -0.706976 0.047019
0.701119 0.910515 0.300722 128 128 255 -0.643229 -0.765438 0.019005
0.661756 0.940727 0.301127 128 128 255 -0.573826 -0.818770 -0.018417
0.619866 0.967345 0.301142 128 128 255 -0.499153 -0.864103 -0.064594
0.575842 0.990237 0.300788 128 128 255 -0.421663 -0.899017 -0.118190
0.530121 1.009415 0.300106 128 128 255 -0.344411 -0.921947 -0.177188
0.483157 1.025022 0.299158 128 128 255 -0.270701 -0.932519 -0.239016
0.435381 1.037327 0.298021 128 128 255 -0.203632 -0.931689 -0.300815
0.387176 1.046693 0.296782 128 128 255 -0.145633 -0.921613 -0.359752
0.338852 1.053549 0.295533 128 128 255 -0.098128 -0.905290 -0.413305
0.290627 1.058349 0.294362 128 128 255 -0.061414 -0.886087 -0.459432
0.242630 1.061536 0.293354 128 128 255 -0.034705 -0.867278 -0.496613
0.194896 1.063500 0.292579 128 128 255 -0.016323 -0.851681 -0.523807
0.147385 1.064549 0.292092 128 128 255 -0.003932 -0.841427 -0.540356
0.100000 1.064876 0.291926 128 128 255 0.005243 -0.837837 -0.545896
0.052615 1.064549 0.292092 128 128 255 0.014181 -0.841358 -0.540292
0.005104 1.063500 0.292579 128 128 255 0.025886 -0.851552 -0.523631
-0.042630 1.061536 0.293354 128 128 255 0.043172 -0.867106 -0.496250
-0.090627 1.058349 0.294362 128 128 255 0.068445 -0.885893 -0.458813
-0.138852 1.053549 0.295533 128 128 255 0.103468 -0.905104 -0.412409
-0.187176 1.046693 0.296782 128 128 255 0.149114 -0.921492 -0.358634
-0.235381 1.037327 0.298021 128 128 255 0.205191 -0.931732 -0.299620
-0.283157 1.025022 0.299158 128 128 255 0.270390 -0.932878 -0.237965
-0.330121 1.009415 0.300106 128 128 255 0.342407 -0.922819 -0.176531
-0.375842 0.990237 0.300788 128 128 255 0.418270 -0.900604 -0.118163
-0.419866 0.967345 0.301142 128 128 255 0.494772 -0.866561 -0.065375
-0.461756 0.940727 0.301127 128 128 255 0.568908 -0.822155 -0.020108
-0.501119 0.910515 0.300722 128 128 255 0.638216 -0.769683 0.016379
-0.537642 0.876970 0.299931 128 128 255 0.700935 -0.711898 0.043498
-0.571122 0.840469 0.298783 128 128 255 0.756025 -0.651674 0.061215
-0.601475 0.801475 0.297328 128 128 255 0.803070 -0.591770 0.069906
-0.628754 0.760504 0.295638 128 128 255 0.842131 -0.534682 0.070213
-0.653145 0.718090 0.293800 128 128 255 0.873592 -0.482570 0.062947
-0.674948 0.674741 0.291914 128 128 255 0.898023 -0.437208 0.049038
-0.694564 0.630911 0.290084 128 128 255 0.916072 -0.399925 0.029533
-0.712454 0.586966 0.288413 128 128 255 0.928409 -0.371516 0.005632
-0.729104 0.543165 0.287000 128 128 255 0.935716 -0.352112 -0.021272
-0.744985 0.499648 0.285929 128 128 255 0.938743 -0.341033 -0.049583
-0.760511 0.456436 0.285269 128 128 255 0.938407 -0.336711 -0.077580
-0.776001 0.413438 0.285066 128 128 255 0.935879 -0.336748 -0.103589
-0.791648 0.370478 0.285340 128 128 255 0.932584 -0.338156 -0.126241
-0.807497 0.327316 0.286089 128 128 255 0.930047 -0.337748 -0.144706
-0.823436 0.283683 0.287281 128 128 255 0.929624 -0.332536 -0.158808
-0.839198 0.239317 0.288862 128 128 255 0.932216 -0.320025 -0.168990
-0.854374 0.193998 0.290755 128 128 255 0.938065 -0.298340 -0.176145
-0.868438 0.147576 0.292867 128 128 255 0.946683 -0.266226 -0.181422
-0.880785 0.100000 0.295090 128 128 255 0.956898 -0.223007 -0.186051
-0.890770 0.051327 0.297314 128 128 255 0.966967 -0.168561 -0.191211
-0.897751 0.001730 0.299425 128 128 255 0.974749 -0.103349 -0.197949
-0.901142 -0.048505 0.301318 128 128 255 0.977901 -0.028481 -0.207118
-0.900444 -0.099001 0.302899 128 128 255 0.974146 0.054212 -0.219319
-0.895288 -0.149307 0.304091 128 128 255 0.961578 0.142164 -0.234856
-0.885458 -0.198935 0.304840 128 128 255 0.939002 0.232186 -0.253701
-0.870904 -0.247395 0.305115 128 128 255 0.906220 0.320735 -0.275489
-0.851743 -0.294225 0.304911 128 128 255 0.864174 0.404316 -0.299554
-0.828254 -0.339031 0.304251 128 128 255 0.814879 0.479942 -0.325003
-0.800847 -0.381513 0.303181 128 128 255 0.761154 0.545509 -0.350804
-0.770041 -0.421483 0.301768 128 128 255 0.706213 0.599989 -0.375867
-0.736422 -0.458879 0.300097 128 128 255 0.653251 0.643423 -0.399087
-0.700600 -0.493765 0.298267 128 128 255 0.605103 0.676755 -0.419348
-0.663170 -0.526317 0.296380 128 128 255 0.564024 0.701579 -0.435505
-0.624674 -0.556806 0.294543 128 128 255 0.531561 0.719880 -0.446336
-0.585565 -0.585565 0.292853 128 128 255 0.508477 0.733808 -0.450530
-0.546189 -0.612959 0.291398 128 128 255 0.494701 0.745468 -0.446708
-0.506765 -0.639345 0.290250 128 128 255 0.489263 0.756763 -0.433511
-0.467388 -0.665034 0.289459 128 128 255 0.490254 0.769225 -0.409809
-0.428034 -0.690259 0.289054 128 128 255 0.494870 0.783894 -0.374986
-0.388582 -0.715150 0.289038 128 128 255 0.499611 0.801226 -0.329282
-0.348836 -0.739713 0.289393 128 128 255 0.500689 0.821102 -0.274049
-0.308558 -0.763824 0.290074 128 128 255 0.494588 0.842930 -0.211780
-0.267504 -0.787233 0.291022 128 128 255 0.478622 0.865826 -0.145827
-0.225452 -0.809578 0.292159 128 128 255 0.451280 0.888801 -0.079873
-0.182238 -0.830413 0.293398 128 128 255 0.412268 0.910897 -0.017385
-0.137771 -0.849236 0.294648 128 128 255 0.362287 0.931259 0.038789
-0.092056 -0.865531 0.295819 128 128 255 0.302706 0.949144 0.086568
-0.045192 -0.878804 0.296827 128 128 255 0.235258 0.963915 0.124582
0.002629 -0.888625 0.297601 128 128 255 0.161828 0.975039 0.152020
0.051136 -0.894659 0.298089 128 128 255 0.084338 0.982096 0.168447
0.100000 -0.896695 0.298255 128 128 255 0.004711 0.984793 0.173668
0.148864 -0.894659 0.298089 128 128 255 -0.075130 0.982981 0.167643
0.197371 -0.888625 0.297601 128 128 255 -0.153241 0.976667 0.150461
0.245192 -0.878804 0.296827 128 128 255 -0.227653 0.966022 0.122375
0.292056 -0.865531 0.295819 128 128 255 -0.296370 0.951382 0.083889
0.337771 -0.849236 0.294648 128 128 255 -0.357434 0.933248 0.035896
0.382238 -0.830413 0.293398 128 128 255 -0.409047 0.912291 -0.020166
0.425452 -0.809578 0.292159 128 128 255 -0.449794 0.889344 -0.082181
0.467504 -0.787233 0.291022 128 128 255 -0.478936 0.865399 -0.147327
0.508558 -0.763824 0.290074 128 128 255 -0.496721 0.841559 -0.212241
0.548836 -0.739713 0.289393 128 128 255 -0.504581 0.818936 -0.273389
0.588582 -0.715150 0.289038 128 128 255 -0.505088 0.798486 -0.327576
0.628034 -0.690259 0.289054 128 128 255 -0.501628 0.780819 -0.372413
0.667388 -0.665034 0.289459 128 128 255 -0.497888 0.766028 -0.406582
0.706765 -0.639345 0.290250 128 128 255 -0.497322 0.753609 -0.429820
0.746189 -0.612959 0.291398 128 128 255 -0.502743 0.742476 -0.442695
0.785565 -0.585565 0.292853 128 128 255 -0.516117 0.731052 -0.446303
0.824674 -0.556806 0.294543 128 128 255 -0.538490 0.717409 -0.441987
0.863170 -0.526317 0.296380 128 128 255 -0.570013 0.699428 -0.431144
0.900600 -0.493765 0.298267 128 128 255 -0.610001 0.674962 -0.415121
0.936422 -0.458879 0.300097 128 128 255 -0.656984 0.642032 -0.395179
0.970041 -0.421483 0.301768 128 128 255 -0.708782 0.599055 -0.372506
1.000847 -0.381513 0.303181 128 128 255 -0.762637 0.545086 -0.348234
1.028254 -0.339031 0.304251 128 128 255 -0.815424 0.480060 -0.323459
1.051744 -0.294225 0.304911 128 128 255 -0.863983 0.404959 -0.299235
1.070904 -0.247395 0.305115 128 128 255 -0.905518 0.321825 -0.276526
1.085458 -0.198935 0.304840 128 128 255 -0.937994 0.233579 -0.256142
1.095288 -0.149307 0.304091 128 128 255 -0.960418 0.143666 -0.238659
1.100444 -0.099001 0.302899 128 128 255 -0.972918 0.055614 -0.224360
1.101142 -0.048505 0.301318 128 128 255 -0.976624 -0.027375 -0.213202
1.097751 0.001730 0.299425 128 128 255 -0.973395 -0.102695 -0.204830
1.090770 0.051327 0.297314 128 128 255 -0.965492 -0.168470 -0.198605
1.080785 0.100000 0.295090 128 128 255 -0.957369 -0.197185 -0.211099
1.095185 0.100000 0.198017 128 128 255 -0.971785 -0.217472 -0.091318
1.083301 0.148306 0.196964 128 128 255 -0.960136 -0.252301 -0.120349
1.069507 0.195488 0.195950 128 128 255 -0.946925 -0.290052 -0.138575
1.054266 0.241552 0.195015 128 128 255 -0.935014 -0.319832 -0.153156
1.037990 0.286578 0.194194 128 128 255 -0.925397 -0.342516 -0.162245
1.021017 0.330703 0.193515 128 128 255 -0.918620 -0.359377 -0.164274
1.003593 0.374102 0.193001 128 128 255 -0.914674 -0.371986 -0.158109
0.985863 0.416967 0.192667 128 128 255 -0.912952 -0.382109 -0.143221
0.967863 0.459481 0.192520 128 128 255 -0.912310 -0.391573 -0.119842
0.949530 0.501798 0.192558 128 128 255 -0.911246 -0.402121 -0.089049
0.930709 0.544023 0.192772 128 128 255 -0.908168 -0.415272 -0.052726
0.911171 0.586197 0.193145 128 128 255 -0.901676 -0.432205 -0.013368
0.890637 0.628287 0.193655 128 128 255 -0.890771 -0.453694 0.026235
0.868802 0.670182 0.194272 128 128 255 -0.874925 -0.480099 0.063341
0.845356 0.711697 0.194968 128 128 255 -0.854012 -0.511409 0.095521
0.820014 0.752583 0.195708 128 128 255 -0.828165 -0.547312 0.120803
0.792536 0.792536 0.196462 128 128 255 -0.797611 -0.587250 0.137675
0.762742 0.831224 0.197198 128 128 255 -0.762554 -0.630458 0.145031
0.730526 0.868298 0.197891 128 128 255 -0.723119 -0.675949 0.142098
0.695858 0.903421 0.198518 128 128 255 -0.679349 -0.722495 0.128396
0.658787 0.936283 0.199062 128 128 255 -0.631274 -0.768584 0.103782
0.619433 0.966622 0.199513 128 128 255 -0.579022 -0.812424 0.068561
0.577977 0.994233 0.199866 128 128 255 -0.522961 -0.852029 0.023653
0.534644 1.018978 0.200124 128 128 255 -0.463836 -0.885438 -0.029255
0.489688 1.040791 0.200294 128 128 255 -0.402834 -0.911065 -0.087661
0.443375 1.059668 0.200387 128 128 255 -0.341505 -0.928089 -0.148409
0.395964 1.075663 0.200418 128 128 255 -0.281540 -0.936726 -0.208037
0.347700 1.088874 0.200405 128 128 255 -0.224446 -0.938257 -0.263245
0.298798 1.099426 0.200363 128 128 255 -0.171240 -0.934758 -0.311294
0.249442 1.107453 0.200311 128 128 255 -0.122276 -0.928661 -0.350196
0.199780 1.113081 0.200263 128 128 255 -0.077225 -0.922291 -0.378702
0.149933 1.116413 0.200229 128 128 255 -0.035198 -0.917520 -0.396130
0.100000 1.117516 0.200217 128 128 255 0.005092 -0.915550 -0.402172
0.050067 1.116413 0.200229 128 128 255 0.045127 -0.916822 -0.396737
0.000220 1.113081 0.200263 128 128 255 0.086404 -0.920983 -0.379901
-0.049442 1.107453 0.200311 128 128 255 0.130247 -0.926909 -0.351961
-0.098798 1.099426 0.200363 128 128 255 0.177612 -0.932800 -0.313589
-0.147700 1.088874 0.200405 128 128 255 0.228925 -0.936386 -0.266036
-0.195964 1.075663 0.200418 128 128 255 0.283967 -0.935265 -0.211289
-0.243375 1.059668 0.200387 128 128 255 0.341873 -0.927356 -0.152099
-0.289688 1.040791 0.200294 128 128 255 0.401298 -0.911338 -0.091773
-0.334644 1.018978 0.200124 128 128 255 0.460696 -0.886915 -0.033777
-0.377977 0.994233 0.199866 128 128 255 0.518619 -0.854800 0.018731
-0.419433 0.966622 0.199513 128 128 255 0.573933 -0.816456 0.063252
-0.458787 0.936283 0.199062 128 128 255 0.625886 -0.773719 0.098107
-0.495858 0.903421 0.198518 128 128 255 0.674057 -0.728469 0.122389
-0.530526 0.868298 0.197891 128 128 255 0.718237 -0.682415 0.135814
-0.562742 0.831224 0.197198 128 128 255 0.758299 -0.637012 0.138558
-0.592536 0.792536 0.196462 128 128 255 0.794101 -0.593468 0.131148
-0.620014 0.752583 0.195708 128 128 255 0.825440 -0.552773 0.114417
-0.645356 0.711697 0.194968 128 128 255 0.852057 -0.515735 0.089531
-0.668802 0.670182 0.194272 128 128 255 0.873702 -0.482987 0.058049
-0.690637 0.628287 0.193655 128 128 255 0.890247 -0.454948 0.021963
-0.711171 0.586197 0.193145 128 128 255 0.901840 -0.431761 -0.016327
-0.730709 0.544023 0.192772 128 128 255 0.909023 -0.413213 -0.054153
-0.749530 0.501798 0.192558 128 128 255 0.912781 -0.398673 -0.088830
-0.767863 0.459481 0.192520 128 128 255 0.914468 -0.387080 -0.117972
-0.785863 0.416967 0.192667 128 128 255 0.915609 -0.376990 -0.139781
-0.803593 0.374102 0.193001 128 128 255 0.917641 -0.366682 -0.153231
-0.821017 0.330703 0.193515 128 128 255 0.921665 -0.354306 -0.158116
-0.837990 0.286578 0.194194 128 128 255 0.928283 -0.338041 -0.154980
-0.854266 0.241552 0.195015 128 128 255 0.937536 -0.316238 -0.144979
-0.869507 0.195488 0.195950 128 128 255 0.948941 -0.287552 -0.129713
-0.883301 0.148306 0.196964 128 128 255 0.961587 -0.251029 -0.111061
-0.895185 0.100000 0.198017 128 128 255 0.974273 -0.206167 -0.091036
-0.904671 0.050644 0.199071 128 128 255 0.985636 -0.152929 -0.071649
-0.911278 0.000398 0.200084 128 128 255 0.994275 -0.091735 -0.054798
-0.914561 -0.050496 0.201019 128 128 255 0.998836 -0.023424 -0.042174
-0.914135 -0.101724 0.201840 128 128 255 0.998090 0.050777 -0.035181
-0.909704 -0.152918 0.202520 128 128 255 0.990991 0.129308 -0.034871
-0.901072 -0.203672 0.203034 128 128 255 0.976739 0.210304 -0.041879
-0.888158 -0.253569 0.203367 128 128 255 0.954858 0.291667 -0.056364
-0.870999 -0.302201 0.203515 128 128 255 0.925292 0.371156 -0.077959
-0.849743 -0.349195 0.203476 128 128 255 0.888495 0.446536 -0.105749
-0.824641 -0.394231 0.203262 128 128 255 0.845477 0.515793 -0.138298
-0.796026 -0.437057 0.202889 128 128 255 0.797788 0.577363 -0.173743
-0.764294 -0.477503 0.202380 128 128 255 0.747385 0.630347 -0.209950
-0.729878 -0.515480 0.201762 128 128 255 0.696422 0.674624 -0.244702
-0.693221 -0.550980 0.201066 128 128 255 0.646987 0.710845 -0.275874
-0.654752 -0.584068 0.200326 128 128 255 0.600862 0.740290 -0.301556
-0.614868 -0.614868 0.199572 128 128 255 0.559336 0.764642 -0.320104
-0.573908 -0.643543 0.198836 128 128 255 0.523106 0.785731 -0.330133
-0.532151 -0.670279 0.198143 128 128 255 0.492247 0.805275 -0.330491
-0.489804 -0.695259 0.197517 128 128 255 0.466222 0.824666 -0.320255
-0.447003 -0.718648 0.196973 128 128 255 0.443934 0.844776 -0.298789
-0.403821 -0.740575 0.196522 128 128 255 0.423814 0.865839 -0.265904
-0.360276 -0.761117 0.196168 128 128 255 0.403963 0.887406 -0.222092
-0.316348 -0.780294 0.195910 128 128 255 0.382395 0.908453 -0.168781
-0.271993 -0.798071 0.195740 128 128 255 0.357338 0.927654 -0.108474
-0.227161 -0.814353 0.195647 128 128 255 0.327549 0.943780 -0.044613
-0.181810 -0.829002 0.195616 128 128 255 0.292505 0.956078 0.018846
-0.135920 -0.841846 0.195630 128 128 255 0.252396 0.964472 0.078044
-0.089504 -0.852699 0.195671 128 128 255 0.207929 0.969500 0.129753
-0.042606 -0.861374 0.195723 128 128 255 0.160054 0.972070 0.171647
0.004689 -0.867704 0.195772 128 128 255 0.109734 0.973160 0.202282
0.052270 -0.871559 0.195806 128 128 255 0.057819 0.973582 0.220896
0.100000 -0.872853 0.195818 128 128 255 0.005026 0.973843 0.227165
0.147730 -0.871559 0.195806 128 128 255 -0.048008 0.974087 0.221021
0.195311 -0.867704 0.195772 128 128 255 -0.100635 0.974079 0.202591
0.242606 -0.861374 0.195723 128 128 255 -0.152114 0.973236 0.172258
0.289504 -0.852699 0.195671 128 128 255 -0.201551 0.970701 0.130829
0.335920 -0.841846 0.195630 128 128 255 -0.247920 0.965491 0.079768
0.381810 -0.829002 0.195616 128 128 255 -0.290181 0.956733 0.021383
0.427161 -0.814353 0.195647 128 128 255 -0.327514 0.943949 -0.041168
0.471993 -0.798071 0.195740 128 128 255 -0.359586 0.927283 -0.104133
0.516348 -0.780294 0.195910 128 128 255 -0.386762 0.907539 -0.163668
0.560276 -0.761117 0.196168 128 128 255 -0.410136 0.885977 -0.216409
0.603821 -0.740575 0.196522 128 128 255 -0.431356 0.863940 -0.259884
0.647003 -0.718648 0.196973 128 128 255 -0.452339 0.842467 -0.292639
0.689804 -0.695259 0.197517 128 128 255 -0.474963 0.822029 -0.314132
0.732151 -0.670279 0.198143 128 128 255 -0.500822 0.802418 -0.324503
0.773908 -0.643543 0.198836 128 128 255 -0.531068 0.782792 -0.324351
0.814867 -0.614868 0.199572 128 128 255 -0.566314 0.761788 -0.314591
0.854752 -0.584068 0.200326 128 128 255 -0.606579 0.737709 -0.296391
0.893221 -0.550980 0.201066 128 128 255 -0.651268 0.708744 -0.271169
0.929878 -0.515480 0.201762 128 128 255 -0.699206 0.673215 -0.240609
0.964294 -0.477503 0.202380 128 128 255 -0.748739 0.629828 -0.206657
0.996026 -0.437057 0.202889 128 128 255 -0.797901 0.577892 -0.171448
1.024641 -0.394231 0.203262 128 128 255 -0.844644 0.517451 -0.137187
1.049743 -0.349195 0.203476 128 128 255 -0.887073 0.449301 -0.105968
1.070999 -0.302201 0.203515 128 128 255 -0.923650 0.374880 -0.079599
1.088158 -0.253569 0.203367 128 128 255 -0.953309 0.296087 -0.059454
1.101072 -0.203672 0.203034 128 128 255 -0.975496 0.215072 -0.046388
1.109704 -0.152918 0.202520 128 128 255 -0.990140 0.134032 -0.040709
1.114135 -0.101724 0.201840 128 128 255 -0.997590 0.055074 -0.042206
1.114561 -0.050496 0.201019 128 128 255 -0.998541 -0.019892 -0.050192
1.111278 0.000398 0.200084 128 128 255 -0.993980 -0.089228 -0.063571
1.104671 0.050644 0.199071 128 128 255 -0.985123 -0.151622 -0.080897
1.095185 0.100000 0.198017 128 128 255 -0.974689 -0.194952 -0.109434
1.100000 0.100000 0.100000 128 128 255 -0.991025 -0.133624 -0.003641
1.091468 0.148708 0.100000 128 128 255 -0.980842 -0.188122 -0.050584
1.080740 0.196594 0.100000 128 128 255 -0.967957 -0.232701 -0.094386
1.068030 0.243594 0.100000 128 128 255 -0.952740 -0.273193 -0.132857
1.053540 0.289671 0.100000 128 128 255 -0.936593 -0.309849 -0.163666
1.037460 0.334821 0.100000 128 128 255 -0.920853 -0.343201 -0.185047
1.019954 0.379065 0.100000 128 128 255 -0.906549 -0.373938 -0.195804
1.001165 0.422442 0.100000 128 128 255 -0.894236 -0.402759 -0.195262
0.981202 0.465006 0.100000 128 128 255 -0.883911 -0.430257 -0.183249
0.960144 0.506818 0.100000 128 128 255 -0.875025 -0.456824 -0.160135
0.938038 0.547940 0.100000 128 128 255 -0.866582 -0.482619 -0.126942
0.914894 0.588429 0.100000 128 128 255 -0.857334 -0.507617 -0.085465
0.890695 0.628325 0.100000 128 128 255 -0.846058 -0.531713 -0.038292
0.865395 0.667655 0.100000 128 128 255 -0.831849 -0.554887 0.011347
0.838924 0.706419 0.100000 128 128 255 -0.814304 -0.577336 0.059941
0.811194 0.744589 0.100000 128 128 255 -0.793542 -0.599537 0.104152
0.782107 0.782107 0.100000 128 128 255 -0.770029 -0.622186 0.141209
0.751557 0.818882 0.100000 128 128 255 -0.744316 -0.646062 0.169111
0.719441 0.854791 0.100000 128 128 255 -0.716787 -0.671854 0.186625
0.685665 0.889678 0.100000 128 128 255 -0.687512 -0.700007 0.193177
0.650151 0.923359 0.100000 128 128 255 -0.656200 -0.730610 0.188709
0.612841 0.955624 0.100000 128 128 255 -0.622247 -0.763328 0.173607
0.573707 0.986243 0.100000 128 128 255 -0.584867 -0.797384 0.148692
0.532749 1.014972 0.100000 128 128 255 -0.543270 -0.831607 0.115273
0.490006 1.041557 0.100000 128 128 255 -0.496853 -0.864570 0.075205
0.445550 1.065747 0.100000 128 128 255 -0.445385 -0.894807 0.030863
0.399492 1.087294 0.100000 128 128 255 -0.389088 -0.921079 -0.014986
0.351982 1.105969 0.100000 128 128 255 -0.328615 -0.942592 -0.059434
0.303201 1.121560 0.100000 128 128 255 -0.264909 -0.959103 -0.099728
0.253363 1.133887 0.100000 128 128 255 -0.198985 -0.970864 -0.133524
0.202707 1.142801 0.100000 128 128 255 -0.131761 -0.978441 -0.159034
0.151495 1.148195 0.100000 128 128 255 -0.063942 -0.982482 -0.175047
0.100000 1.150000 0.100000 128 128 255 0.003978 -0.983498 -0.180874
0.048505 1.148195 0.100000 128 128 255 0.071648 -0.981727 -0.176292
-0.002707 1.142801 0.100000 128 128 255 0.138734 -0.977072 -0.161502
-0.053363 1.133887 0.100000 128 128 255 0.204808 -0.969144 -0.137163
-0.103201 1.121560 0.100000 128 128 255 0.269259 -0.957387 -0.104449
-0.151982 1.105969 0.100000 128 128 255 0.331299 -0.941277 -0.065107
-0.199492 1.087294 0.100000 128 128 255 0.390047 -0.920545 -0.021442
-0.245550 1.065747 0.100000 128 128 255 0.444697 -0.895365 0.023816
-0.290006 1.041557 0.100000 128 128 255 0.494705 -0.866415 0.067760
-0.332749 1.014972 0.100000 128 128 255 0.539930 -0.834804 0.107600
-0.373707 0.986243 0.100000 128 128 255 0.580653 -0.801862 0.140924
-0.412841 0.955624 0.100000 128 128 255 0.617492 -0.768895 0.165842
-0.450151 0.923359 0.100000 128 128 255 0.651231 -0.736973 0.181022
-0.485665 0.889678 0.100000 128 128 255 0.682627 -0.706793 0.185642
-0.519441 0.854791 0.100000 128 128 255 0.712246 -0.678632 0.179344
-0.551557 0.818882 0.100000 128 128 255 0.740337 -0.652367 0.162228
-0.582107 0.782107 0.100000 128 128 255 0.766790 -0.627557 0.134925
-0.611194 0.744589 0.100000 128 128 255 0.791183 -0.603561 0.098708
-0.638924 0.706419 0.100000 128 128 255 0.812937 -0.579692 0.055588
-0.665395 0.667655 0.100000 128 128 255 0.831553 -0.555383 0.008297
-0.690695 0.628325 0.100000 128 128 255 0.846864 -0.530309 -0.039917
-0.714894 0.588429 0.100000 128 128 255 0.859203 -0.504415 -0.085653
-0.738038 0.547940 0.100000 128 128 255 0.869393 -0.477844 -0.125783
-0.760144 0.506818 0.100000 128 128 255 0.878574 -0.450793 -0.157777
-0.781202 0.465006 0.100000 128 128 255 0.887934 -0.423352 -0.179852
-0.801165 0.422442 0.100000 128 128 255 0.898439 -0.395400 -0.190960
-0.819954 0.379065 0.100000 128 128 255 0.910642 -0.366564 -0.190688
-0.837460 0.334821 0.100000 128 128 255 0.924570 -0.336255 -0.179172
-0.853541 0.289671 0.100000 128 128 255 0.939716 -0.303751 -0.157066
-0.868030 0.243594 0.100000 128 128 255 0.955108 -0.268326 -0.125581
-0.880740 0.196594 0.100000 128 128 255 0.969482 -0.229388 -0.086526
-0.891468 0.148708 0.100000 128 128 255 0.981526 -0.186598 -0.042296
-0.900000 0.100000 0.100000 128 128 255 0.990151 -0.139938 0.004262
-0.906123 0.050572 0.100000 128 128 255 0.994709 -0.089683 0.050104
-0.909629 0.000560 0.100000 128 128 255 0.995068 -0.036304 0.092315
-0.910323 -0.049867 0.100000 128 128 255 0.991528 0.019679 0.128393
-0.908030 -0.100510 0.100000 128 128 255 0.984623 0.077814 0.156407
-0.902603 -0.151139 0.100000 128 128 255 0.974876 0.137762 0.175039
-0.893927 -0.201504 0.100000 128 128 255 0.962604 0.199287 0.183515
-0.881924 -0.251338 0.100000 128 128 255 0.947797 0.262160 0.181529
-0.866557 -0.300361 0.100000 128 128 255 0.930090 0.326043 0.169197
-0.847834 -0.348292 0.100000 128 128 255 0.908833 0.390378 0.147063
-0.825805 -0.394853 0.100000 128 128 255 0.883236 0.454314 0.116164
-0.800563 -0.439777 0.100000 128 128 255 0.852589 0.516714 0.078097
-0.772244 -0.482815 0.100000 128 128 255 0.816501 0.576281 0.035029
-0.741020 -0.523743 0.100000 128 128 255 0.775088 0.631768 -0.010403
-0.707097 -0.562368 0.100000 128 128 255 0.729040 0.682232 -0.055318
-0.670708 -0.598529 0.100000 128 128 255 0.679531 0.727221 -0.096890
-0.632107 -0.632107 0.100000 128 128 255 0.627992 0.766835 -0.132627
-0.591561 -0.663020 0.100000 128 128 255 0.575853 0.801634 -0.160550
-0.549346 -0.691230 0.100000 128 128 255 0.524319 0.832444 -0.179240
-0.505734 -0.716737 0.100000 128 128 255 0.474259 0.860122 -0.187799
-0.460990 -0.739580 0.100000 128 128 255 0.426183 0.885357 -0.185773
-0.415364 -0.759833 0.100000 128 128 255 0.380298 0.908517 -0.173117
-0.369086 -0.777599 0.100000 128 128 255 0.336605 0.929587 -0.150216
-0.322361 -0.793007 0.100000 128 128 255 0.295001 0.948185 -0.117981
-0.275361 -0.806202 0.100000 128 128 255 0.255380 0.963693 -0.077957
-0.228230 -0.817342 0.100000 128 128 255 0.217690 0.975480 -0.032388
-0.181077 -0.826586 0.100000 128 128 255 0.181952 0.983179 0.015863
-0.133978 -0.834094 0.100000 128 128 255 0.148215 0.986911 0.063552
-0.086980 -0.840011 0.100000 128 128 255 0.116479 0.987366 0.107429
-0.040098 -0.844466 0.100000 128 128 255 0.086617 0.985690 0.144611
0.006673 -0.847568 0.100000 128 128 255 0.058317 0.983223 0.172836
0.053359 -0.849396 0.100000 128 128 255 0.031086 0.981184 0.190558
0.100000 -0.850000 0.100000 128 128 255 0.004290 0.980412 0.196911
0.146641 -0.849396 0.100000 128 128 255 -0.022774 0.981203 0.191631
0.193327 -0.847568 0.100000 128 128 255 -0.050793 0.983254 0.175018
0.240098 -0.844466 0.100000 128 128 255 -0.080356 0.985725 0.147952
0.286980 -0.840011 0.100000 128 128 255 -0.111883 0.987394 0.111960
0.333978 -0.834094 0.100000 128 128 255 -0.145576 0.986921 0.069241
0.381077 -0.826586 0.100000 128 128 255 -0.181431 0.983144 0.022591
0.428230 -0.817342 0.100000 128 128 255 -0.219298 0.975342 -0.024830
0.475361 -0.806202 0.100000 128 128 255 -0.258975 0.963356 -0.069842
0.522361 -0.793007 0.100000 128 128 255 -0.300302 0.947527 -0.109600
0.569086 -0.777599 0.100000 128 128 255 -0.343219 0.928484 -0.141838
0.615364 -0.759833 0.100000 128 128 255 -0.387760 0.906880 -0.164959
0.660990 -0.739580 0.100000 128 128 255 -0.433991 0.883159 -0.177996
0.705734 -0.716737 0.100000 128 128 255 -0.481913 0.857423 -0.180514
0.749346 -0.691230 0.100000 128 128 255 -0.531354 0.829396 -0.172527
0.791561 -0.663020 0.100000 128 128 255 -0.581868 0.798478 -0.154475
0.832107 -0.632107 0.100000 128 128 255 -0.632682 0.763884 -0.127260
0.870708 -0.598529 0.100000 128 128 255 -0.682711 0.724834 -0.092311
0.907097 -0.562368 0.100000 128 128 255 -0.730670 0.680777 -0.051615
0.941020 -0.523743 0.100000 128 128 255 -0.775277 0.631574 -0.007664
0.972244 -0.482815 0.100000 128 128 255 -0.815499 0.577592 0.036728
1.000563 -0.439777 0.100000 128 128 255 -0.850747 0.519650 0.078701
1.025805 -0.394853 0.100000 128 128 255 -0.880959 0.458844 0.115644
1.047834 -0.348292 0.100000 128 128 255 -0.906522 0.396325 0.145413
1.066557 -0.300361 0.100000 128 128 255 -0.928089 0.333096 0.166428
1.081923 -0.251338 0.100000 128 128 255 -0.946353 0.269909 0.177667
1.093927 -0.201504 0.100000 128 128 255 -0.961845 0.207258 0.178599
1.102603 -0.151139 0.100000 128 128 255 -0.974802 0.145452 0.169130
1.108030 -0.100510 0.100000 128 128 255 -0.985109 0.084732 0.149601
1.110323 -0.049867 0.100000 128 128 255 -0.992349 0.025389 0.120830
1.109629 0.000560 0.100000 128 128 255 -0.995931 -0.032161 0.084190
1.106123 0.050572 0.100000 128 128 255 -0.995306 -0.087352 0.041658
1.100000 0.100000 0.100000 128 128 255 -0.989371 -0.145334 -0.004819
1.095185 0.100000 0.001983 128 128 255 -0.995945 -0.004800 0.089834
1.092544 0.148761 0.002125 128 128 255 -0.996612 -0.076608 0.029932
1.087374 0.197248 0.002282 128 128 255 -0.990900 -0.130649 -0.032369
1.079565 0.245305 0.002466 128 128 255 -0.978616 -0.185936 -0.087971
1.069047 0.292755 0.002687 128 128 255 -0.961093 -0.241361 -0.134332
1.055800 0.339415 0.002954 128 128 255 -0.939963 -0.296025 -0.169821
1.039862 0.385104 0.003266 128 128 255 -0.916807 -0.349270 -0.193584
1.021333 0.429658 0.003623 128 128 255 -0.892954 -0.400601 -0.205311
1.000370 0.472945 0.004015 128 128 255 -0.869387 -0.449585 -0.205037
0.977182 0.514876 0.004429 128 128 255 -0.846742 -0.495749 -0.193031
0.952016 0.555412 0.004848 128 128 255 -0.825340 -0.538498 -0.169805
0.925137 0.594568 0.005251 128 128 255 -0.805233 -0.577101 -0.136216
0.896815 0.632415 0.005614 128 128 255 -0.786271 -0.610744 -0.093645
0.867301 0.669069 0.005912 128 128 255 -0.768187 -0.638701 -0.044156
0.836810 0.704684 0.006121 128 128 255 -0.750691 -0.660586 0.009457
0.805507 0.739434 0.006220 128 128 255 -0.733565 -0.676614 0.063839
0.773494 0.773494 0.006190 128 128 255 -0.716690 -0.687767 0.115466
0.740805 0.807020 0.006019 128 128 255 -0.699989 -0.695734 0.161151
0.707406 0.840126 0.005698 128 128 255 -0.683307 -0.702638 0.198472
0.673198 0.872868 0.005229 128 128 255 -0.666263 -0.710652 0.225981
0.638035 0.905226 0.004617 128 128 255 -0.648162 -0.721629 0.243182
0.601734 0.937092 0.003878 128 128 255 -0.627981 -0.736859 0.250357
0.564100 0.968269 0.003033 128 128 255 -0.604433 -0.756955 0.248354
0.524945 0.998470 0.002110 128 128 255 -0.576099 -0.781834 0.238421
0.484111 1.027326 0.001141 128 128 255 -0.541581 -0.810784 0.222081
0.441492 1.054406 0.000163 128 128 255 -0.499680 -0.842552 0.201064
0.397048 1.079235 -0.000786 128 128 255 -0.449563 -0.875487 0.177246
0.350818 1.101320 -0.001668 128 128 255 -0.390900 -0.907700 0.152575
0.302926 1.120178 -0.002447 128 128 255 -0.323944 -0.937242 0.128985
0.253582 1.135366 -0.003090 128 128 255 -0.249551 -0.962288 0.108284
0.203072 1.146506 -0.003571 128 128 255 -0.169121 -0.981289 0.092034
0.151746 1.153311 -0.003867 128 128 255 -0.084492 -0.993090 0.081444
0.100000 1.155600 -0.003968 128 128 255 0.002210 -0.997006 0.077289
0.048254 1.153311 -0.003867 128 128 255 0.088724 -0.992850 0.079855
-0.003072 1.146506 -0.003571 128 128 255 0.172810 -0.980933 0.088921
-0.053582 1.135366 -0.003090 128 128 255 0.252410 -0.962039 0.103778
-0.102926 1.120178 -0.002447 128 128 255 0.325780 -0.937374 0.123273
-0.150818 1.101320 -0.001668 128 128 255 0.391621 -0.908487 0.145889
-0.197048 1.079235 -0.000786 128 128 255 0.449167 -0.877155 0.169845
-0.241492 1.054406 0.000163 128 128 255 0.498231 -0.845244 0.193209
-0.284111 1.027326 0.001141 128 128 255 0.539193 -0.814537 0.214011
-0.324945 0.998470 0.002110 128 128 255 0.572920 -0.786578 0.230343
-0.364100 0.968269 0.003033 128 128 255 0.600635 -0.762513 0.240440
-0.401734 0.937092 0.003878 128 128 255 0.623762 -0.742961 0.242755
-0.438035 0.905226 0.004617 128 128 255 0.643751 -0.727921 0.236041
-0.473198 0.872868 0.005229 128 128 255 0.661918 -0.716728 0.219466
-0.507406 0.840126 0.005698 128 128 255 0.679311 -0.708076 0.192783
-0.540805 0.807020 0.006019 128 128 255 0.696644 -0.700138 0.156506
-0.573494 0.773494 0.006190 128 128 255 0.714287 -0.690823 0.112065
-0.605507 0.739434 0.006220 128 128 255 0.732351 -0.678116 0.061810
-0.636810 0.704684 0.006121 128 128 255 0.750825 -0.660442 0.008811
-0.667301 0.669069 0.005912 128 128 255 0.769702 -0.636917 -0.043540
-0.696815 0.632415 0.005614 128 128 255 0.789060 -0.607389 -0.091989
-0.725137 0.594568 0.005251 128 128 255 0.809059 -0.572297 -0.133791
-0.752016 0.555412 0.004848 128 128 255 0.829875 -0.532411 -0.166872
-0.777182 0.514876 0.004429 128 128 255 0.851617 -0.488592 -0.189806
-0.800370 0.472945 0.004015 128 128 255 0.874235 -0.441636 -0.201670
-0.821333 0.429658 0.003623 128 128 255 0.897452 -0.392200 -0.201889
-0.839862 0.385104 0.003266 128 128 255 0.920702 -0.340818 -0.190133
-0.855800 0.339415 0.002954 128 128 255 0.943085 -0.287971 -0.166321
-0.869047 0.292755 0.002687 128 128 255 0.963364 -0.234179 -0.130730
-0.879565 0.245305 0.002466 128 128 255 0.980039 -0.180098 -0.084196
-0.887374 0.197248 0.002282 128 128 255 0.991551 -0.126578 -0.028352
-0.892544 0.148761 0.002125 128 128 255 0.996623 -0.074636 0.034232
-0.895185 0.100000 0.001983 128 128 255 0.994653 -0.025322 0.100124
-0.895428 0.051098 0.001841 128 128 255 0.986011 0.020517 0.165410
-0.893412 0.002157 0.001684 128 128 255 0.972062 0.062489 0.226255
-0.889262 -0.046743 0.001500 128 128 255 0.954851 0.100810 0.279459
-0.883078 -0.095546 0.001278 128 128 255 0.936609 0.136299 0.322780
-0.874921 -0.144205 0.001012 128 128 255 0.919257 0.170238 0.354944
-0.864803 -0.192670 0.000699 128 128 255 0.904071 0.204170 0.375461
-0.852688 -0.240877 0.000343 128 128 255 0.891530 0.239673 0.384358
-0.838492 -0.288736 -0.000049 128 128 255 0.881313 0.278189 0.381967
-0.822090 -0.336116 -0.000464 128 128 255 0.872369 0.320853 0.368817
-0.803333 -0.382842 -0.000883 128 128 255 0.863051 0.368351 0.345631
-0.782059 -0.428686 -0.001285 128 128 255 0.851299 0.420795 0.313405
-0.758117 -0.473375 -0.001648 128 128 255 0.834894 0.477632 0.273533
-0.731379 -0.516593 -0.001946 128 128 255 0.811792 0.537641 0.227896
-0.701767 -0.557993 -0.002155 128 128 255 0.780479 0.599050 0.178861
-0.669260 -0.597216 -0.002254 128 128 255 0.740270 0.659789 0.129145
-0.633910 -0.633910 -0.002225 128 128 255 0.691444 0.717812 0.081548
-0.595845 -0.667747 -0.002053 128 128 255 0.635168 0.771407 0.038640
-0.555271 -0.698450 -0.001733 128 128 255 0.573250 0.819377 0.002497
-0.512464 -0.725811 -0.001263 128 128 255 0.507816 0.861090 -0.025441
-0.467755 -0.749706 -0.000652 128 128 255 0.441033 0.896392 -0.044397
-0.421521 -0.770104 0.000088 128 128 255 0.374918 0.925473 -0.054182
-0.374154 -0.787080 0.000933 128 128 255 0.311259 0.948727 -0.055100
-0.326048 -0.800803 0.001856 128 128 255 0.251598 0.966648 -0.047863
-0.277570 -0.811536 0.002825 128 128 255 0.197239 0.979781 -0.033544
-0.229043 -0.819614 0.003803 128 128 255 0.149246 0.988707 -0.013546
-0.180726 -0.825430 0.004752 128 128 255 0.108402 0.994053 0.010405
-0.132803 -0.829401 0.005634 128 128 255 0.075137 0.996512 0.036310
-0.085376 -0.831947 0.006413 128 128 255 0.049430 0.996853 0.061968
-0.038466 -0.833461 0.007056 128 128 255 0.030729 0.995896 0.085131
0.007982 -0.834279 0.007536 128 128 255 0.017895 0.994448 0.103699
0.054083 -0.834661 0.007833 128 128 255 0.009249 0.993212 0.115950
0.100000 -0.834769 0.007933 128 128 255 0.002686 0.992680 0.120743
0.145917 -0.834661 0.007833 128 128 255 -0.004112 0.993045 0.117664
0.192018 -0.834279 0.007536 128 128 255 -0.013442 0.994160 0.107075
0.238466 -0.833461 0.007056 128 128 255 -0.027334 0.995562 0.090053
0.285376 -0.831947 0.006413 128 128 255 -0.047366 0.996543 0.068254
0.332803 -0.829401 0.005634 128 128 255 -0.074561 0.996258 0.043707
0.380726 -0.825430 0.004752 128 128 255 -0.109361 0.993828 0.018609
0.429043 -0.819614 0.003803 128 128 255 -0.151675 0.988418 -0.004867
0.477570 -0.811536 0.002825 128 128 255 -0.200977 0.979284 -0.024712
0.526048 -0.800803 0.001856 128 128 255 -0.256390 0.965779 -0.039173
0.574154 -0.787080 0.000933 128 128 255 -0.316776 0.947345 -0.046802
0.621521 -0.770104 0.000088 128 128 255 -0.380772 0.923500 -0.046479
0.667755 -0.749706 -0.000652 128 128 255 -0.446805 0.893847 -0.037447
0.712463 -0.725811 -0.001263 128 128 255 -0.513094 0.858114 -0.019364
0.755271 -0.698450 -0.001733 128 128 255 -0.577669 0.816235 0.007615
0.795845 -0.667747 -0.002053 128 128 255 -0.638460 0.768468 0.042744
0.833910 -0.633910 -0.002225 128 128 255 -0.693463 0.715505 0.084625
0.869260 -0.597216 -0.002254 128 128 255 -0.741012 0.658545 0.131224
0.901767 -0.557993 -0.002155 128 128 255 -0.780069 0.599240 0.180010
0.931379 -0.516593 -0.001946 128 128 255 -0.810455 0.539521 0.228211
0.958117 -0.473375 -0.001648 128 128 255 -0.832911 0.481317 0.273117
0.982060 -0.428686 -0.001285 128 128 255 -0.848969 0.426251 0.312349
1.003333 -0.382842 -0.000883 128 128 255 -0.860658 0.375410 0.344000
1.022090 -0.336116 -0.000464 128 128 255 -0.870158 0.329233 0.366648
1.038492 -0.288736 -0.000049 128 128 255 -0.879479 0.287518 0.379276
1.052688 -0.240877 0.000343 128 128 255 -0.890207 0.249507 0.381153
1.064803 -0.192670 0.000699 128 128 255 -0.903321 0.214017 0.371763
1.074921 -0.144205 0.001012 128 128 255 -0.919072 0.179576 0.350798
1.083078 -0.095546 0.001278 128 128 255 -0.936907 0.144605 0.318269
1.089262 -0.046743 0.001500 128 128 255 -0.955488 0.107601 0.274707
1.093412 0.002157 0.001684 128 128 255 -0.972851 0.067360 0.221415
1.095428 0.051098 0.001841 128 128 255 -0.986741 0.023180 0.160640
1.095185 0.100000 0.001983 128 128 255 -0.993852 -0.044973 0.101170
1.080785 0.100000 -0.095090 128 128 255 -0.972254 0.142017 0.185888
1.085269 0.148403 -0.096219 128 128 255 -0.990130 0.063009 0.125188
1.086909 0.197202 -0.097258 128 128 255 -0.998223 -0.001650 0.059562
1.085268 0.246151 -0.098126 128 128 255 -0.997276 -0.073754 0.000171
1.079992 0.294933 -0.098751 128 128 255 -0.987288 -0.150628 -0.050735
1.070838 0.343182 -0.099078 128 128 255 -0.968966 -0.229566 -0.091675
1.057694 0.390513 -0.099069 128 128 255 -0.943522 -0.308087 -0.121851
1.040593 0.436549 -0.098711 128 128 255 -0.912473 -0.384074 -0.140998
1.019707 0.480955 -0.098014 128 128 255 -0.877486 -0.455801 -0.149213
0.995341 0.523465 -0.097009 128 128 255 -0.840277 -0.521899 -0.146818
0.967905 0.563905 -0.095751 128 128 255 -0.802537 -0.581295 -0.134276
0.937887 0.602210 -0.094311 128 128 255 -0.765872 -0.633135 -0.112162
0.905814 0.638428 -0.092775 128 128 255 -0.731743 -0.676725 -0.081208
0.872215 0.672714 -0.091237 128 128 255 -0.701394 -0.711512 -0.042396
0.837582 0.705318 -0.089796 128 128 255 -0.675738 -0.737136 0.002896
0.802336 0.736561 -0.088546 128 128 255 -0.655252 -0.753565 0.052775
0.766799 0.766799 -0.087574 128 128 255 -0.639862 -0.761313 0.104785
0.731174 0.796393 -0.086950 128 128 255 -0.628902 -0.761661 0.156058
0.695540 0.825668 -0.086730 128 128 255 -0.621161 -0.756754 0.203672
0.659855 0.854878 -0.086944 128 128 255 -0.615016 -0.749441 0.245137
0.623966 0.884171 -0.087597 128 128 255 -0.608628 -0.742855 0.278818
0.587636 0.913571 -0.088672 128 128 255 -0.600095 -0.739865 0.304114
0.550570 0.942958 -0.090124 128 128 255 -0.587571 -0.742626 0.321352
0.512458 0.972068 -0.091889 128 128 255 -0.569313 -0.752317 0.331513
0.473000 1.000503 -0.093879 128 128 255 -0.543726 -0.769106 0.335913
0.431953 1.027746 -0.095997 128 128 255 -0.509401 -0.792239 0.335958
0.389150 1.053198 -0.098135 128 128 255 -0.465208 -0.820181 0.332993
0.344529 1.076213 -0.100180 128 128 255 -0.410421 -0.850779 0.328222
0.298144 1.096138 -0.102026 128 128 255 -0.344882 -0.881436 0.322687
0.250170 1.112366 -0.103576 128 128 255 -0.269173 -0.909338 0.317256
0.200892 1.124369 -0.104746 128 128 255 -0.184732 -0.931739 0.312629
0.150686 1.131741 -0.105474 128 128 255 -0.093879 -0.946309 0.309331
0.100000 1.134228 -0.105721 128 128 255 0.000340 -0.951482 0.307703
0.049314 1.131741 -0.105474 128 128 255 0.094472 -0.946721 0.307888
-0.000892 1.124369 -0.104746 128 128 255 0.185076 -0.932607 0.309825
-0.050170 1.112366 -0.103576 128 128 255 0.269140 -0.910735 0.313249
-0.098144 1.096138 -0.102026 128 128 255 0.344386 -0.883443 0.317689
-0.144529 1.076213 -0.100180 128 128 255 0.409413 -0.853456 0.322480
-0.189150 1.053198 -0.098135 128 128 255 0.463672 -0.823549 0.326765
-0.231953 1.027746 -0.095997 128 128 255 0.507339 -0.796264 0.329501
-0.273000 1.000503 -0.093879 128 128 255 0.541157 -0.773692 0.329470
-0.312458 0.972068 -0.091889 128 128 255 0.566281 -0.757295 0.325315
-0.350570 0.942958 -0.090124 128 128 255 0.584153 -0.747762 0.315622
-0.387636 0.913571 -0.088672 128 128 255 0.596427 -0.744868 0.299077
-0.423966 0.884171 -0.087597 128 128 255 0.604914 -0.747404 0.274710
-0.459855 0.854878 -0.086944 128 128 255 0.611535 -0.753239 0.242191
-0.495540 0.825668 -0.086730 128 128 255 0.618235 -0.759571 0.202085
-0.531174 0.796393 -0.086950 128 128 255 0.626856 -0.763371 0.155936
-0.566799 0.766799 -0.087574 128 128 255 0.638960 -0.761888 0.106094
-0.602336 0.736561 -0.088546 128 128 255 0.655649 -0.753036 0.055333
-0.637582 0.705318 -0.089796 128 128 255 0.677453 -0.735538 0.006397
-0.672215 0.672714 -0.091237 128 128 255 0.704308 -0.708860 -0.038321
-0.705814 0.638428 -0.092775 128 128 255 0.735624 -0.673007 -0.076927
-0.737887 0.602210 -0.094311 128 128 255 0.770402 -0.628344 -0.108003
-0.767905 0.563905 -0.095751 128 128 255 0.807351 -0.575460 -0.130498
-0.795341 0.523465 -0.097009 128 128 255 0.845000 -0.515121 -0.143615
-0.819707 0.480955 -0.098014 128 128 255 0.881774 -0.448274 -0.146716
-0.840593 0.436549 -0.098711 128 128 255 0.916052 -0.376095 -0.139287
-0.857694 0.390513 -0.099069 128 128 255 0.946228 -0.300036 -0.120959
-0.870838 0.343182 -0.099078 128 128 255 0.970763 -0.221882 -0.091585
-0.879992 0.294933 -0.098751 128 128 255 0.988277 -0.143769 -0.051369
-0.885268 0.246151 -0.098126 128 128 255 0.997675 -0.068149 -0.001035
-0.886909 0.197202 -0.097258 128 128 255 0.998313 0.002342 0.058009
-0.885269 0.148403 -0.096219 128 128 255 0.990196 0.065121 0.123576
-0.880785 0.100000 -0.095090 128 128 255 0.974130 0.118014 0.192725
-0.873939 0.052153 -0.093962 128 128 255 0.951774 0.159644 0.261992
-0.865216 0.004934 -0.092922 128 128 255 0.925504 0.189749 0.327777
-0.855072 -0.041672 -0.092054 128 128 255 0.898086 0.209323 0.386813
-0.843888 -0.087751 -0.091429 128 128 255 0.872245 0.220488 0.436548
-0.831947 -0.133441 -0.091103 128 128 255 0.850228 0.226175 0.475350
-0.819412 -0.178901 -0.091112 128 128 255 0.833510 0.229714 0.502487
-0.806313 -0.224284 -0.091469 128 128 255 0.822650 0.234437 0.517964
-0.792548 -0.269705 -0.092167 128 128 255 0.817298 0.243382 0.522293
-0.777898 -0.315215 -0.093171 128 128 255 0.816288 0.259093 0.516280
-0.762046 -0.360773 -0.094430 128 128 255 0.817771 0.283495 0.500880
-0.744608 -0.406239 -0.095870 128 128 255 0.819367 0.317800 0.477118
-0.725172 -0.451362 -0.097406 128 128 255 0.818331 0.362416 0.446082
-0.703333 -0.495792 -0.098943 128 128 255 0.811772 0.416866 0.408961
-0.678732 -0.539089 -0.100385 128 128 255 0.796928 0.479724 0.367112
-0.651092 -0.580750 -0.101635 128 128 255 0.771514 0.548649 0.322104
-0.620241 -0.620241 -0.102607 128 128 255 0.734100 0.620542 0.275726
-0.586137 -0.657035 -0.103230 128 128 255 0.684427 0.691883 0.229908
-0.548867 -0.690646 -0.103450 128 128 255 0.623544 0.759201 0.186564
-0.508651 -0.720671 -0.103237 128 128 255 0.553703 0.819566 0.147396
-0.465824 -0.746815 -0.102584 128 128 255 0.478019 0.870958 0.113711
-0.420813 -0.768924 -0.101509 128 128 255 0.400006 0.912439 0.086311
-0.374108 -0.786993 -0.100056 128 128 255 0.323131 0.944087 0.065477
-0.326222 -0.801171 -0.098292 128 128 255 0.250487 0.966774 0.051034
-0.277660 -0.811752 -0.096301 128 128 255 0.184621 0.981893 0.042452
-0.228880 -0.819159 -0.094183 128 128 255 0.127472 0.991077 0.038948
-0.180264 -0.823908 -0.092046 128 128 255 0.080382 0.995979 0.039563
-0.132094 -0.826572 -0.090001 128 128 255 0.044087 0.998092 0.043222
-0.084539 -0.827741 -0.088155 128 128 255 0.018684 0.998635 0.048766
-0.037652 -0.827974 -0.086605 128 128 255 0.003543 0.998480 0.054998
0.008624 -0.827756 -0.085435 128 128 255 -0.002799 0.998148 0.060760
0.054436 -0.827467 -0.084707 128 128 255 -0.002668 0.997879 0.065042
0.100000 -0.827343 -0.084460 128 128 255 0.000853 0.997744 0.067129
0.145564 -0.827467 -0.084707 128 128 255 0.004245 0.997762 0.066729
0.191376 -0.827756 -0.085435 128 128 255 0.004006 0.997940 0.064028
0.237652 -0.827974 -0.086605 128 128 255 -0.002900 0.998215 0.059647
0.284539 -0.827741 -0.088155 128 128 255 -0.018741 0.998336 0.054525
0.332094 -0.826572 -0.090001 128 128 255 -0.044915 0.997750 0.049779
0.380264 -0.823908 -0.092046 128 128 255 -0.081991 0.995544 0.046587
0.428880 -0.819159 -0.094183 128 128 255 -0.129813 0.990466 0.046110
0.477660 -0.811752 -0.096301 128 128 255 -0.187584 0.981003 0.049441
0.526222 -0.801171 -0.098292 128 128 255 -0.253905 0.965515 0.057564
0.574108 -0.786993 -0.100056 128 128 255 -0.326777 0.942409 0.071296
0.620813 -0.768924 -0.101509 128 128 255 -0.403617 0.910371 0.091207
0.665824 -0.746815 -0.102584 128 128 255 -0.481321 0.868630 0.117524
0.708651 -0.720671 -0.103237 128 128 255 -0.556458 0.817219 0.150027
0.748867 -0.690646 -0.103450 128 128 255 -0.625588 0.757164 0.187995
0.786137 -0.657035 -0.103230 128 128 255 -0.685696 0.690525 0.230209
0.820241 -0.620241 -0.102607 128 128 255 -0.734628 0.620216 0.275053
0.851092 -0.580750 -0.101635 128 128 255 -0.771407 0.549636 0.320674
0.878732 -0.539089 -0.100385 128 128 255 -0.796323 0.482202 0.365172
0.903333 -0.495792 -0.098943 128 128 255 -0.810800 0.420906 0.406745
0.925172 -0.451362 -0.097406 128 128 255 -0.817095 0.367990 0.443778
0.944608 -0.406239 -0.095870 128 128 255 -0.817943 0.324789 0.474849
0.962046 -0.360773 -0.094430 128 128 255 -0.816213 0.291701 0.498706
0.977898 -0.315215 -0.093171 128 128 255 -0.814637 0.268240 0.514212
0.992548 -0.269705 -0.092167 128 128 255 -0.815593 0.253118 0.520326
1.006313 -0.224284 -0.091469 128 128 255 -0.820932 0.244342 0.516109
1.019412 -0.178901 -0.091112 128 128 255 -0.831822 0.239320 0.500797
1.031947 -0.133441 -0.091103 128 128 255 -0.848624 0.234999 0.473933
1.043887 -0.087751 -0.091429 128 128 255 -0.870789 0.228076 0.435554
1.055072 -0.041672 -0.092054 128 128 255 -0.896856 0.215297 0.386389
1.065217 0.004934 -0.092922 128 128 255 -0.924573 0.193831 0.328014
1.073939 0.052153 -0.093962 128 128 255 -0.951189 0.161673 0.262871
1.080785 0.100000 -0.095090 128 128 255 -0.974852 0.093602 0.202244
1.056940 0.100000 -0.190285 128 128 255 -0.922200 0.268106 0.278687
1.067884 0.147549 -0.193958 128 128 255 -0.952996 0.196218 0.230863
1.075767 0.196105 -0.197428 128 128 255 -0.975699 0.124433 0.180357
1.079896 0.245354 -0.200501 128 128 255 -0.990206 0.039851 0.133802
1.079688 0.294872 -0.203007 128 128 255 -0.994234 -0.054445 0.092379
1.074716 0.344154 -0.204812 128 128 255 -0.986314 -0.154676 0.057095
1.064738 0.392650 -0.205818 128 128 255 -0.966066 -0.256690 0.028755
1.049710 0.439812 -0.205978 128 128 255 -0.934304 -0.356389 0.007908
1.029796 0.485134 -0.205289 128 128 255 -0.892932 -0.450161 -0.005176
1.005346 0.528197 -0.203802 128 128 255 -0.844655 -0.535208 -0.010489
0.976871 0.568697 -0.201609 128 128 255 -0.792608 -0.609676 -0.008219
0.945003 0.606475 -0.198846 128 128 255 -0.739997 -0.672608 0.001324
0.910450 0.641525 -0.195678 128 128 255 -0.689823 -0.723760 0.017772
0.873939 0.673992 -0.192293 128 128 255 -0.644687 -0.763361 0.040727
0.836169 0.704158 -0.188889 128 128 255 -0.606663 -0.791896 0.069720
0.797763 0.732415 -0.185665 128 128 255 -0.577169 -0.809961 0.104111
0.759224 0.759224 -0.182805 128 128 255 -0.556821 -0.818241 0.142938
0.720913 0.785072 -0.180470 128 128 255 -0.545271 -0.817641 0.184777
0.683032 0.810427 -0.178787 128 128 255 -0.541107 -0.809538 0.227708
0.645621 0.835685 -0.177845 128 128 255 -0.541933 -0.796039 0.269501
0.608572 0.861132 -0.177685 128 128 255 -0.544690 -0.780022 0.308023
0.571657 0.886912 -0.178302 128 128 255 -0.546156 -0.764819 0.341710
0.534559 0.913003 -0.179642 128 128 255 -0.543396 -0.753604 0.369866
0.496916 0.939209 -0.181609 128 128 255 -0.534009 -0.748775 0.392645
0.458365 0.965169 -0.184070 128 128 255 -0.516150 -0.751569 0.410772
0.418582 0.990376 -0.186861 128 128 255 -0.488428 -0.762001 0.425197
0.377324 1.014214 -0.189803 128 128 255 -0.449836 -0.779002 0.436811
0.334455 1.035999 -0.192704 128 128 255 -0.399760 -0.800638 0.446285
0.289967 1.055028 -0.195380 128 128 255 -0.338102 -0.824357 0.454008
