ply
format ascii 1.0
element vertex 701
property float x
property float y
property float z
property uchar red
property uchar green
property uchar blue
property float nx
property float ny
property float nz
end_header
0.519428 0.440291 0.440291 128 128 255 0.000000 0.707107 -0.707107
0.557603 0.515961 0.515961 128 128 255 0.693460 -0.152264 -0.704223
-0.064677 0.264677 -0.064677 128 128 255 0.695728 -0.083072 -0.713486
-0.033255 0.280529 -0.033255 128 128 255 -0.707107 0.000000 0.707107
0.000343 0.297479 0.000343 128 128 255 -0.707107 0.000000 0.707107
0.036352 0.315645 0.036352 128 128 255 -0.707107 0.000000 0.707107
0.075039 0.335162 0.075039 128 128 255 -0.707107 0.000000 0.707107
0.116715 0.356188 0.116715 128 128 255 -0.707107 0.000000 0.707107
0.161742 0.378903 0.161742 128 128 255 -0.707107 0.000000 0.707107
0.210539 0.403521 0.210539 128 128 255 -0.707107 0.000000 0.707107
0.263602 0.430290 0.263602 128 128 255 -0.707107 0.000000 0.707107
0.321514 0.459507 0.321514 128 128 255 -0.707107 0.000000 0.707107
0.384973 0.491521 0.384973 128 128 255 -0.707107 0.000000 0.707107
0.454816 0.526756 0.454816 128 128 255 -0.707107 0.000000 0.707107
0.532056 0.565723 0.532056 128 128 255 -0.706658 0.697484 -0.118957
-0.058556 -0.058556 0.267765 128 128 255 -0.712250 0.698840 -0.065744
-0.026716 -0.026716 0.283828 128 128 255 0.707107 -0.707107 0.000000
0.007344 0.007344 0.301011 128 128 255 0.707107 -0.707107 0.000000
0.043865 0.043865 0.319435 128 128 255 0.707107 -0.707107 0.000000
0.083124 0.083124 0.339241 128 128 255 0.707107 -0.707107 0.000000
0.125440 0.125440 0.360589 128 128 255 0.707107 -0.707107 0.000000
0.171185 0.171185 0.383667 128 128 255 0.707107 -0.707107 0.000000
0.220793 0.220793 0.408694 128 128 255 0.707107 -0.707107 0.000000
0.274776 0.274776 0.435927 128 128 255 0.707107 -0.707107 0.000000
0.333738 0.333738 0.465673 128 128 255 0.707107 -0.707107 0.000000
0.398401 0.398401 0.498295 128 128 255 0.707107 -0.707107 0.000000
0.469636 0.469636 0.534233 128 128 255 0.707107 -0.707107 0.000000
0.548497 0.548497 0.574017 128 128 255 0.718819 0.080400 -0.690533
-0.052355 0.252355 -0.070893 128 128 255 0.744672 0.092692 -0.660963
-0.020089 0.220089 -0.087171 128 128 255 0.707107 0.707107 -0.000000
0.014443 0.185557 -0.104592 128 128 255 0.707107 0.707107 0.000000
0.051489 0.148511 -0.123281 128 128 255 0.707107 0.707107 0.000000
0.091332 0.108668 -0.143382 128 128 255 0.707107 0.707107 0.000000
0.134302 0.065698 -0.165060 128 128 255 0.707107 0.707107 0.000000
0.180782 0.019218 -0.188509 128 128 255 0.707107 0.707107 0.000000
0.231222 -0.031222 -0.213955 128 128 255 0.707107 0.707107 -0.000000
0.286148 -0.086148 -0.241665 128 128 255 0.707107 0.707107 -0.000001
0.346189 -0.146189 -0.271955 128 128 255 0.707107 0.707107 -0.000000
0.412092 -0.212092 -0.305202 128 128 255 0.707107 0.707107 -0.000001
0.484761 -0.284761 -0.341863 128 128 255 0.707108 0.707106 0.000004
0.565293 -0.365293 -0.382491 128 128 255 0.710449 -0.053054 0.701747
-0.046073 -0.074063 0.246073 128 128 255 0.709676 -0.032230 0.703790
-0.013371 -0.090560 0.213371 128 128 255 -0.707107 0.000000 -0.707107
0.021643 -0.108224 0.178357 128 128 255 -0.707107 -0.000000 -0.707107
0.059223 -0.127183 0.140777 128 128 255 -0.707107 0.000000 -0.707107
0.099664 -0.147585 0.100336 128 128 255 -0.707107 -0.000000 -0.707107
0.143304 -0.169601 0.056696 128 128 255 -0.707107 0.000000 -0.707107
0.190538 -0.193430 0.009462 128 128 255 -0.707107 0.000000 -0.707107
0.241830 -0.219307 -0.041830 128 128 255 -0.707107 0.000001 -0.707107
0.297725 -0.247505 -0.097725 128 128 255 -0.707107 0.000000 -0.707107
0.358874 -0.278354 -0.158874 128 128 255 -0.707107 -0.000001 -0.707106
0.426052 -0.312245 -0.226052 128 128 255 -0.707107 0.000000 -0.707107
0.500199 -0.349651 -0.300199 128 128 255 -0.707106 0.000003 -0.707108
0.582457 -0.391150 -0.382457 128 128 255 0.682539 -0.010454 0.730775
-0.077274 -0.039706 0.239706 128 128 255 0.656190 0.042284 0.753410
-0.093996 -0.006561 0.206561 128 128 255 -0.000000 0.707107 0.707107
-0.111908 0.028945 0.171055 128 128 255 0.000000 0.707107 0.707107
-0.131143 0.067073 0.132927 128 128 255 0.000000 0.707107 0.707107
-0.151853 0.108124 0.091876 128 128 255 0.000000 0.707107 0.707107
-0.174215 0.152449 0.047551 128 128 255 -0.000000 0.707107 0.707107
-0.198434 0.200456 -0.000456 128 128 255 0.000000 0.707107 0.707107
-0.224751 0.252621 -0.052621 128 128 255 -0.000000 0.707107 0.707107
-0.253452 0.309512 -0.109512 128 128 255 0.000001 0.707107 0.707107
-0.284875 0.371800 -0.171800 128 128 255 0.000000 0.707107 0.707107
-0.319428 0.440291 -0.240291 128 128 255 0.000002 0.707107 0.707106
-0.357603 0.515961 -0.315961 128 128 255 -0.581881 -0.251019 -0.773566
0.162500 0.037500 -0.400000 128 128 255 -0.637425 -0.609089 -0.471911
0.178125 0.021875 -0.400000 128 128 255 0.577350 0.577350 -0.577350
0.211084 0.067041 -0.321875 128 128 255 0.577350 0.577350 -0.577350
0.244043 0.112207 -0.243750 128 128 255 0.577350 0.577350 -0.577350
0.277002 0.157373 -0.165625 128 128 255 0.577350 0.577350 -0.577350
0.309961 0.202539 -0.087500 128 128 255 0.577350 0.577350 -0.577350
0.342920 0.247705 -0.009375 128 128 255 0.577350 0.577350 -0.577350
0.375879 0.292871 0.068750 128 128 255 0.577350 0.577350 -0.577350
0.408838 0.338037 0.146875 128 128 255 0.577350 0.577350 -0.577350
0.441797 0.383203 0.225000 128 128 255 0.577350 0.577350 -0.577350
0.474756 0.428369 0.303125 128 128 255 0.577350 0.577350 -0.577350
0.507715 0.473535 0.381250 128 128 255 0.577350 0.577350 -0.577350
0.540674 0.518701 0.459375 128 128 255 0.577350 0.577350 -0.577350
0.573633 0.563867 0.537500 128 128 255 0.530718 -0.551685 0.643414
0.184717 -0.384375 0.030908 128 128 255 0.568313 -0.553353 0.608950
0.217676 -0.306250 0.076074 128 128 255 -0.577350 0.577350 -0.577350
0.250635 -0.228125 0.121240 128 128 255 -0.577350 0.577350 -0.577350
0.283594 -0.150000 0.166406 128 128 255 -0.577350 0.577350 -0.577350
0.316553 -0.071875 0.211572 128 128 255 -0.577350 0.577350 -0.577350
0.349512 0.006250 0.256738 128 128 255 -0.577350 0.577350 -0.577350
0.382471 0.084375 0.301904 128 128 255 -0.577350 0.577350 -0.577350
0.415430 0.162500 0.347070 128 128 255 -0.577350 0.577350 -0.577350
0.448389 0.240625 0.392236 128 128 255 -0.577350 0.577350 -0.577350
0.481348 0.318750 0.437402 128 128 255 -0.577350 0.577350 -0.577350
0.514307 0.396875 0.482568 128 128 255 -0.577350 0.577350 -0.577350
0.547266 0.475000 0.527734 128 128 255 -0.577350 0.577350 -0.577350
0.580225 0.553125 0.572900 128 128 255 0.539254 -0.636325 -0.551630
-0.368750 0.191309 0.039941 128 128 255 0.549855 -0.605941 -0.574888
-0.290625 0.224268 0.085107 128 128 255 -0.577350 0.577350 0.577350
-0.212500 0.257227 0.130273 128 128 255 -0.577350 0.577350 0.577350
-0.134375 0.290186 0.175439 128 128 255 -0.577350 0.577350 0.577350
-0.056250 0.323145 0.220605 128 128 255 -0.577350 0.577350 0.577350
0.021875 0.356104 0.265771 128 128 255 -0.577350 0.577350 0.577350
0.100000 0.389062 0.310937 128 128 255 -0.577350 0.577350 0.577350
0.178125 0.422021 0.356104 128 128 255 -0.577350 0.577350 0.577350
0.256250 0.454980 0.401270 128 128 255 -0.577350 0.577350 0.577350
0.334375 0.487939 0.446436 128 128 255 -0.577350 0.577350 0.577350
0.412500 0.520898 0.491602 128 128 255 -0.577350 0.577350 0.577350
0.490625 0.553857 0.536768 128 128 255 -0.577350 0.577350 0.577350
0.568750 0.586816 0.581934 128 128 255 0.615062 -0.557539 -0.557538
-0.353125 0.151025 0.002100 128 128 255 0.701687 -0.503803 -0.503803
-0.275000 0.105859 -0.030859 128 128 255 0.577350 0.577350 0.577350
-0.196875 0.060693 -0.063818 128 128 255 0.577350 0.577350 0.577350
-0.118750 0.015527 -0.096777 128 128 255 0.577350 0.577350 0.577350
-0.040625 -0.029639 -0.129736 128 128 255 0.577350 0.577350 0.577350
0.037500 -0.074805 -0.162695 128 128 255 0.577350 0.577350 0.577350
0.115625 -0.119971 -0.195654 128 128 255 0.577350 0.577350 0.577350
0.193750 -0.165137 -0.228613 128 128 255 0.577350 0.577350 0.577350
0.271875 -0.210303 -0.261572 128 128 255 0.577350 0.577350 0.577350
0.350000 -0.255469 -0.294531 128 128 255 0.577350 0.577350 0.577350
0.428125 -0.300635 -0.327490 128 128 255 0.577350 0.577350 0.577350
0.506250 -0.345801 -0.360449 128 128 255 0.577350 0.577350 0.577350
0.584375 -0.390967 -0.393408 128 128 255 -0.228118 0.711018 -0.665143
0.284303 -0.046192 -0.046192 128 128 255 -0.048679 0.685966 -0.726004
0.300884 -0.012252 -0.012252 128 128 255 0.000000 0.707107 -0.707107
0.318619 0.024049 0.024049 128 128 255 0.000000 0.707107 -0.707107
0.337631 0.062965 0.062965 128 128 255 0.000000 0.707107 -0.707107
0.358066 0.104792 0.104792 128 128 255 0.000000 0.707107 -0.707107
0.380087 0.149866 0.149866 128 128 255 0.000000 0.707107 -0.707107
0.403887 0.198583 0.198583 128 128 255 0.000000 0.707107 -0.707107
0.429692 0.251402 0.251402 128 128 255 0.000000 0.707107 -0.707107
0.457765 0.308864 0.308864 128 128 255 0.000000 0.707107 -0.707107
0.488420 0.371610 0.371610 128 128 255 0.000000 0.707107 -0.707107
0.522029 0.440403 0.440403 128 128 255 0.000000 0.707107 -0.707107
0.559040 0.516161 0.516161 128 128 255 0.691657 -0.151475 -0.706163
-0.071794 0.271794 -0.071794 128 128 255 0.694608 -0.083484 -0.714528
-0.039581 0.287532 -0.039581 128 128 255 -0.707107 0.000000 0.707107
-0.005188 0.304335 -0.005188 128 128 255 -0.707107 0.000000 0.707107
0.031614 0.322315 0.031614 128 128 255 -0.707107 0.000000 0.707107
0.071088 0.341599 0.071088 128 128 255 -0.707107 0.000000 0.707107
0.113535 0.362337 0.113535 128 128 255 -0.707107 0.000000 0.707107
0.159305 0.384698 0.159305 128 128 255 -0.707107 0.000000 0.707107
0.208803 0.408880 0.208803 128 128 255 -0.707107 0.000000 0.707107
0.262504 0.435116 0.262504 128 128 255 -0.707107 0.000000 0.707107
0.320968 0.463679 0.320968 128 128 255 -0.707107 0.000000 0.707107
0.384858 0.494892 0.384858 128 128 255 -0.707107 0.000000 0.707107
0.454964 0.529143 0.454964 128 128 255 -0.707107 0.000000 0.707107
0.532243 0.566897 0.532243 128 128 255 -0.708176 0.696046 -0.118350
-0.065516 -0.065516 0.274862 128 128 255 -0.713093 0.697953 -0.066033
-0.032884 -0.032884 0.290804 128 128 255 0.707107 -0.707107 0.000000
0.001972 0.001972 0.307833 128 128 255 0.707107 -0.707107 0.000000
0.039286 0.039286 0.326063 128 128 255 0.707107 -0.707107 0.000000
0.079329 0.079329 0.345626 128 128 255 0.707107 -0.707107 0.000000
0.122411 0.122411 0.366673 128 128 255 0.707107 -0.707107 0.000000
0.168892 0.168892 0.389382 128 128 255 0.707107 -0.707107 0.000000
0.219190 0.219190 0.413955 128 128 255 0.707107 -0.707107 0.000000
0.273796 0.273796 0.440633 128 128 255 0.707107 -0.707107 0.000000
0.333289 0.333289 0.469698 128 128 255 0.707107 -0.707107 0.000000
0.398354 0.398354 0.501485 128 128 255 0.707107 -0.707107 0.000000
0.469813 0.469813 0.536397 128 128 255 0.707107 -0.707107 0.000000
0.548657 0.548657 0.574916 128 128 255 0.719878 0.079999 -0.689475
-0.059157 0.259157 -0.077968 128 128 255 0.745430 0.093441 -0.660002
-0.026098 0.226098 -0.094119 128 128 255 0.707107 0.707107 0.000000
0.009230 0.190770 -0.111379 128 128 255 0.707107 0.707107 -0.000000
0.047067 0.152933 -0.129864 128 128 255 0.707107 0.707107 -0.000000
0.087691 0.112309 -0.149711 128 128 255 0.707107 0.707107 0.000000
0.131423 0.068577 -0.171076 128 128 255 0.707107 0.707107 0.000000
0.178631 0.021368 -0.194140 128 128 255 0.707107 0.707107 -0.000000
0.229750 -0.029750 -0.219114 128 128 255 0.707107 0.707107 -0.000000
0.285284 -0.085284 -0.246245 128 128 255 0.707107 0.707107 0.000000
0.345832 -0.145832 -0.275826 128 128 255 0.707107 0.707106 0.000002
0.412105 -0.212105 -0.308204 128 128 255 0.707107 0.707107 0.000001
0.484955 -0.284955 -0.343795 128 128 255 0.707106 0.707108 -0.000003
0.565414 -0.365414 -0.383103 128 128 255 0.711127 -0.052861 0.701073
-0.052716 -0.081115 0.252716 128 128 255 0.710106 -0.032335 0.703351
-0.019221 -0.097479 0.219221 128 128 255 -0.707107 0.000000 -0.707107
0.016588 -0.114974 0.183412 128 128 255 -0.707107 -0.000000 -0.707107
0.054959 -0.133720 0.145041 128 128 255 -0.707107 -0.000000 -0.707107
0.096178 -0.153857 0.103822 128 128 255 -0.707107 -0.000000 -0.707107
0.140573 -0.175547 0.059427 128 128 255 -0.707107 -0.000000 -0.707107
0.188527 -0.198975 0.011473 128 128 255 -0.707107 0.000000 -0.707107
0.240485 -0.224359 -0.040485 128 128 255 -0.707107 0.000000 -0.707107
0.296971 -0.251955 -0.096971 128 128 255 -0.707106 0.000001 -0.707107
0.358603 -0.282065 -0.158603 128 128 255 -0.707107 0.000001 -0.707107
0.426119 -0.315050 -0.226119 128 128 255 -0.707107 0.000001 -0.707107
0.500402 -0.351341 -0.300402 128 128 255 -0.707105 0.000007 -0.707108
0.582524 -0.391462 -0.382524 128 128 255 0.682553 -0.010451 0.730761
-0.084303 -0.046192 0.246192 128 128 255 0.655826 0.042955 0.753689
-0.100884 -0.012252 0.212252 128 128 255 0.000000 0.707107 0.707107
-0.118619 0.024049 0.175951 128 128 255 0.000000 0.707107 0.707107
-0.137631 0.062965 0.137035 128 128 255 -0.000000 0.707107 0.707107
-0.158066 0.104792 0.095208 128 128 255 -0.000000 0.707107 0.707107
-0.180087 0.149866 0.050134 128 128 255 0.000000 0.707107 0.707107
-0.203887 0.198583 0.001417 128 128 255 -0.000000 0.707107 0.707107
-0.229692 0.251402 -0.051402 128 128 255 -0.000000 0.707107 0.707107
-0.257765 0.308864 -0.108864 128 128 255 -0.000000 0.707107 0.707107
-0.288420 0.371610 -0.171610 128 128 255 -0.000001 0.707107 0.707107
-0.322029 0.440403 -0.240403 128 128 255 -0.000001 0.707107 0.707107
-0.359040 0.516161 -0.316161 128 128 255 -0.565171 -0.238613 -0.789712
0.178125 0.021875 -0.400000 128 128 255 -0.632330 -0.604007 -0.485112
0.193750 0.006250 -0.400000 128 128 255 0.577350 0.577350 -0.577350
0.225488 0.052637 -0.321875 128 128 255 0.577350 0.577350 -0.577350
0.257227 0.099023 -0.243750 128 128 255 0.577350 0.577350 -0.577350
0.288965 0.145410 -0.165625 128 128 255 0.577350 0.577350 -0.577350
0.320703 0.191797 -0.087500 128 128 255 0.577350 0.577350 -0.577350
0.352441 0.238184 -0.009375 128 128 255 0.577350 0.577350 -0.577350
0.384180 0.284570 0.068750 128 128 255 0.577350 0.577350 -0.577350
0.415918 0.330957 0.146875 128 128 255 0.577350 0.577350 -0.577350
0.447656 0.377344 0.225000 128 128 255 0.577350 0.577350 -0.577350
0.479395 0.423730 0.303125 128 128 255 0.577350 0.577350 -0.577350
0.511133 0.470117 0.381250 128 128 255 0.577350 0.577350 -0.577350
0.542871 0.516504 0.459375 128 128 255 0.577350 0.577350 -0.577350
0.574609 0.562891 0.537500 128 128 255 0.529563 -0.553996 0.642379
0.200098 -0.384375 0.015527 128 128 255 0.567655 -0.554722 0.608319
0.231836 -0.306250 0.061914 128 128 255 -0.577350 0.577350 -0.577350
0.263574 -0.228125 0.108301 128 128 255 -0.577350 0.577350 -0.577350
0.295312 -0.150000 0.154687 128 128 255 -0.577350 0.577350 -0.577350
0.327051 -0.071875 0.201074 128 128 255 -0.577350 0.577350 -0.577350
0.358789 0.006250 0.247461 128 128 255 -0.577350 0.577350 -0.577350
0.390527 0.084375 0.293848 128 128 255 -0.577350 0.577350 -0.577350
0.422266 0.162500 0.340234 128 128 255 -0.577350 0.577350 -0.577350
0.454004 0.240625 0.386621 128 128 255 -0.577350 0.577350 -0.577350
0.485742 0.318750 0.433008 128 128 255 -0.577350 0.577350 -0.577350
0.517480 0.396875 0.479395 128 128 255 -0.577350 0.577350 -0.577350
0.549219 0.475000 0.525781 128 128 255 -0.577350 0.577350 -0.577350
0.580957 0.553125 0.572168 128 128 255 0.537500 -0.637086 -0.552463
-0.368750 0.206445 0.024805 128 128 255 0.548825 -0.606412 -0.575374
-0.290625 0.238184 0.071191 128 128 255 -0.577350 0.577350 0.577350
-0.212500 0.269922 0.117578 128 128 255 -0.577350 0.577350 0.577350
-0.134375 0.301660 0.163965 128 128 255 -0.577350 0.577350 0.577350
-0.056250 0.333398 0.210352 128 128 255 -0.577350 0.577350 0.577350
0.021875 0.365137 0.256738 128 128 255 -0.577350 0.577350 0.577350
0.100000 0.396875 0.303125 128 128 255 -0.577350 0.577350 0.577350
0.178125 0.428613 0.349512 128 128 255 -0.577350 0.577350 0.577350
0.256250 0.460352 0.395898 128 128 255 -0.577350 0.577350 0.577350
0.334375 0.492090 0.442285 128 128 255 -0.577350 0.577350 0.577350
0.412500 0.523828 0.488672 128 128 255 -0.577350 0.577350 0.577350
0.490625 0.555566 0.535059 128 128 255 -0.577350 0.577350 0.577350
0.568750 0.587305 0.581445 128 128 255 0.615062 -0.557538 -0.557538
-0.353125 0.165918 -0.012793 128 128 255 0.701687 -0.503803 -0.503803
-0.275000 0.119531 -0.044531 128 128 255 0.577350 0.577350 0.577350
-0.196875 0.073145 -0.076270 128 128 255 0.577350 0.577350 0.577350
-0.118750 0.026758 -0.108008 128 128 255 0.577350 0.577350 0.577350
-0.040625 -0.019629 -0.139746 128 128 255 0.577350 0.577350 0.577350
0.037500 -0.066016 -0.171484 128 128 255 0.577350 0.577350 0.577350
0.115625 -0.112402 -0.203223 128 128 255 0.577350 0.577350 0.577350
0.193750 -0.158789 -0.234961 128 128 255 0.577350 0.577350 0.577350
0.271875 -0.205176 -0.266699 128 128 255 0.577350 0.577350 0.577350
0.350000 -0.251563 -0.298438 128 128 255 0.577350 0.577350 0.577350
0.428125 -0.297949 -0.330176 128 128 255 0.577350 0.577350 0.577350
0.506250 -0.344336 -0.361914 128 128 255 0.577350 0.577350 0.577350
0.584375 -0.390723 -0.393652 128 128 255 -0.208405 0.720902 -0.660959
0.291537 -0.052867 -0.052867 128 128 255 -0.043364 0.688865 -0.723591
0.307963 -0.018101 -0.018101 128 128 255 0.000000 0.707107 -0.707107
0.325504 0.019025 0.019025 128 128 255 0.000000 0.707107 -0.707107
0.344277 0.058758 0.058758 128 128 255 0.000000 0.707107 -0.707107
0.364417 0.101384 0.101384 128 128 255 0.000000 0.707107 -0.707107
0.386078 0.147231 0.147231 128 128 255 0.000000 0.707107 -0.707107
0.409440 0.196677 0.196677 128 128 255 0.000000 0.707107 -0.707107
0.434711 0.250163 0.250163 128 128 255 0.000000 0.707107 -0.707107
0.462136 0.308208 0.308208 128 128 255 0.000000 0.707107 -0.707107
0.492001 0.371418 0.371418 128 128 255 0.000000 0.707107 -0.707107
0.524647 0.440515 0.440515 128 128 255 0.000000 0.707107 -0.707107
0.560483 0.516362 0.516362 128 128 255 0.689888 -0.150700 -0.708056
-0.079129 0.279129 -0.079129 128 128 255 0.693496 -0.083913 -0.715557
-0.046092 0.294738 -0.046092 128 128 255 -0.707107 0.000000 0.707107
-0.010872 0.311379 -0.010872 128 128 255 -0.707107 0.000000 0.707107
0.026755 0.329156 0.026755 128 128 255 -0.707107 0.000000 0.707107
0.067042 0.348191 0.067042 128 128 255 -0.707107 0.000000 0.707107
0.110285 0.368622 0.110285 128 128 255 -0.707107 0.000000 0.707107
0.156819 0.390608 0.156819 128 128 255 -0.707107 0.000000 0.707107
0.207035 0.414334 0.207035 128 128 255 -0.707107 0.000000 0.707107
0.261390 0.440015 0.261390 128 128 255 -0.707107 0.000000 0.707107
0.320415 0.467903 0.320415 128 128 255 -0.707107 0.000000 0.707107
0.384741 0.498295 0.384741 128 128 255 -0.707107 0.000000 0.707107
0.455114 0.531545 0.455114 128 128 255 -0.707107 0.000000 0.707107
0.532430 0.568075 0.532430 128 128 255 -0.709660 0.694636 -0.117746
-0.072686 -0.072686 0.282173 128 128 255 -0.713927 0.697071 -0.066333
-0.039229 -0.039229 0.297981 128 128 255 0.707107 -0.707107 0.000000
-0.003547 -0.003547 0.314840 128 128 255 0.707107 -0.707107 0.000000
0.034590 0.034590 0.332858 128 128 255 0.707107 -0.707107 0.000000
0.075444 0.075444 0.352161 128 128 255 0.707107 -0.707107 0.000000
0.119316 0.119316 0.372889 128 128 255 0.707107 -0.707107 0.000000
0.166554 0.166554 0.395208 128 128 255 0.707107 -0.707107 0.000000
0.217559 0.217559 0.419307 128 128 255 0.707107 -0.707107 0.000000
0.272803 0.272803 0.445408 128 128 255 0.707107 -0.707107 0.000000
0.332834 0.332834 0.473771 128 128 255 0.707107 -0.707107 0.000000
0.398305 0.398305 0.504704 128 128 255 0.707107 -0.707107 0.000000
0.469990 0.469990 0.538574 128 128 255 0.707107 -0.707107 0.000000
0.548817 0.548817 0.575818 128 128 255 0.720911 0.079609 -0.688440
-0.066163 0.266163 -0.085255 128 128 255 0.746190 0.094205 -0.659034
-0.032277 0.232277 -0.101265 128 128 255 0.707107 0.707107 -0.000000
0.003876 0.196124 -0.118347 128 128 255 0.707107 0.707107 -0.000000
0.042535 0.157465 -0.136612 128 128 255 0.707107 0.707107 0.000000
0.083967 0.116033 -0.156188 128 128 255 0.707107 0.707107 0.000000
0.128483 0.071517 -0.177220 128 128 255 0.707107 0.707107 -0.000000
0.176440 0.023560 -0.199878 128 128 255 0.707107 0.707107 0.000000
0.228253 -0.028253 -0.224359 128 128 255 0.707107 0.707107 -0.000000
0.284406 -0.084406 -0.250890 128 128 255 0.707107 0.707107 -0.000000
0.345470 -0.145470 -0.279741 128 128 255 0.707107 0.707107 0.000000
0.412118 -0.212118 -0.311230 128 128 255 0.707108 0.707106 0.000003
0.485151 -0.285151 -0.345737 128 128 255 0.707107 0.707107 0.000000
0.565535 -0.365535 -0.383716 128 128 255 0.711792 -0.052668 0.700413
-0.059557 -0.088376 0.259557 128 128 255 0.710534 -0.032440 0.702915
-0.025235 -0.104592 0.225235 128 128 255 -0.707107 -0.000000 -0.707107
0.011400 -0.121901 0.188600 128 128 255 -0.707107 0.000000 -0.707107
0.050590 -0.140418 0.149410 128 128 255 -0.707107 0.000000 -0.707107
0.092613 -0.160272 0.107387 128 128 255 -0.707107 0.000000 -0.707107
0.137786 -0.181616 0.062214 128 128 255 -0.707107 0.000000 -0.707107
0.186479 -0.204622 0.013521 128 128 255 -0.707107 0.000000 -0.707107
0.239119 -0.229493 -0.039119 128 128 255 -0.707107 0.000000 -0.707107
0.296207 -0.256465 -0.096207 128 128 255 -0.707107 -0.000001 -0.707106
0.358330 -0.285817 -0.158330 128 128 255 -0.707107 -0.000001 -0.707107
0.426185 -0.317877 -0.226185 128 128 255 -0.707107 0.000001 -0.707107
0.500606 -0.353039 -0.300606 128 128 255 -0.707108 -0.000003 -0.707106
0.582592 -0.391775 -0.382592 128 128 255 0.682569 -0.010445 0.730747
-0.091537 -0.052867 0.252867 128 128 255 0.655452 0.043644 0.753974
-0.107963 -0.018101 0.218101 128 128 255 0.000000 0.707107 0.707107
-0.125504 0.019025 0.180975 128 128 255 0.000000 0.707107 0.707107
-0.144277 0.058758 0.141242 128 128 255 0.000000 0.707107 0.707107
-0.164417 0.101384 0.098616 128 128 255 -0.000000 0.707107 0.707107
-0.186078 0.147231 0.052769 128 128 255 -0.000000 0.707107 0.707107
-0.209440 0.196677 0.003323 128 128 255 -0.000000 0.707107 0.707107
-0.234711 0.250163 -0.050164 128 128 255 -0.000000 0.707107 0.707107
-0.262136 0.308208 -0.108208 128 128 255 -0.000001 0.707107 0.707107
-0.292001 0.371418 -0.171418 128 128 255 -0.000001 0.707107 0.707107
-0.324647 0.440515 -0.240515 128 128 255 -0.000002 0.707106 0.707107
-0.360483 0.516362 -0.316362 128 128 255 -0.548635 -0.226442 -0.804813
0.193750 0.006250 -0.400000 128 128 255 -0.627105 -0.598797 -0.498177
0.209375 -0.009375 -0.400000 128 128 255 0.577350 0.577350 -0.577350
0.239893 0.038232 -0.321875 128 128 255 0.577350 0.577350 -0.577350
0.270410 0.085840 -0.243750 128 128 255 0.577350 0.577350 -0.577350
0.300928 0.133447 -0.165625 128 128 255 0.577350 0.577350 -0.577350
0.331445 0.181055 -0.087500 128 128 255 0.577350 0.577350 -0.577350
0.361963 0.228662 -0.009375 128 128 255 0.577350 0.577350 -0.577350
0.392480 0.276270 0.068750 128 128 255 0.577350 0.577350 -0.577350
0.422998 0.323877 0.146875 128 128 255 0.577350 0.577350 -0.577350
0.453516 0.371484 0.225000 128 128 255 0.577350 0.577350 -0.577350
0.484033 0.419092 0.303125 128 128 255 0.577350 0.577350 -0.577350
0.514551 0.466699 0.381250 128 128 255 0.577350 0.577350 -0.577350
0.545068 0.514307 0.459375 128 128 255 0.577350 0.577350 -0.577350
0.575586 0.561914 0.537500 128 128 255 0.528402 -0.556307 0.641337
0.215479 -0.384375 0.000146 128 128 255 0.566995 -0.556090 0.607684
0.245996 -0.306250 0.047754 128 128 255 -0.577350 0.577350 -0.577350
0.276514 -0.228125 0.095361 128 128 255 -0.577350 0.577350 -0.577350
0.307031 -0.150000 0.142969 128 128 255 -0.577350 0.577350 -0.577350
0.337549 -0.071875 0.190576 128 128 255 -0.577350 0.577350 -0.577350
0.368066 0.006250 0.238184 128 128 255 -0.577350 0.577350 -0.577350
0.398584 0.084375 0.285791 128 128 255 -0.577350 0.577350 -0.577350
0.429102 0.162500 0.333398 128 128 255 -0.577350 0.577350 -0.577350
0.459619 0.240625 0.381006 128 128 255 -0.577350 0.577350 -0.577350
0.490137 0.318750 0.428613 128 128 255 -0.577350 0.577350 -0.577350
0.520654 0.396875 0.476221 128 128 255 -0.577350 0.577350 -0.577350
0.551172 0.475000 0.523828 128 128 255 -0.577350 0.577350 -0.577350
0.581689 0.553125 0.571436 128 128 255 0.535746 -0.637843 -0.553292
-0.368750 0.221582 0.009668 128 128 255 0.547795 -0.606883 -0.575860
-0.290625 0.252100 0.057275 128 128 255 -0.577350 0.577350 0.577350
-0.212500 0.282617 0.104883 128 128 255 -0.577350 0.577350 0.577350
-0.134375 0.313135 0.152490 128 128 255 -0.577350 0.577350 0.577350
-0.056250 0.343652 0.200098 128 128 255 -0.577350 0.577350 0.577350
0.021875 0.374170 0.247705 128 128 255 -0.577350 0.577350 0.577350
0.100000 0.404687 0.295312 128 128 255 -0.577350 0.577350 0.577350
0.178125 0.435205 0.342920 128 128 255 -0.577350 0.577350 0.577350
0.256250 0.465723 0.390527 128 128 255 -0.577350 0.577350 0.577350
0.334375 0.496240 0.438135 128 128 255 -0.577350 0.577349 0.577351
0.412500 0.526758 0.485742 128 128 255 -0.577350 0.577350 0.577350
0.490625 0.557275 0.533350 128 128 255 -0.577350 0.577350 0.577350
0.568750 0.587793 0.580957 128 128 255 0.615062 -0.557538 -0.557539
-0.353125 0.180811 -0.027686 128 128 255 0.701687 -0.503803 -0.503803
-0.275000 0.133203 -0.058203 128 128 255 0.577350 0.577350 0.577350
-0.196875 0.085596 -0.088721 128 128 255 0.577350 0.577350 0.577350
-0.118750 0.037988 -0.119238 128 128 255 0.577350 0.577350 0.577350
-0.040625 -0.009619 -0.149756 128 128 255 0.577350 0.577350 0.577350
0.037500 -0.057227 -0.180273 128 128 255 0.577350 0.577350 0.577350
0.115625 -0.104834 -0.210791 128 128 255 0.577350 0.577350 0.577350
0.193750 -0.152441 -0.241309 128 128 255 0.577350 0.577350 0.577350
0.271875 -0.200049 -0.271826 128 128 255 0.577350 0.577350 0.577350
0.350000 -0.247656 -0.302344 128 128 255 0.577350 0.577350 0.577350
0.428125 -0.295264 -0.332861 128 128 255 0.577350 0.577350 0.577350
0.506250 -0.342871 -0.363379 128 128 255 0.577350 0.577350 0.577350
0.584375 -0.390479 -0.393896 128 128 255 -0.188795 0.730315 -0.656503
0.298987 -0.059741 -0.059741 128 128 255 -0.038168 0.691670 -0.721204
0.315242 -0.024114 -0.024114 128 128 255 0.000000 0.707107 -0.707107
0.332572 0.013868 0.013868 128 128 255 0.000000 0.707107 -0.707107
0.351086 0.054448 0.054448 128 128 255 0.000000 0.707107 -0.707107
0.370912 0.097900 0.097900 128 128 255 0.000000 0.707107 -0.707107
0.392192 0.144541 0.144541 128 128 255 0.000000 0.707107 -0.707107
0.415094 0.194735 0.194735 128 128 255 0.000000 0.707107 -0.707107
0.439810 0.248905 0.248905 128 128 255 0.000000 0.707107 -0.707107
0.466563 0.307543 0.307543 128 128 255 0.000000 0.707107 -0.707107
0.495619 0.371224 0.371224 128 128 255 0.000000 0.707107 -0.707107
0.527285 0.440628 0.440628 128 128 255 0.000000 0.707107 -0.707107
0.561932 0.516564 0.516564 128 128 255 0.688154 -0.149930 -0.709905
-0.086691 0.286691 -0.086691 128 128 255 0.692389 -0.084340 -0.716578
-0.052794 0.302157 -0.052794 128 128 255 -0.707107 0.000000 0.707107
-0.016713 0.318619 -0.016713 128 128 255 -0.707107 0.000000 0.707107
0.021768 0.336176 0.021768 128 128 255 -0.707107 0.000000 0.707107
0.062899 0.354942 0.062899 128 128 255 -0.707107 0.000000 0.707107
0.106962 0.375047 0.106962 128 128 255 -0.707107 0.000000 0.707107
0.154283 0.396637 0.154283 128 128 255 -0.707107 0.000000 0.707107
0.205237 0.419885 0.205237 128 128 255 -0.707107 0.000000 0.707107
0.260258 0.444990 0.260258 128 128 255 -0.707107 0.000000 0.707107
0.319855 0.472181 0.319855 128 128 255 -0.707107 0.000000 0.707107
0.384623 0.501732 0.384623 128 128 255 -0.707107 0.000000 0.707107
0.455264 0.533963 0.455264 128 128 255 -0.707107 0.000000 0.707107
0.532617 0.569256 0.532617 128 128 255 -0.711110 0.693253 -0.117143
-0.080076 -0.080076 0.289709 128 128 255 -0.714755 0.696194 -0.066631
-0.045759 -0.045759 0.305366 128 128 255 0.707107 -0.707107 0.000000
-0.009217 -0.009217 0.322039 128 128 255 0.707107 -0.707107 0.000000
0.029774 0.029774 0.339829 128 128 255 0.707107 -0.707107 0.000000
0.071467 0.071467 0.358852 128 128 255 0.707107 -0.707107 0.000000
0.116154 0.116154 0.379241 128 128 255 0.707107 -0.707107 0.000000
0.164170 0.164170 0.401148 128 128 255 0.707107 -0.707107 0.000000
0.215900 0.215900 0.424751 128 128 255 0.707107 -0.707107 0.000000
0.271794 0.271794 0.450253 128 128 255 0.707107 -0.707107 0.000000
0.332374 0.332374 0.477893 128 128 255 0.707107 -0.707107 0.000000
0.398256 0.398256 0.507953 128 128 255 0.707107 -0.707107 0.000000
0.470169 0.470169 0.540763 128 128 255 0.707107 -0.707107 0.000000
0.548978 0.548978 0.576721 128 128 255 0.721922 0.079222 -0.687425
-0.073381 0.273381 -0.092763 128 128 255 0.746947 0.094997 -0.658062
-0.038635 0.238635 -0.108617 128 128 255 0.707107 0.707107 -0.000000
-0.001622 0.201622 -0.125504 128 128 255 0.707107 0.707107 -0.000000
0.037888 0.162112 -0.143531 128 128 255 0.707107 0.707107 -0.000000
0.080155 0.119845 -0.162816 128 128 255 0.707107 0.707107 -0.000000
0.125480 0.074520 -0.183495 128 128 255 0.707107 0.707107 0.000000
0.174206 0.025794 -0.205727 128 128 255 0.707107 0.707107 0.000000
0.226731 -0.026731 -0.229692 128 128 255 0.707107 0.707107 0.000000
0.283517 -0.083517 -0.255601 128 128 255 0.707107 0.707107 -0.000000
0.345105 -0.145105 -0.283702 128 128 255 0.707106 0.707107 -0.000002
0.412131 -0.212131 -0.314283 128 128 255 0.707106 0.707107 -0.000002
0.485348 -0.285348 -0.347689 128 128 255 0.707107 0.707106 0.000002
0.565656 -0.365656 -0.384330 128 128 255 0.712440 -0.052483 0.699768
-0.066603 -0.095856 0.266603 128 128 255 0.710957 -0.032549 0.702482
-0.031421 -0.111908 0.231421 128 128 255 -0.707107 0.000000 -0.707107
0.006072 -0.129015 0.193928 128 128 255 -0.707107 0.000000 -0.707107
0.046111 -0.147283 0.153889 128 128 255 -0.707107 0.000000 -0.707107
0.088965 -0.166835 0.111035 128 128 255 -0.707107 -0.000000 -0.707107
0.134941 -0.187812 0.065059 128 128 255 -0.707107 0.000000 -0.707107
0.184393 -0.210375 0.015607 128 128 255 -0.707107 0.000000 -0.707107
0.237731 -0.234711 -0.037731 128 128 255 -0.707107 0.000000 -0.707107
0.295431 -0.261038 -0.095431 128 128 255 -0.707107 0.000000 -0.707107
0.358053 -0.289609 -0.158053 128 128 255 -0.707107 -0.000002 -0.707106
0.426253 -0.320726 -0.226253 128 128 255 -0.707107 -0.000001 -0.707107
0.500811 -0.354744 -0.300811 128 128 255 -0.707107 0.000000 -0.707107
0.582660 -0.392089 -0.382660 128 128 255 0.682585 -0.010436 0.730732
-0.098987 -0.059741 0.259741 128 128 255 0.655069 0.044354 0.754266
-0.115242 -0.024114 0.224114 128 128 255 -0.000000 0.707107 0.707107
-0.132572 0.013868 0.186132 128 128 255 -0.000000 0.707107 0.707107
-0.151086 0.054448 0.145552 128 128 255 -0.000000 0.707107 0.707107
-0.170912 0.097900 0.102100 128 128 255 -0.000000 0.707107 0.707107
-0.192192 0.144541 0.055459 128 128 255 -0.000000 0.707107 0.707107
-0.215094 0.194735 0.005265 128 128 255 -0.000000 0.707107 0.707107
-0.239810 0.248905 -0.048905 128 128 255 0.000000 0.707107 0.707107
-0.266563 0.307543 -0.107543 128 128 255 0.000000 0.707107 0.707107
-0.295619 0.371224 -0.171224 128 128 255 0.000001 0.707107 0.707106
-0.327285 0.440628 -0.240628 128 128 255 -0.000001 0.707106 0.707107
-0.361932 0.516564 -0.316564 128 128 255 -0.532323 -0.214542 -0.818904
0.209375 -0.009375 -0.400000 128 128 255 -0.621764 -0.593480 -0.511069
0.225000 -0.025000 -0.400000 128 128 255 0.577350 0.577350 -0.577350
0.254297 0.023828 -0.321875 128 128 255 0.577350 0.577350 -0.577350
0.283594 0.072656 -0.243750 128 128 255 0.577350 0.577350 -0.577350
0.312891 0.121484 -0.165625 128 128 255 0.577350 0.577350 -0.577350
0.342187 0.170312 -0.087500 128 128 255 0.577350 0.577350 -0.577350
0.371484 0.219141 -0.009375 128 128 255 0.577350 0.577350 -0.577350
0.400781 0.267969 0.068750 128 128 255 0.577350 0.577350 -0.577350
0.430078 0.316797 0.146875 128 128 255 0.577350 0.577350 -0.577350
0.459375 0.365625 0.225000 128 128 255 0.577350 0.577350 -0.577350
0.488672 0.414453 0.303125 128 128 255 0.577350 0.577350 -0.577350
0.517969 0.463281 0.381250 128 128 255 0.577350 0.577350 -0.577350
0.547266 0.512109 0.459375 128 128 255 0.577350 0.577350 -0.577350
0.576563 0.560938 0.537500 128 128 255 0.527234 -0.558619 0.640288
0.230859 -0.384375 -0.015234 128 128 255 0.566333 -0.557459 0.607047
0.260156 -0.306250 0.033594 128 128 255 -0.577350 0.577350 -0.577350
0.289453 -0.228125 0.082422 128 128 255 -0.577350 0.577350 -0.577350
0.318750 -0.150000 0.131250 128 128 255 -0.577350 0.577350 -0.577350
0.348047 -0.071875 0.180078 128 128 255 -0.577350 0.577350 -0.577350
0.377344 0.006250 0.228906 128 128 255 -0.577350 0.577350 -0.577350
0.406641 0.084375 0.277734 128 128 255 -0.577350 0.577350 -0.577350
0.435937 0.162500 0.326562 128 128 255 -0.577350 0.577350 -0.577350
0.465234 0.240625 0.375391 128 128 255 -0.577350 0.577350 -0.577350
0.494531 0.318750 0.424219 128 128 255 -0.577350 0.577350 -0.577350
0.523828 0.396875 0.473047 128 128 255 -0.577350 0.577350 -0.577350
0.553125 0.475000 0.521875 128 128 255 -0.577350 0.577350 -0.577350
0.582422 0.553125 0.570703 128 128 255 0.533993 -0.638596 -0.554118
-0.368750 0.236719 -0.005469 128 128 255 0.546765 -0.607351 -0.576344
-0.290625 0.266016 0.043359 128 128 255 -0.577350 0.577350 0.577350
-0.212500 0.295312 0.092188 128 128 255 -0.577350 0.577350 0.577350
-0.134375 0.324609 0.141016 128 128 255 -0.577350 0.577350 0.577350
-0.056250 0.353906 0.189844 128 128 255 -0.577350 0.577350 0.577350
0.021875 0.383203 0.238672 128 128 255 -0.577350 0.577350 0.577350
0.100000 0.412500 0.287500 128 128 255 -0.577350 0.577350 0.577350
0.178125 0.441797 0.336328 128 128 255 -0.577350 0.577350 0.577350
0.256250 0.471094 0.385156 128 128 255 -0.577350 0.577350 0.577350
0.334375 0.500391 0.433984 128 128 255 -0.577350 0.577349 0.577351
0.412500 0.529688 0.482812 128 128 255 -0.577350 0.577350 0.577351
0.490625 0.558984 0.531641 128 128 255 -0.577350 0.577350 0.577350
0.568750 0.588281 0.580469 128 128 255 0.615062 -0.557538 -0.557538
-0.353125 0.195703 -0.042578 128 128 255 0.701687 -0.503803 -0.503803
-0.275000 0.146875 -0.071875 128 128 255 0.577350 0.577350 0.577350
-0.196875 0.098047 -0.101172 128 128 255 0.577350 0.577350 0.577350
-0.118750 0.049219 -0.130469 128 128 255 0.577350 0.577350 0.577350
-0.040625 0.000391 -0.159766 128 128 255 0.577350 0.577350 0.577350
0.037500 -0.048437 -0.189063 128 128 255 0.577350 0.577350 0.577350
0.115625 -0.097266 -0.218359 128 128 255 0.577350 0.577350 0.577350
0.193750 -0.146094 -0.247656 128 128 255 0.577350 0.577350 0.577350
0.271875 -0.194922 -0.276953 128 128 255 0.577350 0.577350 0.577350
0.350000 -0.243750 -0.306250 128 128 255 0.577350 0.577350 0.577350
0.428125 -0.292578 -0.335547 128 128 255 0.577350 0.577350 0.577350
0.506250 -0.341406 -0.364844 128 128 255 0.577350 0.577350 0.577350
0.584375 -0.390234 -0.394141 128 128 255 -0.169316 0.739250 -0.651798
0.306661 -0.066823 -0.066823 128 128 255 -0.033090 0.694383 -0.718844
0.322728 -0.030299 -0.030299 128 128 255 0.000000 0.707107 -0.707107
0.339829 0.008574 0.008574 128 128 255 0.000000 0.707107 -0.707107
0.358066 0.050030 0.050030 128 128 255 0.000000 0.707107 -0.707107
0.377556 0.094336 0.094336 128 128 255 0.000000 0.707107 -0.707107
0.398434 0.141795 0.141795 128 128 255 0.000000 0.707107 -0.707107
0.420852 0.192758 0.192758 128 128 255 0.000000 0.707107 -0.707107
0.444990 0.247627 0.247627 128 128 255 0.000000 0.707107 -0.707107
0.471050 0.306869 0.306869 128 128 255 0.000000 0.707107 -0.707107
0.499274 0.371027 0.371027 128 128 255 0.000000 0.707107 -0.707107
0.529942 0.440742 0.440742 128 128 255 0.000000 0.707107 -0.707107
0.563386 0.516767 0.516767 128 128 255 0.686454 -0.149167 -0.711709
-0.094490 0.294490 -0.094490 128 128 255 0.691289 -0.084779 -0.717588
-0.059696 0.309797 -0.059696 128 128 255 -0.707107 0.000000 0.707107
-0.022720 0.326063 -0.022720 128 128 255 -0.707107 0.000000 0.707107
0.016650 0.343382 0.016650 128 128 255 -0.707107 0.000000 0.707107
0.058654 0.361859 0.058654 128 128 255 -0.707107 0.000000 0.707107
0.103565 0.381616 0.103565 128 128 255 -0.707107 0.000000 0.707107
0.151696 0.402789 0.151696 128 128 255 -0.707107 0.000000 0.707107
0.203406 0.425536 0.203406 128 128 255 -0.707107 0.000000 0.707107
0.259109 0.450041 0.259109 128 128 255 -0.707107 0.000000 0.707107
0.319288 0.476514 0.319288 128 128 255 -0.707107 0.000000 0.707107
0.384504 0.505202 0.384504 128 128 255 -0.707107 0.000000 0.707107
0.455416 0.536397 0.455416 128 128 255 -0.707107 0.000000 0.707107
0.532806 0.570441 0.532806 128 128 255 -0.712525 0.691899 -0.116553
-0.087697 -0.087697 0.297479 128 128 255 -0.715574 0.695322 -0.066939
-0.052482 -0.052482 0.312970 128 128 255 0.707107 -0.707107 0.000000
-0.015045 -0.015045 0.329439 128 128 255 0.707107 -0.707107 0.000000
0.024832 0.024832 0.346981 128 128 255 0.707107 -0.707107 0.000000
0.067394 0.067394 0.365704 128 128 255 0.707107 -0.707107 0.000000
0.112923 0.112923 0.385732 128 128 255 0.707107 -0.707107 0.000000
0.161739 0.161739 0.407207 128 128 255 0.707107 -0.707107 0.000000
0.214213 0.214213 0.430290 128 128 255 0.707107 -0.707107 0.000000
0.270770 0.270770 0.455170 128 128 255 0.707107 -0.707107 0.000000
0.331909 0.331909 0.482065 128 128 255 0.707107 -0.707107 0.000000
0.398207 0.398207 0.511230 128 128 255 0.707107 -0.707107 0.000000
0.470348 0.470348 0.542966 128 128 255 0.707107 -0.707107 0.000000
0.549140 0.549140 0.577626 128 128 255 0.722910 0.078832 -0.686430
-0.080822 0.280822 -0.100503 128 128 255 0.747706 0.095801 -0.657083
-0.045179 0.245179 -0.116183 128 128 255 0.707107 0.707107 0.000000
-0.007272 0.207272 -0.132858 128 128 255 0.707107 0.707107 0.000000
0.033121 0.166879 -0.150627 128 128 255 0.707107 0.707107 -0.000000
0.076253 0.123747 -0.169601 128 128 255 0.707107 0.707107 -0.000000
0.122412 0.077588 -0.189907 128 128 255 0.707107 0.707107 -0.000000
0.171928 0.028072 -0.211689 128 128 255 0.707107 0.707107 -0.000000
0.225183 -0.025183 -0.235116 128 128 255 0.707107 0.707107 -0.000000
0.282614 -0.082614 -0.260381 128 128 255 0.707107 0.707107 -0.000001
0.344735 -0.144735 -0.287708 128 128 255 0.707107 0.707107 -0.000000
0.412144 -0.212144 -0.317361 128 128 255 0.707106 0.707107 -0.000002
0.485546 -0.285546 -0.349651 128 128 255 0.707107 0.707107 0.000000
0.565778 -0.365778 -0.384945 128 128 255 0.713074 -0.052295 0.699136
-0.073865 -0.103564 0.273865 128 128 255 0.711376 -0.032664 0.702053
-0.037785 -0.119435 0.237785 128 128 255 -0.707107 -0.000000 -0.707107
0.000600 -0.136321 0.199400 128 128 255 -0.707107 0.000000 -0.707107
0.041520 -0.154322 0.158480 128 128 255 -0.707107 -0.000000 -0.707107
0.085232 -0.173551 0.114768 128 128 255 -0.707107 -0.000000 -0.707107
0.132035 -0.194140 0.067965 128 128 255 -0.707107 -0.000000 -0.707107
0.182267 -0.216237 0.017733 128 128 255 -0.707107 -0.000000 -0.707107
0.236319 -0.240015 -0.036319 128 128 255 -0.707107 -0.000001 -0.707107
0.294646 -0.265673 -0.094646 128 128 255 -0.707107 -0.000000 -0.707107
0.357773 -0.293443 -0.157773 128 128 255 -0.707106 0.000002 -0.707107
0.426320 -0.323598 -0.226320 128 128 255 -0.707107 -0.000001 -0.707107
0.501017 -0.356457 -0.301017 128 128 255 -0.707106 0.000003 -0.707108
0.582728 -0.392402 -0.382728 128 128 255 0.682600 -0.010430 0.730718
-0.106661 -0.066823 0.266823 128 128 255 0.654674 0.045081 0.754566
-0.122728 -0.030299 0.230299 128 128 255 0.000000 0.707107 0.707107
-0.139829 0.008574 0.191426 128 128 255 -0.000000 0.707107 0.707107
-0.158066 0.050030 0.149970 128 128 255 0.000000 0.707107 0.707107
-0.177556 0.094336 0.105664 128 128 255 0.000000 0.707107 0.707107
-0.198434 0.141795 0.058205 128 128 255 0.000000 0.707107 0.707107
-0.220852 0.192758 0.007242 128 128 255 0.000000 0.707107 0.707107
-0.244990 0.247627 -0.047627 128 128 255 0.000000 0.707107 0.707107
-0.271050 0.306869 -0.106869 128 128 255 -0.000000 0.707107 0.707107
-0.299274 0.371027 -0.171027 128 128 255 0.000000 0.707107 0.707107
-0.329942 0.440742 -0.240742 128 128 255 0.000003 0.707107 0.707106
-0.363386 0.516767 -0.316767 128 128 255 -0.516268 -0.202916 -0.832041
0.225000 -0.025000 -0.400000 128 128 255 -0.616304 -0.588049 -0.523801
0.240625 -0.040625 -0.400000 128 128 255 0.577350 0.577350 -0.577350
0.268701 0.009424 -0.321875 128 128 255 0.577350 0.577350 -0.577350
0.296777 0.059473 -0.243750 128 128 255 0.577350 0.577350 -0.577350
0.324854 0.109521 -0.165625 128 128 255 0.577350 0.577350 -0.577350
0.352930 0.159570 -0.087500 128 128 255 0.577350 0.577350 -0.577350
0.381006 0.209619 -0.009375 128 128 255 0.577350 0.577350 -0.577350
0.409082 0.259668 0.068750 128 128 255 0.577350 0.577350 -0.577350
0.437158 0.309717 0.146875 128 128 255 0.577350 0.577350 -0.577350
0.465234 0.359766 0.225000 128 128 255 0.577350 0.577350 -0.577350
0.493311 0.409814 0.303125 128 128 255 0.577350 0.577350 -0.577350
0.521387 0.459863 0.381250 128 128 255 0.577350 0.577350 -0.577350
0.549463 0.509912 0.459375 128 128 255 0.577350 0.577350 -0.577350
0.577539 0.559961 0.537500 128 128 255 0.526059 -0.560932 0.639232
0.246240 -0.384375 -0.030615 128 128 255 0.565668 -0.558828 0.606408
0.274316 -0.306250 0.019434 128 128 255 -0.577350 0.577350 -0.577350
0.302393 -0.228125 0.069482 128 128 255 -0.577350 0.577350 -0.577350
0.330469 -0.150000 0.119531 128 128 255 -0.577350 0.577350 -0.577350
0.358545 -0.071875 0.169580 128 128 255 -0.577350 0.577350 -0.577350
0.386621 0.006250 0.219629 128 128 255 -0.577350 0.577350 -0.577350
0.414697 0.084375 0.269678 128 128 255 -0.577350 0.577350 -0.577350
0.442773 0.162500 0.319727 128 128 255 -0.577350 0.577350 -0.577350
0.470850 0.240625 0.369775 128 128 255 -0.577350 0.577350 -0.577350
0.498926 0.318750 0.419824 128 128 255 -0.577350 0.577350 -0.577351
0.527002 0.396875 0.469873 128 128 255 -0.577350 0.577350 -0.577350
0.555078 0.475000 0.519922 128 128 255 -0.577350 0.577350 -0.577350
0.583154 0.553125 0.569971 128 128 255 0.532240 -0.639346 -0.554939
-0.368750 0.251855 -0.020605 128 128 255 0.545735 -0.607819 -0.576827
-0.290625 0.279932 0.029443 128 128 255 -0.577350 0.577350 0.577350
-0.212500 0.308008 0.079492 128 128 255 -0.577350 0.577350 0.577350
-0.134375 0.336084 0.129541 128 128 255 -0.577350 0.577350 0.577350
-0.056250 0.364160 0.179590 128 128 255 -0.577350 0.577350 0.577350
0.021875 0.392236 0.229639 128 128 255 -0.577350 0.577350 0.577350
0.100000 0.420312 0.279687 128 128 255 -0.577350 0.577350 0.577350
0.178125 0.448389 0.329736 128 128 255 -0.577350 0.577350 0.577350
0.256250 0.476465 0.379785 128 128 255 -0.577350 0.577350 0.577350
0.334375 0.504541 0.429834 128 128 255 -0.577350 0.577350 0.577350
0.412500 0.532617 0.479883 128 128 255 -0.577350 0.577350 0.577350
0.490625 0.560693 0.529932 128 128 255 -0.577350 0.577350 0.577350
0.568750 0.588770 0.579980 128 128 255 0.615062 -0.557538 -0.557538
-0.353125 0.210596 -0.057471 128 128 255 0.701687 -0.503803 -0.503803
-0.275000 0.160547 -0.085547 128 128 255 0.577350 0.577350 0.577350
-0.196875 0.110498 -0.113623 128 128 255 0.577350 0.577350 0.577350
-0.118750 0.060449 -0.141699 128 128 255 0.577350 0.577350 0.577350
-0.040625 0.010400 -0.169775 128 128 255 0.577350 0.577350 0.577350
0.037500 -0.039648 -0.197852 128 128 255 0.577350 0.577350 0.577350
0.115625 -0.089697 -0.225928 128 128 255 0.577350 0.577350 0.577350
0.193750 -0.139746 -0.254004 128 128 255 0.577350 0.577350 0.577350
0.271875 -0.189795 -0.282080 128 128 255 0.577350 0.577350 0.577350
0.350000 -0.239844 -0.310156 128 128 255 0.577350 0.577350 0.577350
0.428125 -0.289893 -0.338232 128 128 255 0.577350 0.577350 0.577350
0.506250 -0.339941 -0.366309 128 128 255 0.577350 0.577350 0.577350
0.584375 -0.389990 -0.394385 128 128 255 -0.150018 0.747708 -0.646860
0.314572 -0.074122 -0.074122 128 128 255 -0.028131 0.697005 -0.716515
0.330432 -0.036664 -0.036664 128 128 255 0.000000 0.707107 -0.707107
0.347283 0.003135 0.003135 128 128 255 0.000000 0.707107 -0.707107
0.365221 0.045500 0.045500 128 128 255 0.000000 0.707107 -0.707107
0.384354 0.090689 0.090689 128 128 255 0.000000 0.707107 -0.707107
0.404806 0.138992 0.138992 128 128 255 0.000000 0.707107 -0.707107
0.426718 0.190744 0.190744 128 128 255 0.000000 0.707107 -0.707107
0.450253 0.246328 0.246328 128 128 255 0.000000 0.707107 -0.707107
0.475597 0.306186 0.306186 128 128 255 0.000000 0.707107 -0.707107
0.502967 0.370829 0.370829 128 128 255 0.000000 0.707107 -0.707107
0.532618 0.440857 0.440857 128 128 255 0.000000 0.707107 -0.707107
0.564845 0.516971 0.516971 128 128 255 0.684789 -0.148413 -0.713469
-0.102540 0.302540 -0.102540 128 128 255 0.690193 -0.085219 -0.718590
-0.066808 0.317669 -0.066808 128 128 255 -0.707107 0.000000 0.707107
-0.028898 0.333720 -0.028898 128 128 255 -0.707107 0.000000 0.707107
0.011395 0.350780 0.011395 128 128 255 -0.707107 0.000000 0.707107
0.054303 0.368948 0.054303 128 128 255 -0.707107 0.000000 0.707107
0.100090 0.388334 0.100090 128 128 255 -0.707107 0.000000 0.707107
0.149055 0.409067 0.149055 128 128 255 -0.707107 0.000000 0.707107
0.201541 0.431290 0.201541 128 128 255 -0.707107 0.000000 0.707107
0.257943 0.455170 0.257943 128 128 255 -0.707107 0.000000 0.707107
0.318714 0.480901 0.318714 128 128 255 -0.707107 0.000000 0.707107
0.384383 0.508706 0.384383 128 128 255 -0.707107 0.000000 0.707107
0.455568 0.538847 0.455568 128 128 255 -0.707107 0.000000 0.707107
0.532994 0.571629 0.532994 128 128 255 -0.713906 0.690572 -0.115970
-0.095558 -0.095558 0.305495 128 128 255 -0.716386 0.694456 -0.067251
-0.059406 -0.059406 0.320803 128 128 255 0.707107 -0.707107 0.000000
-0.021037 -0.021037 0.337048 128 128 255 0.707107 -0.707107 0.000000
0.019759 0.019759 0.354322 128 128 255 0.707107 -0.707107 0.000000
0.063221 0.063221 0.372724 128 128 255 0.707107 -0.707107 0.000000
0.109619 0.109619 0.392369 128 128 255 0.707107 -0.707107 0.000000
0.159259 0.159259 0.413387 128 128 255 0.707107 -0.707107 0.000000
0.212495 0.212495 0.435927 128 128 255 0.707107 -0.707107 0.000000
0.269731 0.269731 0.460162 128 128 255 0.707107 -0.707107 0.000000
0.331437 0.331437 0.486289 128 128 255 0.707107 -0.707107 0.000000
0.398158 0.398158 0.514538 128 128 255 0.707107 -0.707107 0.000000
0.470529 0.470529 0.545181 128 128 255 0.707107 -0.707107 0.000000
0.549301 0.549301 0.578534 128 128 255 0.723875 0.078450 -0.685457
-0.088496 0.288496 -0.108486 128 128 255 0.748464 0.096630 -0.656097
-0.051916 0.251916 -0.123974 128 128 255 0.707107 0.707107 0.000000
-0.013079 0.213079 -0.140418 128 128 255 0.707107 0.707107 0.000000
0.028230 0.171770 -0.157909 128 128 255 0.707107 0.707107 -0.000000
0.072257 0.127743 -0.176550 128 128 255 0.707107 0.707107 0.000000
0.119277 0.080723 -0.196458 128 128 255 0.707107 0.707107 0.000000
0.169606 0.030394 -0.217768 128 128 255 0.707107 0.707107 0.000000
0.223608 -0.023608 -0.240633 128 128 255 0.707107 0.707107 0.000000
0.281699 -0.081699 -0.265229 128 128 255 0.707107 0.707107 0.000001
0.344361 -0.144361 -0.291761 128 128 255 0.707107 0.707107 0.000001
0.412158 -0.212158 -0.320466 128 128 255 0.707107 0.707106 0.000002
0.485745 -0.285745 -0.351624 128 128 255 0.707107 0.707107 0.000001
0.565899 -0.365899 -0.385561 128 128 255 0.713694 -0.052107 0.698517
-0.081351 -0.111511 0.281351 128 128 255 0.711792 -0.032777 0.701625
-0.044336 -0.127183 0.244336 128 128 255 -0.707107 -0.000000 -0.707107
-0.005022 -0.143829 0.205022 128 128 255 -0.707107 -0.000000 -0.707107
0.036810 -0.161541 0.163190 128 128 255 -0.707107 -0.000000 -0.707107
0.081412 -0.180426 0.118588 128 128 255 -0.707107 -0.000000 -0.707107
0.129067 -0.200603 0.070933 128 128 255 -0.707107 0.000000 -0.707107
0.180100 -0.222211 0.019900 128 128 255 -0.707107 -0.000000 -0.707107
0.234885 -0.245408 -0.034885 128 128 255 -0.707107 -0.000000 -0.707107
0.293849 -0.270373 -0.093849 128 128 255 -0.707107 -0.000001 -0.707106
0.357490 -0.297320 -0.157490 128 128 255 -0.707107 -0.000002 -0.707106
0.426389 -0.326492 -0.226389 128 128 255 -0.707107 0.000001 -0.707107
0.501223 -0.358177 -0.301223 128 128 255 -0.707107 -0.000002 -0.707106
0.582796 -0.392716 -0.382796 128 128 255 0.682615 -0.010422 0.730704
-0.114572 -0.074122 0.274122 128 128 255 0.654268 0.045829 0.754873
-0.130432 -0.036664 0.236664 128 128 255 0.000000 0.707107 0.707107
