ply
format ascii 1.0
element vertex 694
property float x
property float y
property float z
property uchar red
property uchar green
property uchar blue
property float nx
property float ny
property float nz
end_header
0.280045 0.287241 0.469270 128 128 255 -0.719684 0.693907 -0.023424
0.195951 0.188661 0.464691 128 128 255 -0.713917 0.699840 -0.023364
0.100949 0.102923 0.464425 128 128 255 -0.688251 0.723891 0.047890
0.003467 0.005783 0.468850 128 128 255 -0.713801 0.699782 -0.028156
-0.081595 -0.082743 0.471898 128 128 255 -0.715949 0.698148 -0.002510
-0.172818 -0.175106 0.469280 128 128 255 0.707085 -0.706268 0.034867
0.471967 0.471356 0.468675 128 128 255 0.706589 -0.706879 0.032452
0.440763 0.437191 0.442507 128 128 255 -0.705078 0.709128 -0.001526
0.404378 0.404276 0.411356 128 128 255 -0.675690 0.735535 0.049308
0.368534 0.375450 0.373641 128 128 255 -0.718734 0.695152 -0.013573
0.332947 0.330130 0.329496 128 128 255 -0.727194 0.684840 -0.046722
0.287632 0.282432 0.281818 128 128 255 -0.687101 0.725312 0.042599
0.228196 0.235338 0.232859 128 128 255 -0.709709 0.704444 -0.008494
0.173756 0.169306 0.176759 128 128 255 -0.913638 -0.401891 -0.061235
0.464819 -0.264372 -0.262179 128 128 255 -0.896413 -0.440602 -0.048096
0.371960 -0.171905 -0.261908 128 128 255 0.703157 0.710656 0.023184
0.279131 -0.080546 -0.261808 128 128 255 0.700414 0.712845 0.035656
0.189614 0.007280 -0.261873 128 128 255 0.702239 0.711527 0.024299
0.099223 0.096915 -0.262101 128 128 255 0.708181 0.705946 -0.010969
0.009037 0.188215 -0.262684 128 128 255 0.714356 0.697763 -0.053122
-0.079900 0.280024 -0.263375 128 128 255 0.717746 0.691863 -0.078520
-0.171907 0.375704 -0.264179 128 128 255 -0.706699 -0.706107 0.044607
0.464797 -0.264349 -0.261744 128 128 255 -0.771188 -0.636204 0.022672
0.371934 -0.264283 -0.169989 128 128 255 0.024605 0.998554 0.047788
0.281373 -0.268233 -0.079269 128 128 255 0.037937 0.996208 0.078297
0.194513 -0.271776 0.010640 128 128 255 0.008723 0.999745 0.020843
0.104152 -0.270789 0.100281 128 128 255 -0.031118 0.997564 -0.062433
0.010322 -0.266471 0.190160 128 128 255 -0.037255 0.996293 -0.077533
-0.084142 -0.263693 0.280737 128 128 255 -0.000881 0.999992 -0.003978
-0.179901 -0.265647 0.372336 128 128 255 -0.034579 -0.998825 -0.033958
0.464819 -0.264373 -0.262195 128 128 255 0.063685 -0.997886 0.012984
0.435160 -0.235339 -0.233687 128 128 255 0.702668 0.711131 0.023483
0.404209 -0.206450 -0.202616 128 128 255 0.702550 0.711078 0.028135
0.371532 -0.175046 -0.168506 128 128 255 0.710555 0.703567 -0.010270
0.333697 -0.134019 -0.130524 128 128 255 0.715058 0.696637 -0.058224
0.288594 -0.082911 -0.087190 128 128 255 0.709304 0.704475 -0.024556
0.231956 -0.028540 -0.036116 128 128 255 0.693854 0.717530 0.060969
0.168060 0.024561 0.025626 128 128 255 0.709105 0.704837 0.019348
-0.263926 0.470337 -0.265933 128 128 255 0.618509 0.785480 -0.021632
-0.264868 0.379590 -0.175390 128 128 255 -0.997840 -0.039096 -0.052785
-0.266274 0.287189 -0.084772 128 128 255 -0.996256 -0.051375 -0.069527
-0.268057 0.196433 0.005939 128 128 255 -0.995658 -0.055373 -0.074831
-0.269717 0.103425 0.096950 128 128 255 -0.996573 -0.049191 -0.066500
-0.271056 0.009943 0.188284 128 128 255 -0.998381 -0.033787 -0.045762
-0.271874 -0.082322 0.279990 128 128 255 -0.999810 -0.011337 -0.015847
-0.271955 -0.176755 0.372074 128 128 255 0.999944 -0.009635 0.004278
-0.263928 0.470341 -0.265877 128 128 255 0.998526 -0.050696 0.019380
-0.236108 0.442993 -0.238429 128 128 255 -0.705602 -0.708565 -0.007773
-0.205532 0.411687 -0.207821 128 128 255 -0.697100 -0.715033 -0.052731
-0.171570 0.375423 -0.173354 128 128 255 -0.688498 -0.719410 -0.091756
-0.132135 0.332170 -0.134098 128 128 255 -0.684762 -0.720770 -0.107662
-0.088086 0.283492 -0.088846 128 128 255 -0.690492 -0.718451 -0.083958
-0.036282 0.228389 -0.036007 128 128 255 -0.704405 -0.709612 -0.016287
0.024694 0.168517 0.026387 128 128 255 -0.877997 0.476871 0.041415
-0.271343 -0.270032 0.464228 128 128 255 -0.810328 0.583053 0.058452
-0.242636 -0.242162 0.435854 128 128 255 0.654049 -0.752337 -0.078792
-0.210622 -0.210972 0.404253 128 128 255 0.661235 -0.746951 -0.069519
-0.174698 -0.175796 0.368843 128 128 255 0.670935 -0.739341 -0.056748
-0.132915 -0.134682 0.328942 128 128 255 0.682624 -0.729637 -0.040674
-0.086673 -0.088706 0.283507 128 128 255 0.694749 -0.718861 -0.023717
-0.033537 -0.035414 0.231372 128 128 255 0.705646 -0.708521 -0.007841
0.026944 0.025726 0.170864 128 128 255 0.704253 -0.709845 0.012165
0.471959 0.471317 0.467971 128 128 255 0.699835 -0.713949 0.022523
0.471959 0.471317 0.467963 128 128 255 -0.997381 0.070558 0.015925
0.463736 0.375163 0.378933 128 128 255 -0.999893 -0.013805 0.004764
0.471537 0.280739 0.281024 128 128 255 -0.999831 0.008390 -0.016387
0.464972 0.196452 0.189210 128 128 255 -0.999708 -0.008684 0.022563
0.469657 0.096526 0.103925 128 128 255 -0.999554 0.011219 -0.027688
0.467255 0.008412 0.010037 128 128 255 -0.999473 -0.015008 0.028774
0.467057 -0.080828 -0.087131 128 128 255 -0.999530 0.013798 -0.027392
0.469799 -0.180108 -0.174516 128 128 255 0.996066 0.056418 -0.068334
0.471970 0.471373 0.468989 128 128 255 0.987786 0.151222 -0.037548
0.372905 0.464391 0.380267 128 128 255 -0.030022 0.999338 0.020541
0.283099 0.471157 0.283528 128 128 255 0.032625 0.999259 -0.020405
0.195517 0.464602 0.188792 128 128 255 -0.033194 0.999222 0.021285
0.095866 0.470953 0.102041 128 128 255 0.033763 0.999137 -0.024182
0.009980 0.464873 0.013434 128 128 255 -0.034737 0.999124 0.023332
-0.082042 0.470717 -0.083242 128 128 255 0.035084 0.999103 -0.023708
-0.179714 0.465136 -0.178309 128 128 255 0.054431 -0.996869 -0.057353
0.471973 0.471393 0.469350 128 128 255 -0.105936 -0.994360 -0.005117
0.374336 0.371940 0.472486 128 128 255 -0.695399 0.717963 0.030804
0.280015 0.287236 0.469880 128 128 255 -0.708615 0.705542 -0.008619
0.195930 0.188686 0.465257 128 128 255 -0.724538 0.688195 -0.037859
0.100986 0.102887 0.464920 128 128 255 -0.683817 0.728166 0.046571
0.003464 0.005823 0.469288 128 128 255 -0.711747 0.702291 -0.014264
-0.081623 -0.082783 0.472304 128 128 255 -0.717284 0.696738 -0.007682
-0.172801 -0.175072 0.469648 128 128 255 0.706627 -0.706521 0.038804
0.471969 0.471371 0.468957 128 128 255 0.707015 -0.706460 0.032314
0.440779 0.437211 0.442737 128 128 255 -0.707736 0.706397 -0.010617
0.404387 0.404265 0.411534 128 128 255 -0.677224 0.734436 0.044402
0.368526 0.375440 0.373830 128 128 255 -0.714689 0.699441 0.001294
0.332931 0.330157 0.329778 128 128 255 -0.723619 0.687406 -0.062035
0.287651 0.282403 0.282177 128 128 255 -0.695284 0.717447 0.043003
0.228207 0.235366 0.233289 128 128 255 -0.698396 0.715711 -0.000897
0.173719 0.169268 0.177293 128 128 255 -0.934777 -0.347965 -0.071500
0.464787 -0.264338 -0.261544 128 128 255 -0.881096 -0.469636 -0.055791
0.371948 -0.171916 -0.261194 128 128 255 0.703558 0.710373 0.019401
0.279149 -0.080608 -0.261021 128 128 255 0.700522 0.712772 0.034987
0.189662 0.007195 -0.261019 128 128 255 0.701878 0.711737 0.028256
0.099291 0.096854 -0.261187 128 128 255 0.707689 0.706512 -0.004182
0.009106 0.188217 -0.261718 128 128 255 0.714119 0.698422 -0.047338
-0.079851 0.280095 -0.262371 128 128 255 0.717703 0.692112 -0.076702
-0.171895 0.375809 -0.263151 128 128 255 -0.706050 -0.706476 0.048838
0.464743 -0.264292 -0.260648 128 128 255 -0.755186 -0.654901 0.028246
0.371950 -0.264339 -0.168931 128 128 255 0.016321 0.999203 0.036427
0.281443 -0.268334 -0.078264 128 128 255 0.039340 0.996014 0.080052
0.194575 -0.271807 0.011586 128 128 255 0.019788 0.999157 0.035959
0.104157 -0.270724 0.101167 128 128 255 -0.022082 0.998505 -0.050010
0.010274 -0.266392 0.190989 128 128 255 -0.041197 0.995671 -0.083324
-0.084198 -0.263686 0.281506 128 128 255 -0.013775 0.999655 -0.022366
-0.179919 -0.265705 0.373040 128 128 255 -0.062469 -0.996219 -0.060375
0.464788 -0.264340 -0.261578 128 128 255 0.026094 -0.999628 -0.007971
0.435156 -0.235354 -0.233169 128 128 255 0.702202 0.711710 0.019540
0.404228 -0.206491 -0.202196 128 128 255 0.702735 0.710802 0.030396
0.371557 -0.175067 -0.168179 128 128 255 0.711518 0.702667 -0.001177
0.333709 -0.134006 -0.130285 128 128 255 0.716206 0.695840 -0.053434
0.288589 -0.082896 -0.087036 128 128 255 0.708006 0.705108 -0.039387
0.231941 -0.028550 -0.035919 128 128 255 0.696220 0.715444 0.058459
0.168058 0.024545 0.025890 128 128 255 0.704117 0.709358 0.032101
-0.263935 0.470361 -0.265632 128 128 255 0.652389 0.757828 -0.009248
-0.264887 0.379609 -0.175035 128 128 255 -0.998198 -0.035362 -0.048484
-0.266303 0.287196 -0.084364 128 128 255 -0.996539 -0.049187 -0.067012
-0.268092 0.196422 0.006398 128 128 255 -0.995638 -0.055495 -0.074995
-0.269751 0.103396 0.097459 128 128 255 -0.996208 -0.052009 -0.069745
-0.271082 0.009898 0.188840 128 128 255 -0.997893 -0.039078 -0.051801
-0.271884 -0.082379 0.280589 128 128 255 -0.999568 -0.017885 -0.023342
-0.271948 -0.176815 0.372709 128 128 255 0.999768 -0.020742 -0.005751
-0.263945 0.470391 -0.265264 128 128 255 0.999319 -0.034762 0.012353
-0.236139 0.443022 -0.237805 128 128 255 -0.709159 -0.705044 0.002467
-0.205574 0.411686 -0.207191 128 128 255 -0.701181 -0.711749 -0.041932
-0.171618 0.375389 -0.172723 128 128 255 -0.691699 -0.717306 -0.083818
-0.132178 0.332112 -0.133472 128 128 255 -0.684927 -0.720694 -0.107122
-0.088113 0.283434 -0.088229 128 128 255 -0.685973 -0.721409 -0.094920
-0.036282 0.228363 -0.035406 128 128 255 -0.696822 -0.716275 -0.037278
0.024722 0.168542 0.026964 128 128 255 -0.916714 0.398462 0.029399
-0.271323 -0.270074 0.464756 128 128 255 -0.811580 0.582340 0.047089
-0.242615 -0.242195 0.436331 128 128 255 0.652801 -0.753225 -0.080642
-0.210602 -0.210994 0.404673 128 128 255 0.659500 -0.748235 -0.072137
-0.174679 -0.175807 0.369200 128 128 255 0.668602 -0.741165 -0.060374
-0.132898 -0.134682 0.329231 128 128 255 0.679960 -0.731870 -0.044955
-0.086660 -0.088700 0.283725 128 128 255 0.692181 -0.721183 -0.027953
-0.033527 -0.035405 0.231515 128 128 255 0.703517 -0.710585 -0.011490
0.026949 0.025731 0.170931 128 128 255 0.705391 -0.708768 0.008424
0.471960 0.471319 0.468002 128 128 255 0.701270 -0.712657 0.018440
0.471959 0.471317 0.467966 128 128 255 0.997537 -0.067436 -0.019311
0.463736 0.375160 0.378964 128 128 255 0.998157 0.054507 0.026660
0.471535 0.280744 0.281083 128 128 255 0.994444 -0.080531 -0.067797
0.464977 0.196451 0.189290 128 128 255 0.996908 0.054276 0.056812
0.469650 0.096520 0.104029 128 128 255 0.998094 -0.036667 -0.049634
0.467264 0.008425 0.010173 128 128 255 0.999406 -0.014986 0.031026
0.467046 -0.080840 -0.086978 128 128 255 0.998770 0.047393 -0.014549
0.469810 -0.180105 -0.174353 128 128 255 -0.999972 -0.005515 0.005052
0.471971 0.471383 0.469169 128 128 255 0.980179 -0.178030 -0.086920
0.372915 0.464379 0.380473 128 128 255 -0.282667 -0.959211 -0.003706
0.283083 0.471169 0.283753 128 128 255 0.358945 -0.932976 -0.026728
0.195528 0.464588 0.189015 128 128 255 -0.362930 -0.931589 0.020562
0.095869 0.470968 0.102262 128 128 255 0.378372 -0.925401 0.021600
0.009966 0.464857 0.013672 128 128 255 -0.295948 -0.954997 0.019878
-0.082025 0.470733 -0.082994 128 128 255 0.333588 -0.942663 0.010238
-0.179722 0.465119 -0.178077 128 128 255 0.030549 0.998500 -0.045443
0.471975 0.471404 0.469569 128 128 255 0.233489 -0.968870 -0.082298
0.374351 0.371936 0.472707 128 128 255 0.467590 -0.880256 -0.080678
0.280005 0.287234 0.470101 128 128 255 0.876441 -0.282384 0.390013
0.195922 0.188695 0.465461 128 128 255 -0.148406 -0.783541 -0.603357
0.100999 0.102874 0.465099 128 128 255 0.916882 -0.384436 -0.107410
0.003464 0.005838 0.469447 128 128 255 -0.031832 0.340317 0.939772
-0.081633 -0.082797 0.472452 128 128 255 0.613197 -0.745363 -0.261577
-0.172795 -0.175060 0.469783 128 128 255 -0.708337 0.705468 -0.023957
0.471970 0.471377 0.469061 128 128 255 0.708669 -0.704809 0.032122
0.440786 0.437219 0.442824 128 128 255 -0.722554 0.488531 -0.489134
0.404390 0.404261 0.411605 128 128 255 -0.661579 -0.327550 -0.674555
0.368523 0.375437 0.373907 128 128 255 0.755491 -0.600660 0.261613
0.332925 0.330167 0.329891 128 128 255 0.744058 -0.652268 -0.144652
0.287659 0.282391 0.282321 128 128 255 0.548799 -0.833779 -0.060266
0.228212 0.235377 0.233461 128 128 255 0.834122 -0.540972 0.107658
0.173704 0.169253 0.177509 128 128 255 0.786635 0.617231 0.015191
0.464774 -0.264325 -0.261284 128 128 255 -0.829631 -0.552778 -0.078411
0.371944 -0.171921 -0.260894 128 128 255 -0.689530 -0.715211 -0.114109
0.279157 -0.080636 -0.260679 128 128 255 -0.697365 -0.714929 -0.050581
0.189685 0.007156 -0.260630 128 128 255 -0.708844 -0.700088 0.086120
0.099324 0.096825 -0.260746 128 128 255 -0.710318 -0.672890 0.206561
0.009141 0.188219 -0.261215 128 128 255 -0.712607 -0.662562 0.230655
-0.079824 0.280136 -0.261790 128 128 255 -0.719910 -0.683097 0.122919
-0.171888 0.375878 -0.262476 128 128 255 0.710014 0.704117 -0.010037
0.464702 -0.264250 -0.259807 128 128 255 -0.653121 -0.754001 0.070112
0.371962 -0.264377 -0.168235 128 128 255 -0.444853 0.653245 -0.612680
0.281484 -0.268393 -0.077682 128 128 255 0.067180 0.988669 0.134237
0.194608 -0.271822 0.012080 128 128 255 0.432002 0.656614 0.618249
0.104159 -0.270692 0.101596 128 128 255 0.366251 0.785636 0.498635
0.010252 -0.266356 0.191366 128 128 255 -0.249286 0.880773 -0.402611
-0.084222 -0.263684 0.281842 128 128 255 -0.562753 0.097924 -0.820804
-0.179927 -0.265730 0.373337 128 128 255 -0.046072 0.998052 -0.042072
0.464776 -0.264327 -0.261323 128 128 255 -0.123142 -0.988311 -0.089876
0.435155 -0.235361 -0.232959 128 128 255 0.599886 0.700777 -0.386067
0.404236 -0.206508 -0.202027 128 128 255 0.707302 0.686553 0.168431
0.371567 -0.175076 -0.168049 128 128 255 0.702021 0.630855 0.330438
0.333713 -0.134000 -0.130190 128 128 255 0.730240 0.682248 0.035863
0.288587 -0.082891 -0.086973 128 128 255 0.082716 0.260302 -0.961978
0.231936 -0.028554 -0.035843 128 128 255 -0.661671 -0.734966 -0.148379
0.168057 0.024539 0.025989 128 128 255 -0.730711 -0.681435 0.041329
-0.263938 0.470370 -0.265521 128 128 255 0.796431 0.602030 0.057071
-0.264894 0.379615 -0.174905 128 128 255 0.984217 0.111754 0.137217
-0.266314 0.287199 -0.084215 128 128 255 0.987438 0.098171 0.123808
-0.268105 0.196418 0.006565 128 128 255 0.996057 0.052749 0.071328
-0.269763 0.103385 0.097644 128 128 255 0.999975 -0.006980 0.000899
-0.271092 0.009881 0.189042 128 128 255 0.993991 -0.074862 -0.079855
-0.271888 -0.082400 0.280805 128 128 255 0.987004 -0.106313 -0.120502
-0.271945 -0.176837 0.372938 128 128 255 -0.999658 -0.011635 -0.023410
-0.263951 0.470409 -0.265043 128 128 255 0.999253 0.033439 -0.019363
-0.236151 0.443033 -0.237581 128 128 255 0.629569 0.752804 0.192170
-0.205590 0.411685 -0.206965 128 128 255 0.608466 0.753663 0.248517
-0.171635 0.375376 -0.172497 128 128 255 0.626692 0.745064 0.228337
-0.132194 0.332091 -0.133247 128 128 255 0.682285 0.721667 0.116982
-0.088122 0.283413 -0.088007 128 128 255 0.753050 0.646978 -0.119732
-0.036281 0.228354 -0.035189 128 128 255 0.770040 0.532764 -0.350998
0.024731 0.168552 0.027171 128 128 255 0.704350 -0.705525 -0.078261
-0.271315 -0.270089 0.464945 128 128 255 -0.814705 0.579746 0.012313
-0.242608 -0.242207 0.436502 128 128 255 -0.696712 0.717233 0.013041
-0.210595 -0.211002 0.404824 128 128 255 -0.731715 0.679967 -0.047308
-0.174673 -0.175811 0.369328 128 128 255 -0.778068 0.611155 -0.145261
-0.132892 -0.134683 0.329335 128 128 255 -0.098663 -0.709215 -0.698054
-0.086655 -0.088698 0.283803 128 128 255 0.569437 -0.797545 -0.199154
-0.033524 -0.035402 0.231566 128 128 255 0.675172 -0.735412 -0.057541
0.026950 0.025733 0.170954 128 128 255 -0.686489 0.724187 -0.065472
0.471960 0.471319 0.468013 128 128 255 0.704725 -0.709430 0.008426
0.471959 0.471317 0.467963 128 128 255 0.997458 -0.069063 -0.017547
0.463736 0.375163 0.378930 128 128 255 0.999696 0.024517 0.002610
0.471538 0.280739 0.281018 128 128 255 0.999805 -0.019369 0.003832
0.464972 0.196453 0.189201 128 128 255 0.999823 0.016243 -0.009540
0.469658 0.096526 0.103912 128 128 255 0.999687 -0.013668 0.020974
0.467254 0.008411 0.010021 128 128 255 0.999682 0.012021 -0.022146
0.467059 -0.080827 -0.087148 128 128 255 0.999696 -0.008161 0.023275
0.469798 -0.180108 -0.174535 128 128 255 -0.998323 -0.037159 0.044400
0.471969 0.471372 0.468968 128 128 255 -0.970164 -0.241374 0.022809
0.372903 0.464392 0.380243 128 128 255 0.004519 -0.999806 -0.019168
0.283101 0.471155 0.283502 128 128 255 -0.009967 -0.999794 0.017683
0.195515 0.464603 0.188766 128 128 255 0.011503 -0.999753 -0.019030
0.095866 0.470951 0.102015 128 128 255 -0.011640 -0.999639 0.024230
0.009982 0.464875 0.013406 128 128 255 0.013450 -0.999699 -0.020517
-0.082044 0.470715 -0.083270 128 128 255 -0.016874 -0.999589 0.023172
-0.179713 0.465138 -0.178336 128 128 255 -0.023524 0.999519 0.020211
0.471973 0.471391 0.469326 128 128 255 0.261663 0.964630 -0.031977
0.374334 0.371941 0.472461 128 128 255 0.688571 -0.724441 -0.032469
0.280017 0.287236 0.469857 128 128 255 0.721696 -0.691720 0.026029
0.195931 0.188685 0.465235 128 128 255 0.711519 -0.702379 0.020123
0.100984 0.102889 0.464901 128 128 255 0.689576 -0.722646 -0.047619
0.003465 0.005822 0.469272 128 128 255 0.714077 -0.699369 0.031260
-0.081622 -0.082782 0.472290 128 128 255 0.715667 -0.698440 0.001381
-0.172801 -0.175073 0.469636 128 128 255 -0.707214 0.706180 -0.034029
0.471969 0.471371 0.468949 128 128 255 -0.706330 0.707135 -0.032525
0.440779 0.437211 0.442732 128 128 255 0.704005 -0.710185 -0.003902
0.404387 0.404266 0.411532 128 128 255 0.673395 -0.737585 -0.050072
0.368526 0.375440 0.373829 128 128 255 0.722266 -0.691054 0.027867
0.332931 0.330156 0.329773 128 128 255 0.727494 -0.685060 0.038014
0.287651 0.282403 0.282170 128 128 255 0.683099 -0.728962 -0.044620
0.228207 0.235366 0.233279 128 128 255 0.715028 -0.698981 0.012648
0.173720 0.169269 0.177280 128 128 255 0.905360 0.420696 0.057777
0.464788 -0.264339 -0.261561 128 128 255 0.905603 0.422039 0.042040
0.371949 -0.171916 -0.261213 128 128 255 -0.702929 -0.710825 -0.024881
0.279149 -0.080607 -0.261042 128 128 255 -0.700337 -0.712901 -0.036075
0.189661 0.007197 -0.261041 128 128 255 -0.702403 -0.711409 -0.022952
0.099289 0.096856 -0.261210 128 128 255 -0.708445 -0.705640 0.013320
0.009104 0.188217 -0.261743 128 128 255 -0.714543 -0.697418 0.055111
-0.079853 0.280093 -0.262396 128 128 255 -0.717815 -0.691701 0.079316
-0.171895 0.375806 -0.263177 128 128 255 0.706698 0.706069 -0.045222
0.464744 -0.264293 -0.260675 128 128 255 0.768718 0.639219 -0.021718
0.371950 -0.264337 -0.168958 128 128 255 -0.022478 -0.998707 -0.045602
0.281441 -0.268332 -0.078289 128 128 255 -0.037555 -0.996229 -0.078218
0.194574 -0.271806 0.011562 128 128 255 -0.008010 -0.999779 -0.019451
0.104157 -0.270726 0.101145 128 128 255 0.032217 -0.997388 0.064651
0.010275 -0.266394 0.190967 128 128 255 0.036229 -0.996433 0.076211
-0.084196 -0.263687 0.281486 128 128 255 -0.002464 -0.999996 -0.001302
-0.179919 -0.265704 0.373022 128 128 255 0.028809 0.999182 0.028366
0.464789 -0.264341 -0.261593 128 128 255 -0.078419 0.996715 -0.020221
0.435156 -0.235354 -0.233182 128 128 255 -0.702713 -0.711027 -0.025201
0.404228 -0.206490 -0.202205 128 128 255 -0.702364 -0.711307 -0.026963
0.371557 -0.175067 -0.168186 128 128 255 -0.710081 -0.703952 0.015385
0.333708 -0.134006 -0.130289 128 128 255 -0.714844 -0.696653 0.060607
0.288589 -0.082897 -0.087036 128 128 255 -0.711395 -0.702722 0.009936
0.231942 -0.028550 -0.035922 128 128 255 -0.692635 -0.718162 -0.067090
0.168058 0.024545 0.025884 128 128 255 -0.711636 -0.702434 -0.012649
-0.263934 0.470361 -0.265641 128 128 255 -0.589840 -0.806807 0.033930
-0.264886 0.379608 -0.175047 128 128 255 0.997644 0.040981 0.055012
-0.266302 0.287196 -0.084378 128 128 255 0.996127 0.052325 0.070657
-0.268091 0.196422 0.006382 128 128 255 0.995652 0.055412 0.074871
-0.269750 0.103397 0.097440 128 128 255 0.996674 0.048408 0.065558
-0.271081 0.009899 0.188819 128 128 255 0.998505 0.032364 0.044058
-0.271884 -0.082377 0.280565 128 128 255 0.999858 0.009652 0.013816
-0.271948 -0.176813 0.372684 128 128 255 -0.999950 0.008423 -0.005361
-0.263944 0.470389 -0.265289 128 128 255 -0.998272 0.054796 -0.021243
-0.236138 0.443021 -0.237831 128 128 255 0.704933 0.709199 0.010271
-0.205573 0.411686 -0.207217 128 128 255 0.696338 0.715583 0.055262
-0.171616 0.375390 -0.172749 128 128 255 0.687900 0.719745 0.093594
-0.132177 0.332114 -0.133498 128 128 255 0.684705 0.720782 0.107946
-0.088112 0.283437 -0.088254 128 128 255 0.691201 0.717993 0.082024
-0.036282 0.228364 -0.035431 128 128 255 0.705553 0.708546 0.012514
0.024720 0.168541 0.026940 128 128 255 0.872890 -0.486027 -0.042901
-0.271324 -0.270072 0.464734 128 128 255 0.810109 -0.583102 -0.060951
-0.242616 -0.242194 0.436311 128 128 255 -0.654338 0.752126 0.078411
-0.210603 -0.210993 0.404656 128 128 255 -0.661633 0.746649 0.068970
-0.174680 -0.175807 0.369185 128 128 255 -0.671431 0.738946 0.056033
-0.132899 -0.134682 0.329219 128 128 255 -0.683184 0.729159 0.039831
-0.086660 -0.088700 0.283716 128 128 255 -0.695309 0.718348 0.022832
-0.033528 -0.035406 0.231509 128 128 255 -0.706153 0.708025 0.006996
0.026949 0.025731 0.170928 128 128 255 -0.703882 0.710192 -0.013309
0.471960 0.471319 0.468001 128 128 255 -0.699215 0.714499 -0.024282
0.471959 0.471316 0.467952 128 128 255 0.997290 -0.072194 -0.014157
0.463734 0.375172 0.378841 128 128 255 0.999886 0.014422 -0.004459
0.471543 0.280726 0.280850 128 128 255 0.999828 -0.009092 0.016148
0.464959 0.196457 0.188974 128 128 255 0.999706 0.009164 -0.022432
0.469678 0.096543 0.103614 128 128 255 0.999548 -0.011605 0.027722
0.467227 0.008375 0.009633 128 128 255 0.999468 0.015360 -0.028781
0.467090 -0.080791 -0.087585 128 128 255 0.999526 -0.014060 0.027371
0.469766 -0.180117 -0.175002 128 128 255 -0.996036 -0.056651 0.068572
0.471964 0.471344 0.468454 128 128 255 -0.987689 -0.151812 0.037731
0.372875 0.464424 0.379654 128 128 255 0.030292 -0.999328 -0.020645
0.283147 0.471118 0.282857 128 128 255 -0.032887 -0.999249 0.020481
0.195484 0.464643 0.188129 128 128 255 0.033411 -0.999213 -0.021395
0.095860 0.470907 0.101383 128 128 255 -0.033839 -0.999133 0.024239
0.010023 0.464922 0.012727 128 128 255 0.034680 -0.999127 -0.023285
-0.082093 0.470667 -0.083976 128 128 255 -0.034979 -0.999106 0.023730
-0.179690 0.465189 -0.178997 128 128 255 -0.052302 0.997115 0.055005
0.471967 0.471358 0.468702 128 128 255 0.111320 0.993778 0.003701
0.374292 0.371954 0.471833 128 128 255 0.695084 -0.718269 -0.030774
0.280047 0.287242 0.469230 128 128 255 0.709749 -0.704382 0.010121
0.195952 0.188660 0.464655 128 128 255 0.723118 -0.689809 0.035567
0.100947 0.102925 0.464395 128 128 255 0.684704 -0.727375 -0.045891
0.003467 0.005780 0.468824 128 128 255 0.712090 -0.701902 0.016201
-0.081593 -0.082741 0.471875 128 128 255 0.716975 -0.697065 0.006862
-0.172818 -0.175107 0.469261 128 128 255 -0.706816 0.706414 -0.037294
0.471967 0.471355 0.468662 128 128 255 -0.706827 0.706641 -0.032476
0.440763 0.437190 0.442499 128 128 255 0.706344 -0.707862 0.002950
0.404378 0.404277 0.411353 128 128 255 0.675133 -0.736209 -0.046824
0.368534 0.375450 0.373638 128 128 255 0.718346 -0.695614 0.010020
0.332948 0.330130 0.329488 128 128 255 0.723637 -0.687933 0.055647
0.287632 0.282433 0.281805 128 128 255 0.692674 -0.719859 -0.044789
0.228195 0.235337 0.232842 128 128 255 0.702218 -0.711948 0.004410
0.173758 0.169307 0.176737 128 128 255 0.928295 0.365475 0.068533
0.464820 -0.264374 -0.262206 128 128 255 0.883872 0.464612 0.053913
0.371960 -0.171904 -0.261939 128 128 255 -0.703525 -0.710389 -0.019997
0.279130 -0.080544 -0.261843 128 128 255 -0.700487 -0.712795 -0.035232
0.189612 0.007283 -0.261910 128 128 255 -0.701790 -0.711814 -0.028490
0.099220 0.096918 -0.262141 128 128 255 -0.707523 -0.706682 0.003391
0.009034 0.188215 -0.262724 128 128 255 -0.713964 -0.698661 0.046131
-0.079902 0.280021 -0.263417 128 128 255 -0.717663 -0.692186 0.076410
-0.171907 0.375700 -0.264222 128 128 255 0.705323 0.706727 -0.055283
0.464799 -0.264351 -0.261789 128 128 255 0.751263 0.659255 -0.031414
0.371933 -0.264281 -0.170033 128 128 255 -0.014421 -0.999333 -0.033545
0.281370 -0.268229 -0.079311 128 128 255 -0.038961 -0.996031 -0.080033
0.194510 -0.271775 0.010600 128 128 255 -0.019422 -0.999162 -0.036036
0.104152 -0.270792 0.100243 128 128 255 0.022711 -0.998451 0.050796
0.010324 -0.266474 0.190124 128 128 255 0.040424 -0.995763 0.082599
-0.084140 -0.263693 0.280704 128 128 255 0.011244 -0.999755 0.019079
-0.179900 -0.265645 0.372306 128 128 255 0.052325 0.997352 0.050506
0.464821 -0.264374 -0.262221 128 128 255 -0.035492 0.999365 0.003019
0.435160 -0.235338 -0.233708 128 128 255 -0.702355 -0.711520 -0.020893
0.404208 -0.206449 -0.202632 128 128 255 -0.702438 -0.711147 -0.029164
0.371532 -0.175045 -0.168517 128 128 255 -0.710786 -0.703376 0.006755
0.333696 -0.134019 -0.130529 128 128 255 -0.716103 -0.695755 0.055864
0.288594 -0.082911 -0.087191 128 128 255 -0.709098 -0.704586 0.027188
0.231956 -0.028539 -0.036120 128 128 255 -0.695675 -0.715561 -0.063318
0.168060 0.024561 0.025616 128 128 255 -0.706203 -0.707505 -0.026716
-0.263926 0.470336 -0.265947 128 128 255 -0.642974 -0.765756 0.014225
-0.264866 0.379589 -0.175409 128 128 255 0.998116 0.036272 0.049490
-0.266272 0.287189 -0.084795 128 128 255 0.996491 0.049573 0.067437
-0.268055 0.196434 0.005911 128 128 255 0.995634 0.055521 0.075032
-0.269714 0.103427 0.096918 128 128 255 0.996230 0.051817 0.069569
-0.271055 0.009946 0.188248 128 128 255 0.997913 0.038824 0.051590
-0.271873 -0.082318 0.279951 128 128 255 0.999574 0.017679 0.023201
-0.271956 -0.176751 0.372032 128 128 255 -0.999785 0.020087 0.005125
-0.263927 0.470338 -0.265918 128 128 255 -0.999296 0.035380 -0.012486
-0.236106 0.442991 -0.238472 128 128 255 0.709043 0.705160 -0.002763
-0.205529 0.411687 -0.207864 128 128 255 0.701114 0.711833 0.041621
-0.171566 0.375425 -0.173397 128 128 255 0.691676 0.717348 0.083639
-0.132132 0.332174 -0.134141 128 128 255 0.684926 0.720684 0.107200
-0.088084 0.283496 -0.088889 128 128 255 0.686010 0.721334 0.095224
-0.036282 0.228391 -0.036049 128 128 255 0.696876 0.716201 0.037679
0.024692 0.168515 0.026348 128 128 255 0.916448 -0.399069 -0.029457
-0.271345 -0.270029 0.464191 128 128 255 0.811574 -0.582346 -0.047130
-0.242637 -0.242160 0.435821 128 128 255 -0.652695 0.753305 0.080753
-0.210624 -0.210970 0.404224 128 128 255 -0.659402 0.748312 0.072233
-0.174699 -0.175795 0.368818 128 128 255 -0.668549 0.741211 0.060404
-0.132916 -0.134681 0.328922 128 128 255 -0.679976 0.731859 0.044891
-0.086674 -0.088706 0.283492 128 128 255 -0.692292 0.721084 0.027748
-0.033537 -0.035414 0.231362 128 128 255 -0.703775 0.710337 0.011046
0.026944 0.025725 0.170860 128 128 255 -0.704854 0.709282 -0.010000
0.471959 0.471317 0.467969 128 128 255 -0.700785 0.713097 -0.019826
0.471959 0.471315 0.467937 128 128 255 -0.997871 0.058350 0.029148
0.463734 0.375175 0.378799 128 128 255 -0.998446 -0.052079 -0.019845
0.471545 0.280721 0.280781 128 128 255 -0.998979 0.040396 0.020226
0.464954 0.196459 0.188887 128 128 255 -0.999557 -0.027750 -0.010749
0.469686 0.096549 0.103503 128 128 255 -0.999805 0.017759 -0.008663
0.467217 0.008362 0.009490 128 128 255 -0.999918 -0.006464 0.011083
0.467101 -0.080778 -0.087744 128 128 255 -0.999864 -0.001721 -0.016405
0.469754 -0.180120 -0.175171 128 128 255 0.999374 0.023103 -0.026796
0.471963 0.471334 0.468267 128 128 255 0.711869 0.699565 0.062052
0.372865 0.464436 0.379440 128 128 255 0.039839 0.999061 0.017018
0.283163 0.471104 0.282621 128 128 255 -0.032791 0.999380 -0.012851
0.195472 0.464658 0.187895 128 128 255 0.030291 0.999427 0.015089
0.095858 0.470891 0.101149 128 128 255 -0.031803 0.999188 -0.024726
0.010038 0.464939 0.012472 128 128 255 0.027605 0.999496 0.015677
-0.082111 0.470648 -0.084244 128 128 255 -0.021023 0.999520 -0.022758
-0.179681 0.465208 -0.179253 128 128 255 -0.002519 -0.999933 0.011324
0.471964 0.471344 0.468456 128 128 255 -0.884574 0.411212 0.220076
0.374275 0.371959 0.471578 128 128 255 -0.670511 0.740944 0.037636
0.280059 0.287244 0.468968 128 128 255 -0.755486 0.650898 -0.074652
0.195962 0.188649 0.464403 128 128 255 -0.661204 0.749058 0.041494
0.100930 0.102942 0.464163 128 128 255 -0.714000 0.697639 0.059191
0.003469 0.005760 0.468606 128 128 255 -0.724332 0.659859 -0.199824
-0.081578 -0.082720 0.471658 128 128 255 -0.445634 0.686858 0.574140
-0.172828 -0.175127 0.469044 128 128 255 0.710229 -0.703949 0.005458
0.471965 0.471345 0.468474 128 128 255 -0.707278 0.706193 -0.032406
0.440750 0.437175 0.442318 128 128 255 0.707869 -0.706341 0.001825
0.404369 0.404287 0.411175 128 128 255 0.676183 -0.735157 -0.048165
0.368543 0.375459 0.373443 128 128 255 0.714805 -0.699278 -0.007975
0.332961 0.330108 0.329253 128 128 255 0.718449 -0.690442 0.084382
0.287618 0.282455 0.281542 128 128 255 0.714555 -0.698215 -0.043664
0.228188 0.235318 0.232553 128 128 255 0.652208 -0.757545 -0.027389
0.173781 0.169331 0.176399 128 128 255 0.761244 -0.621297 0.185737
0.464839 -0.264394 -0.262589 128 128 255 0.854055 0.515645 0.068559
0.371967 -0.171898 -0.262354 128 128 255 -0.707066 -0.706990 0.014930
0.279120 -0.080509 -0.262287 128 128 255 -0.701803 -0.711866 -0.026813
0.189586 0.007330 -0.262380 128 128 255 -0.695121 -0.714193 -0.082063
0.099183 0.096951 -0.262632 128 128 255 -0.693616 -0.712588 -0.105428
0.008997 0.188215 -0.263232 128 128 255 -0.703470 -0.708097 -0.061059
-0.079928 0.279986 -0.263937 128 128 255 -0.715204 -0.698001 0.035744
-0.171914 0.375646 -0.264749 128 128 255 -0.711613 -0.702571 -0.000643
0.464827 -0.264381 -0.262349 128 128 255 0.685062 0.726045 -0.059572
0.371925 -0.264253 -0.170576 128 128 255 0.127556 -0.977548 0.167721
0.281334 -0.268176 -0.079833 128 128 255 -0.048254 -0.994463 -0.093349
0.194477 -0.271758 0.010101 128 128 255 -0.129130 -0.973026 -0.191168
0.104149 -0.270826 0.099765 128 128 255 -0.056211 -0.996560 -0.060893
0.010351 -0.266518 0.189667 128 128 255 0.065774 -0.990454 0.121138
-0.084108 -0.263698 0.280266 128 128 255 0.091155 -0.986543 0.135732
-0.179889 -0.265611 0.371893 128 128 255 0.244280 -0.942035 0.229994
0.464840 -0.264395 -0.262598 128 128 255 0.033500 0.998603 0.040854
0.435162 -0.235328 -0.234041 128 128 255 -0.701264 -0.712824 -0.010557
0.404195 -0.206421 -0.202921 128 128 255 -0.702326 -0.711145 -0.031796
0.371513 -0.175029 -0.168764 128 128 255 -0.711083 -0.703108 0.000866
0.333686 -0.134031 -0.130738 128 128 255 -0.717236 -0.694768 0.053576
0.288598 -0.082927 -0.087365 128 128 255 -0.705834 -0.707288 0.039270
0.231970 -0.028530 -0.036302 128 128 255 -0.700246 -0.711699 -0.056036
0.168061 0.024573 0.025417 128 128 255 -0.668295 -0.735034 -0.114487
-0.263921 0.470320 -0.266142 128 128 255 -0.728126 -0.685108 -0.021421
-0.264855 0.379578 -0.175613 128 128 255 0.481076 -0.573162 -0.663364
-0.266257 0.287185 -0.085010 128 128 255 -0.991309 -0.080864 -0.103771
-0.268038 0.196439 0.005685 128 128 255 -0.995735 -0.054922 -0.074133
-0.269698 0.103440 0.096681 128 128 255 -0.998082 -0.035608 -0.050643
-0.271043 0.009967 0.188001 128 128 255 -0.999704 -0.012328 -0.020977
-0.271868 -0.082293 0.279695 128 128 255 -0.999881 0.011362 0.010419
-0.271959 -0.176727 0.371769 128 128 255 0.999887 0.002157 0.014877
-0.263920 0.470318 -0.266166 128 128 255 0.906802 -0.387460 0.166085
-0.236094 0.442979 -0.238719 128 128 255 -0.695636 -0.717471 -0.036408
-0.205512 0.411687 -0.208109 128 128 255 -0.686065 -0.722942 -0.081667
-0.171548 0.375438 -0.173639 128 128 255 -0.680213 -0.724372 -0.112232
-0.132115 0.332195 -0.134380 128 128 255 -0.684111 -0.721102 -0.109562
-0.088074 0.283518 -0.089122 128 128 255 -0.700550 -0.711248 -0.057931
-0.036282 0.228400 -0.036275 128 128 255 -0.720476 -0.692676 0.033377
0.024682 0.168506 0.026132 128 128 255 -0.817433 0.573228 0.056681
-0.271352 -0.270013 0.463994 128 128 255 -0.712306 0.562673 0.419546
-0.242645 -0.242148 0.435642 128 128 255 0.657307 -0.749978 -0.074033
-0.210631 -0.210962 0.404066 128 128 255 0.665879 -0.743433 -0.062559
-0.174706 -0.175791 0.368682 128 128 255 0.677267 -0.734240 -0.046915
-0.132923 -0.134681 0.328810 128 128 255 0.690690 -0.722623 -0.027625
-0.086680 -0.088709 0.283405 128 128 255 0.704017 -0.710136 -0.008225
-0.033541 -0.035418 0.231300 128 128 255 0.719794 -0.693978 0.017092
0.026941 0.025723 0.170825 128 128 255 0.632964 -0.742165 0.220333
0.471959 0.471316 0.467947 128 128 255 -0.702003 0.711986 -0.016332
0.471959 0.471314 0.467919 128 128 255 0.993874 -0.107760 0.024560
0.463735 0.375169 0.378863 128 128 255 -0.999634 -0.026984 0.001871
0.471541 0.280732 0.280929 128 128 255 -0.999818 0.012432 -0.014467
0.464966 0.196455 0.189099 128 128 255 -0.999730 -0.010553 0.020699
0.469667 0.096533 0.103789 128 128 255 -0.999567 0.011841 -0.026920
0.467243 0.008397 0.009869 128 128 255 -0.999502 -0.014681 0.027928
0.467070 -0.080813 -0.087315 128 128 255 -0.999552 0.013066 -0.026940
0.469786 -0.180112 -0.174711 128 128 255 0.996556 0.052902 -0.063861
0.471968 0.471362 0.468776 128 128 255 0.986335 0.160695 -0.036323
0.372893 0.464404 0.380021 128 128 255 -0.026773 0.999431 0.020525
0.283118 0.471141 0.283255 128 128 255 0.029878 0.999349 -0.020214
0.195503 0.464619 0.188517 128 128 255 -0.030643 0.999305 0.021202
0.095864 0.470934 0.101762 128 128 255 0.031227 0.999217 -0.024299
0.009999 0.464894 0.013124 128 128 255 -0.032422 0.999206 0.023149
-0.082065 0.470694 -0.083576 128 128 255 0.033260 0.999164 -0.023787
-0.179703 0.465161 -0.178638 128 128 255 0.050710 -0.997318 -0.052769
0.471970 0.471375 0.469023 128 128 255 -0.114620 -0.993405 -0.003009
0.374312 0.371947 0.472133 128 128 255 -0.694958 0.718381 0.031015
0.280034 0.287239 0.469501 128 128 255 -0.709226 0.704917 -0.009538
0.195944 0.188669 0.464872 128 128 255 -0.724413 0.688347 -0.037481
0.100958 0.102914 0.464546 128 128 255 -0.683523 0.728455 0.046373
0.003467 0.005789 0.468913 128 128 255 -0.711512 0.702571 -0.012029
-0.081595 -0.082743 0.471901 128 128 255 -0.717733 0.696253 -0.009580
-0.172821 -0.175112 0.469213 128 128 255 0.705658 -0.707056 0.046034
0.471965 0.471349 0.468546 128 128 255 0.707752 -0.705733 0.032057
0.440749 0.437173 0.442303 128 128 255 0.691763 -0.720257 -0.051906
0.404364 0.404294 0.411066 128 128 255 0.677064 -0.733461 -0.060157
0.368548 0.375465 0.373309 128 128 255 0.717531 -0.696525 0.001781
0.332965 0.330102 0.329194 128 128 255 0.731561 -0.679519 0.055429
0.287618 0.282454 0.281555 128 128 255 0.687248 -0.726411 -0.004075
0.228190 0.235323 0.232630 128 128 255 -0.698655 0.715272 -0.016366
0.173771 0.169321 0.176541 128 128 255 -0.934727 -0.347584 -0.073971
0.464829 -0.264383 -0.262384 128 128 255 -0.880084 -0.471656 -0.054713
0.371963 -0.171902 -0.262096 128 128 255 0.703699 0.710255 0.018604
0.279127 -0.080533 -0.261984 128 128 255 0.700555 0.712744 0.034902
0.189605 0.007296 -0.262040 128 128 255 0.701654 0.711894 0.029806
0.099211 0.096926 -0.262262 128 128 255 0.707284 0.706929 -0.000878
0.009025 0.188215 -0.262840 128 128 255 0.713792 0.698995 -0.043674
-0.079908 0.280014 -0.263530 128 128 255 0.717597 0.692369 -0.075368
-0.171909 0.375688 -0.264333 128 128 255 -0.704884 -0.706884 0.058774
0.464805 -0.264358 -0.261907 128 128 255 -0.747668 -0.663230 0.033451
0.371931 -0.264275 -0.170150 128 128 255 0.011343 0.999516 0.028978
0.281362 -0.268217 -0.079429 128 128 255 0.039167 0.996016 0.080110
0.194502 -0.271771 0.010480 128 128 255 0.023300 0.998864 0.041570
0.104151 -0.270801 0.100116 128 128 255 -0.019011 0.998793 -0.045284
0.010332 -0.266487 0.189987 128 128 255 -0.042201 0.995479 -0.085097
-0.084129 -0.263695 0.280551 128 128 255 -0.018943 0.999357 -0.030455
-0.179896 -0.265630 0.372134 128 128 255 -0.083498 -0.993274 -0.080219
0.464830 -0.264385 -0.262412 128 128 255 0.006546 -0.999818 -0.017907
0.435161 -0.235332 -0.233919 128 128 255 0.701585 0.712480 0.012265
0.404197 -0.206426 -0.202865 128 128 255 0.704658 0.707855 0.048980
0.371512 -0.175028 -0.168774 128 128 255 -0.705019 -0.707118 0.054143
0.333682 -0.134035 -0.130815 128 128 255 -0.714768 -0.696413 0.064154
0.288602 -0.082940 -0.087512 128 128 255 -0.705519 -0.708051 0.030109
0.231976 -0.028526 -0.036384 128 128 255 -0.695219 -0.717106 -0.049295
0.168061 0.024573 0.025426 128 128 255 -0.692673 -0.718618 -0.061582
-0.263923 0.470327 -0.266048 128 128 255 0.608142 0.792683 -0.042635
-0.264865 0.379588 -0.175437 128 128 255 -0.998036 -0.037134 -0.050457
-0.266275 0.287190 -0.084755 128 128 255 -0.996461 -0.049815 -0.067703
-0.268063 0.196431 0.006014 128 128 255 -0.995639 -0.055495 -0.074985
-0.269725 0.103418 0.097081 128 128 255 -0.996265 -0.051568 -0.069255
-0.271065 0.009928 0.188467 128 128 255 -0.997969 -0.038268 -0.050918
-0.271878 -0.082344 0.280220 128 128 255 -0.999607 -0.016956 -0.022327
-0.271952 -0.176781 0.372347 128 128 255 0.999832 -0.018044 -0.003304
-0.263936 0.470365 -0.265593 128 128 255 0.999228 -0.036945 0.013382
-0.236124 0.443007 -0.238123 128 128 255 -0.708646 -0.705563 0.001229
-0.205554 0.411687 -0.207497 128 128 255 -0.700613 -0.712229 -0.043253
-0.171595 0.375405 -0.173019 128 128 255 -0.691261 -0.717612 -0.084798
-0.132159 0.332138 -0.133757 128 128 255 -0.684924 -0.720695 -0.107136
-0.088101 0.283460 -0.088503 128 128 255 -0.686660 -0.720959 -0.093361
-0.036282 0.228374 -0.035669 128 128 255 -0.697958 -0.715314 -0.034359
0.024710 0.168531 0.026715 128 128 255 -0.910161 0.413051 0.031548
-0.271332 -0.270056 0.464528 128 128 255 -0.811403 0.582478 0.048425
-0.242624 -0.242181 0.436124 128 128 255 0.652910 -0.753149 -0.080463
-0.210611 -0.210984 0.404488 128 128 255 0.659658 -0.748121 -0.071875
-0.174688 -0.175802 0.369038 128 128 255 0.668806 -0.741009 -0.060031
-0.132906 -0.134682 0.329092 128 128 255 0.680126 -0.731733 -0.044663
-0.086667 -0.088703 0.283610 128 128 255 0.692183 -0.721181 -0.027931
-0.033533 -0.035411 0.231424 128 128 255 0.703103 -0.710984 -0.012177
0.026944 0.025726 0.170865 128 128 255 0.707185 -0.707024 0.002635
0.471959 0.471316 0.467953 128 128 255 0.704499 -0.709647 0.009085
0.471959 0.471313 0.467901 128 128 255 0.997218 -0.073438 -0.012808
0.463735 0.375167 0.378886 128 128 255 0.999853 0.013468 0.010566
0.471538 0.280737 0.280993 128 128 255 -0.691425 -0.353562 -0.630020
0.464971 0.196453 0.189196 128 128 255 -0.990679 0.039246 0.130439
0.469657 0.096526 0.103924 128 128 255 -0.998600 0.005498 -0.052601
0.467256 0.008413 0.010049 128 128 255 -0.998182 -0.028072 0.053331
0.467056 -0.080830 -0.087110 128 128 255 -0.998657 0.032449 -0.040383
0.469801 -0.180107 -0.174490 128 128 255 -0.970131 0.151045 -0.189817
0.471970 0.471375 0.469020 128 128 255 0.997448 0.046927 -0.053817
0.372906 0.464389 0.380300 128 128 255 -0.101227 0.994572 0.024079
0.283097 0.471158 0.283559 128 128 255 0.091580 0.995424 -0.027276
0.195518 0.464600 0.188815 128 128 255 -0.090519 0.995533 0.026838
0.095867 0.470954 0.102053 128 128 255 0.094334 0.995253 -0.023932
0.009981 0.464873 0.013432 128 128 255 -0.098879 0.994612 0.031141
-0.082044 0.470715 -0.083262 128 128 255 0.090561 0.995582 -0.024817
-0.179713 0.465140 -0.178351 128 128 255 0.190150 0.952449 -0.238085
0.471972 0.471389 0.469284 128 128 255 0.063857 -0.996964 -0.044548
0.374329 0.371942 0.472385 128 128 255 -0.722876 0.690600 0.022844
0.280022 0.287237 0.469738 128 128 255 -0.632556 0.770085 0.082716
0.195937 0.188678 0.465074 128 128 255 -0.794564 0.589551 -0.145253
0.100970 0.102903 0.464704 128 128 255 -0.602581 0.797850 0.018199
0.003466 0.005799 0.469031 128 128 255 0.264694 0.030805 0.963840
-0.081601 -0.082751 0.471983 128 128 255 0.705464 -0.707696 -0.038543
-0.172819 -0.175108 0.469252 128 128 255 -0.707743 0.705862 -0.029300
0.471965 0.471348 0.468537 128 128 255 -0.704115 0.709309 -0.033213
0.440745 0.437169 0.442247 128 128 255 0.701247 -0.712836 -0.010833
0.404359 0.404301 0.410958 128 128 255 0.676691 -0.734166 -0.055587
0.368554 0.375471 0.373184 128 128 255 0.718527 -0.695435 0.009506
0.332970 0.330094 0.329106 128 128 255 0.729994 -0.681967 0.045059
0.287616 0.282458 0.281505 128 128 255 0.683721 -0.728813 -0.036845
0.228189 0.235322 0.232614 128 128 255 0.717265 -0.696706 0.011518
0.173770 0.169320 0.176557 128 128 255 0.891924 0.449316 0.050857
0.464827 -0.264381 -0.262338 128 128 255 0.989206 0.145299 -0.018987
0.371962 -0.171903 -0.262024 128 128 255 -0.701938 -0.711455 -0.033389
0.279129 -0.080540 -0.261889 128 128 255 -0.699944 -0.713168 -0.038336
0.189611 0.007285 -0.261926 128 128 255 -0.703942 -0.710234 -0.005880
0.099220 0.096917 -0.262132 128 128 255 -0.710943 -0.701310 0.052199
0.009036 0.188215 -0.262698 128 128 255 -0.716044 -0.691080 0.098440
-0.079901 0.280024 -0.263379 128 128 255 -0.718434 -0.688980 0.095698
-0.171907 0.375704 -0.264178 128 128 255 0.709149 0.704664 -0.023596
0.464797 -0.264349 -0.261742 128 128 255 -0.510937 -0.851361 0.118859
0.371934 -0.264283 -0.169992 128 128 255 -0.100661 -0.982699 -0.155468
0.281372 -0.268232 -0.079280 128 128 255 -0.030570 -0.997185 -0.068461
0.194511 -0.271775 0.010616 128 128 255 0.071253 -0.993201 0.092055
0.104152 -0.270792 0.100238 128 128 255 0.090033 -0.985215 0.145757
0.010326 -0.266477 0.190093 128 128 255 0.017387 -0.998702 0.047878
-0.084135 -0.263694 0.280638 128 128 255 -0.051579 -0.996037 -0.072455
-0.179897 -0.265636 0.372197 128 128 255 -0.003510 0.999991 -0.002296
0.464829 -0.264383 -0.262377 128 128 255 -0.361610 0.915166 -0.178069
0.435161 -0.235332 -0.233915 128 128 255 -0.703459 -0.710023 -0.031825
0.404196 -0.206423 -0.202892 128 128 255 -0.702196 -0.711551 -0.024803
0.371507 -0.175024 -0.168834 128 128 255 -0.709290 -0.704602 0.021043
0.333677 -0.134040 -0.130908 128 128 255 -0.714356 -0.697002 0.062315
0.288606 -0.082952 -0.087640 128 128 255 -0.707663 -0.706098 0.025255
0.231983 -0.028521 -0.036478 128 128 255 -0.693574 -0.718215 -0.055877
0.168061 0.024575 0.025380 128 128 255 -0.709935 -0.704054 -0.017332
-0.263923 0.470328 -0.266045 128 128 255 -0.585082 -0.810520 0.027132
-0.264867 0.379590 -0.175391 128 128 255 0.997125 0.045673 0.060455
-0.266281 0.287191 -0.084667 128 128 255 0.994940 0.060507 0.080202
-0.268073 0.196428 0.006143 128 128 255 0.995999 0.052989 0.071958
-0.269737 0.103408 0.097248 128 128 255 -0.944347 -0.209921 -0.253262
-0.271074 0.009912 0.188669 128 128 255 -0.987540 -0.099732 -0.121728
-0.271882 -0.082366 0.280455 128 128 255 -0.994599 -0.066509 -0.079678
-0.271949 -0.176806 0.372609 128 128 255 -0.997738 -0.042963 -0.051697
-0.263943 0.470386 -0.265328 128 128 255 0.999970 -0.007698 0.000408
-0.236137 0.443021 -0.237845 128 128 255 -0.722470 -0.689871 0.045993
-0.205573 0.411686 -0.207210 128 128 255 -0.715151 -0.698969 -0.000717
-0.171618 0.375389 -0.172725 128 128 255 -0.702299 -0.709722 -0.055412
-0.132179 0.332111 -0.133460 128 128 255 -0.685350 -0.720523 -0.105556
-0.088114 0.283432 -0.088208 128 128 255 -0.671099 -0.729876 -0.130029
-0.036282 0.228362 -0.035378 128 128 255 -0.671577 -0.733897 -0.101880
0.024723 0.168544 0.026994 128 128 255 -0.940785 -0.330946 -0.073481
-0.271322 -0.270076 0.464784 128 128 255 -0.812886 0.581434 0.033917
-0.242614 -0.242197 0.436354 128 128 255 0.648974 -0.755917 -0.086156
-0.210602 -0.210995 0.404689 128 128 255 0.654136 -0.752132 -0.080019
-0.174679 -0.175807 0.369205 128 128 255 0.661210 -0.746782 -0.071534
-0.132899 -0.134682 0.329224 128 128 255 0.671133 -0.739007 -0.058731
-0.086661 -0.088701 0.283703 128 128 255 0.681930 -0.730068 -0.044404
-0.033530 -0.035408 0.231476 128 128 255 0.690380 -0.722680 -0.033311
0.026945 0.025727 0.170875 128 128 255 -0.699756 0.713895 -0.026359
0.471959 0.471316 0.467947 128 128 255 -0.691316 0.721088 -0.045993
0.471958 0.471312 0.467885 128 128 255 0.997376 -0.070645 -0.015843
0.463735 0.375170 0.378854 128 128 255 0.999785 0.020633 0.002196
0.471540 0.280733 0.280947 128 128 255 0.999822 -0.018647 0.002953
0.464968 0.196454 0.189140 128 128 255 0.999834 0.016409 -0.007982
0.469662 0.096530 0.103854 128 128 255 0.999707 -0.013734 0.019924
0.467250 0.008405 0.009961 128 128 255 0.999715 0.011321 -0.021008
0.467063 -0.080822 -0.087206 128 128 255 0.999718 -0.007207 0.022604
0.469794 -0.180109 -0.174592 128 128 255 -0.998499 -0.035201 0.041950
0.471969 0.471369 0.468907 128 128 255 -0.964755 -0.262428 0.019456
0.372900 0.464396 0.380171 128 128 255 0.000407 -0.999819 -0.019043
0.283107 0.471150 0.283418 128 128 255 -0.006187 -0.999831 0.017299
0.195511 0.464609 0.188674 128 128 255 0.007950 -0.999792 -0.018791
0.095865 0.470944 0.101912 128 128 255 -0.008089 -0.999671 0.024361
0.009990 0.464884 0.013279 128 128 255 0.010253 -0.999742 -0.020255
-0.082055 0.470704 -0.083425 128 128 255 -0.014245 -0.999627 0.023306
-0.179707 0.465151 -0.178507 128 128 255 -0.020803 0.999641 0.016889
0.471971 0.471381 0.469133 128 128 255 0.295384 0.954519 -0.040510
0.374318 0.371945 0.472228 128 128 255 0.687699 -0.725249 -0.032929
0.280030 0.287239 0.469575 128 128 255 0.723183 -0.690078 0.028248
0.195943 0.188671 0.464917 128 128 255 0.710142 -0.703817 0.018451
0.100959 0.102913 0.464558 128 128 255 0.689991 -0.722204 -0.048313
0.003467 0.005787 0.468893 128 128 255 0.714214 -0.699158 0.032827
-0.081591 -0.082738 0.471845 128 128 255 0.715654 -0.698455 0.000726
-0.172825 -0.175121 0.469114 128 128 255 -0.707177 0.706213 -0.034104
0.471964 0.471342 0.468417 128 128 255 -0.706466 0.706998 -0.032547
0.440736 0.437159 0.442131 128 128 255 0.704197 -0.710005 0.000611
0.404354 0.404308 0.410845 128 128 255 0.676289 -0.734903 -0.050495
0.368559 0.375477 0.373064 128 128 255 0.719280 -0.694544 0.015625
0.332978 0.330081 0.328969 128 128 255 0.727983 -0.684255 0.042855
0.287608 0.282470 0.281359 128 128 255 0.685269 -0.727077 -0.042004
0.228185 0.235312 0.232459 128 128 255 0.712305 -0.701791 0.010556
0.173782 0.169333 0.176381 128 128 255 0.908571 0.413564 0.058853
0.464836 -0.264391 -0.262532 128 128 255 0.902837 0.427652 0.044712
0.371965 -0.171900 -0.262229 128 128 255 -0.703076 -0.710708 -0.024061
0.279124 -0.080523 -0.262104 128 128 255 -0.700357 -0.712883 -0.036022
0.189599 0.007307 -0.262148 128 128 255 -0.702265 -0.711523 -0.023648
0.099203 0.096933 -0.262360 128 128 255 -0.708257 -0.705844 0.012483
0.009019 0.188215 -0.262931 128 128 255 -0.714412 -0.697580 0.054746
-0.079912 0.280008 -0.263615 128 128 255 -0.717787 -0.691727 0.079342
-0.171910 0.375680 -0.264416 128 128 255 0.706903 0.706006 -0.042939
0.464809 -0.264362 -0.261994 128 128 255 0.779560 0.626042 -0.018933
0.371930 -0.264270 -0.170236 128 128 255 -0.027454 -0.998280 -0.051794
0.281356 -0.268208 -0.079517 128 128 255 -0.037784 -0.996209 -0.078358
0.194496 -0.271768 0.010387 128 128 255 -0.005436 -0.999850 -0.016448
0.104151 -0.270808 0.100016 128 128 255 0.034025 -0.997202 0.066564
0.010339 -0.266498 0.189877 128 128 255 0.036229 -0.996430 0.076252
-0.084120 -0.263696 0.280427 128 128 255 -0.002940 -0.999995 -0.001380
-0.179892 -0.265619 0.371993 128 128 255 0.027229 0.999271 0.026755
0.464838 -0.264393 -0.262568 128 128 255 -0.080544 0.996495 -0.022580
0.435163 -0.235327 -0.234088 128 128 255 -0.702800 -0.710964 -0.024533
0.404189 -0.206408 -0.203048 128 128 255 -0.702463 -0.711175 -0.027858
0.371497 -0.175015 -0.168972 128 128 255 -0.710312 -0.703790 0.011675
0.333671 -0.134047 -0.131029 128 128 255 -0.714591 -0.697016 0.059408
0.288609 -0.082962 -0.087747 128 128 255 -0.710070 -0.703806 0.021389
0.231991 -0.028516 -0.036591 128 128 255 -0.692940 -0.718415 -0.060937
0.168062 0.024583 0.025254 128 128 255 -0.710447 -0.703572 -0.015860
-0.263920 0.470317 -0.266169 128 128 255 -0.603299 -0.797051 0.027209
-0.264860 0.379583 -0.175520 128 128 255 0.997736 0.040131 0.053966
-0.266272 0.287189 -0.084803 128 128 255 0.996167 0.052042 0.070300
-0.268062 0.196432 0.006001 128 128 255 0.995662 0.055338 0.074797
-0.269727 0.103416 0.097100 128 128 255 0.996676 0.048379 0.065552
-0.271067 0.009924 0.188516 128 128 255 0.998525 0.032092 0.043794
-0.271879 -0.082351 0.280297 128 128 255 0.999870 0.009158 0.013291
-0.271951 -0.176791 0.372447 128 128 255 -0.999953 0.007469 -0.006234
