ply
format ascii 1.0
element vertex 691
property float x
property float y
property float z
property uchar red
property uchar green
property uchar blue
property float nx
property float ny
property float nz
end_header
0.103970 -3.713240 -0.705944 128 128 255 -0.002465 0.992890 0.119013
0.483511 -3.697014 -0.699937 128 128 255 -0.094757 0.988218 0.120189
0.849777 -3.644213 -0.700211 128 128 255 -0.179363 0.975828 0.124857
1.204560 -3.566302 -0.697327 128 128 255 -0.290332 0.949484 0.119110
1.570796 -3.426961 -0.692659 128 128 255 -0.366975 0.922870 0.116791
1.893052 -3.278864 -0.689191 128 128 255 -0.469629 0.874552 0.120860
2.227973 -3.082990 -0.684056 128 128 255 -0.540047 0.833293 0.118205
2.531695 -2.858601 -0.677615 128 128 255 -0.623532 0.772856 0.117904
2.811220 -2.610559 -0.676423 128 128 255 -0.698785 0.704994 0.121171
3.063213 -2.332127 -0.668072 128 128 255 -0.767541 0.629531 0.120715
3.285687 -2.027289 -0.670027 128 128 255 -0.824292 0.552962 0.121553
3.477496 -1.697230 -0.665103 128 128 255 -0.885815 0.450124 0.112782
3.623019 -1.370428 -0.665891 128 128 255 -0.914238 0.387372 0.118793
3.761494 -1.000629 -0.666327 128 128 255 -0.950296 0.286393 0.122136
3.840590 -0.651933 -0.665919 128 128 255 -0.971460 0.206429 0.116843
3.898101 -0.283491 -0.670496 128 128 255 -0.986962 0.106165 0.120972
3.918215 0.105043 -0.669907 128 128 255 -0.998353 0.050363 0.027463
1.736299 0.097762 -3.972167 128 128 255 -0.906540 0.021274 0.421583
1.724763 0.268107 -3.976554 128 128 255 -0.760076 -0.043049 0.648407
1.691006 0.410983 -3.982165 128 128 255 -0.738090 -0.116659 0.664540
1.654584 0.578529 -3.987553 128 128 255 -0.733577 -0.169588 0.658107
1.597746 0.731955 -3.990834 128 128 255 -0.722741 -0.268885 0.636668
1.540227 0.859796 -3.993081 128 128 255 -0.674376 -0.317859 0.666470
1.446681 1.009531 -3.995514 128 128 255 -0.651913 -0.391973 0.649127
1.353267 1.127600 -3.999270 128 128 255 -0.624263 -0.435383 0.648643
1.260315 1.260447 -4.003379 128 128 255 -0.567854 -0.500222 0.653696
1.129247 1.354891 -4.009011 128 128 255 -0.513886 -0.568742 0.642226
1.013638 1.449540 -4.014271 128 128 255 -0.455149 -0.586447 0.670015
0.863747 1.544385 -4.019351 128 128 255 -0.390869 -0.658184 0.643440
0.732091 1.600577 -4.023979 128 128 255 -0.317227 -0.699363 0.640514
0.581286 1.654320 -4.027642 128 128 255 -0.246830 -0.701706 0.668344
0.412084 1.690874 -4.030193 128 128 255 -0.161965 -0.731187 0.662672
0.265325 1.725060 -4.030608 128 128 255 -0.106771 -0.754498 0.647559
0.091145 1.733761 -4.028975 128 128 255 -0.003927 -0.754834 0.655904
-0.067168 1.729519 -4.025375 128 128 255 0.086920 -0.758761 0.645544
-0.209183 1.689449 -4.022005 128 128 255 0.153207 -0.729095 0.667044
-0.378143 1.652138 -4.021760 128 128 255 0.184770 -0.725978 0.662432
-0.532053 1.599098 -4.024100 128 128 255 0.264009 -0.722861 0.638570
-0.661390 1.540573 -4.026168 128 128 255 0.326645 -0.668249 0.668391
-0.809346 1.448914 -4.025472 128 128 255 0.405823 -0.637422 0.654982
-0.929167 1.351337 -4.026141 128 128 255 0.442707 -0.610887 0.656374
-1.056901 1.258611 -4.030444 128 128 255 0.509655 -0.560070 0.653126
-1.151719 1.127177 -4.033119 128 128 255 0.582477 -0.484658 0.652554
-1.250055 1.010377 -4.029706 128 128 255 0.608420 -0.416578 0.675491
-1.340164 0.863487 -4.025084 128 128 255 0.667472 -0.361893 0.650780
-1.398896 0.727473 -4.023976 128 128 255 0.709006 -0.285199 0.644959
-1.453365 0.581525 -4.022499 128 128 255 0.703594 -0.214302 0.677518
-1.488473 0.408855 -4.016285 128 128 255 0.734242 -0.137881 0.664738
-1.528866 0.268498 -4.008971 128 128 255 0.755543 -0.079688 0.650235
-1.535222 0.091214 -4.005355 128 128 255 0.743903 0.004464 0.668272
-1.524731 -0.063518 -4.004646 128 128 255 0.755254 0.072079 0.651457
-1.491709 -0.213162 -4.003193 128 128 255 0.725672 0.140047 0.673638
-1.454174 -0.378149 -3.999769 128 128 255 0.717735 0.205542 0.665289
-1.396955 -0.528464 -3.995004 128 128 255 0.699742 0.299842 0.648426
-1.340322 -0.663801 -3.990158 128 128 255 0.650886 0.346186 0.675650
-1.247534 -0.811385 -3.985404 128 128 255 0.624510 0.423869 0.655990
-1.154082 -0.924778 -3.980414 128 128 255 0.581312 0.478015 0.658466
-1.060564 -1.056242 -3.974865 128 128 255 0.523127 0.531816 0.665966
-0.929370 -1.151255 -3.968705 128 128 255 0.466609 0.594999 0.654410
-0.813505 -1.247503 -3.964771 128 128 255 0.414271 0.603226 0.681541
-0.663527 -1.342620 -3.960969 128 128 255 0.354410 0.669277 0.653041
-0.532102 -1.397102 -3.957931 128 128 255 0.288861 0.703772 0.649048
-0.381674 -1.449908 -3.956259 128 128 255 0.237757 0.697500 0.675993
-0.212973 -1.489426 -3.956552 128 128 255 0.168287 0.724809 0.668081
-0.066300 -1.527780 -3.957901 128 128 255 0.124949 0.743843 0.656571
0.108540 -1.537512 -3.960559 128 128 255 0.022903 0.744971 0.666704
0.267917 -1.525695 -3.961766 128 128 255 -0.069625 0.758479 0.647967
0.409827 -1.490866 -3.960415 128 128 255 -0.134646 0.730285 0.669742
0.577530 -1.453766 -3.957866 128 128 255 -0.185760 0.718149 0.670638
0.731916 -1.396315 -3.957820 128 128 255 -0.277094 0.718560 0.637880
0.862286 -1.345374 -3.959280 128 128 255 -0.330948 0.660175 0.674272
1.009061 -1.245622 -3.958544 128 128 255 -0.414386 0.629820 0.656972
1.129038 -1.155002 -3.953762 128 128 255 -0.468256 0.592949 0.655094
1.257932 -1.056070 -3.951078 128 128 255 -0.521332 0.544698 0.656900
1.351205 -0.928148 -3.953998 128 128 255 -0.572205 0.500996 0.649296
1.450423 -0.810412 -3.956247 128 128 255 -0.593385 0.435549 0.676899
1.540719 -0.660440 -3.954724 128 128 255 -0.671167 0.367786 0.643636
1.598364 -0.530593 -3.955908 128 128 255 -0.693736 0.320010 0.645231
1.654183 -0.377688 -3.961740 128 128 255 -0.692809 0.267660 0.669608
1.688612 -0.213561 -3.969286 128 128 255 -0.727962 0.193486 0.657750
1.728387 -0.063927 -3.973288 128 128 255 -0.752698 0.133900 0.644605
1.736229 0.103941 -3.975356 128 128 255 -0.702918 0.039549 0.710171
-1.905329 0.098610 -3.780817 128 128 255 -0.754506 -0.042948 -0.654886
-1.890814 -0.100878 -3.788146 128 128 255 -0.770180 -0.061824 -0.634823
-1.878212 -0.300740 -3.792641 128 128 255 -0.760896 -0.129944 -0.635729
-1.830357 -0.474349 -3.792753 128 128 255 -0.731666 -0.268863 -0.626400
-1.747403 -0.664875 -3.792166 128 128 255 -0.699031 -0.311584 -0.643639
-1.665700 -0.851488 -3.793322 128 128 255 -0.682592 -0.349293 -0.641921
-1.579374 -1.009415 -3.796407 128 128 255 -0.643390 -0.444674 -0.623149
-1.447773 -1.170667 -3.800090 128 128 255 -0.588987 -0.485773 -0.645847
-1.325207 -1.326634 -3.804093 128 128 255 -0.539490 -0.551791 -0.635986
-1.165787 -1.444965 -3.807163 128 128 255 -0.479530 -0.602744 -0.637770
-1.007380 -1.574354 -3.809900 128 128 255 -0.422384 -0.646771 -0.635042
-0.851088 -1.662952 -3.811376 128 128 255 -0.339240 -0.703530 -0.624469
-0.659960 -1.747606 -3.811042 128 128 255 -0.291395 -0.704149 -0.647505
-0.474414 -1.827807 -3.808922 128 128 255 -0.208016 -0.750888 -0.626815
-0.296997 -1.878385 -3.804945 128 128 255 -0.108852 -0.778758 -0.617809
-0.104950 -1.894278 -3.800539 128 128 255 -0.041725 -0.770106 -0.636550
0.104369 -1.900281 -3.797792 128 128 255 0.042321 -0.775465 -0.629971
0.304963 -1.895344 -3.795120 128 128 255 0.104582 -0.766430 -0.633757
0.499945 -1.875467 -3.789246 128 128 255 0.172780 -0.758468 -0.628390
0.674418 -1.830239 -3.781183 128 128 255 0.294959 -0.729076 -0.617614
0.864004 -1.747697 -3.777216 128 128 255 0.309020 -0.705342 -0.637965
1.053441 -1.668049 -3.779123 128 128 255 0.366051 -0.679088 -0.636276
1.208073 -1.574778 -3.777870 128 128 255 0.466713 -0.630861 -0.619833
1.370479 -1.446629 -3.774168 128 128 255 0.496890 -0.590986 -0.635481
1.524628 -1.329261 -3.776369 128 128 255 0.553455 -0.539639 -0.634411
1.649304 -1.166472 -3.776566 128 128 255 0.618627 -0.463443 -0.634445
1.774558 -1.008443 -3.769589 128 128 255 0.668058 -0.400245 -0.627298
1.867825 -0.856064 -3.767103 128 128 255 0.709022 -0.328760 -0.623862
1.947756 -0.662652 -3.765692 128 128 255 0.715534 -0.272107 -0.643404
2.031379 -0.474394 -3.756586 128 128 255 0.756725 -0.184368 -0.627197
2.075467 -0.299964 -3.750687 128 128 255 0.782299 -0.104599 -0.614058
2.094131 -0.103921 -3.749660 128 128 255 0.765613 -0.037995 -0.642179
2.102825 0.108823 -3.745091 128 128 255 0.778201 0.050322 -0.625996
2.092165 0.301039 -3.738620 128 128 255 0.767423 0.089617 -0.634847
2.079480 0.499974 -3.736854 128 128 255 0.763158 0.152851 -0.627874
2.027416 0.675003 -3.737996 128 128 255 0.732631 0.272118 -0.623862
1.949147 0.865014 -3.738036 128 128 255 0.700308 0.315983 -0.640096
1.868326 1.051166 -3.735287 128 128 255 0.674277 0.375344 -0.635977
1.777712 1.211072 -3.731287 128 128 255 0.619283 0.475197 -0.625041
1.644941 1.370623 -3.727249 128 128 255 0.575051 0.503844 -0.644560
1.525384 1.525596 -3.722805 128 128 255 0.516141 0.574305 -0.635431
1.367459 1.644583 -3.719216 128 128 255 0.458363 0.618749 -0.638007
1.210422 1.775155 -3.718177 128 128 255 0.409878 0.654202 -0.635626
1.054115 1.863726 -3.717851 128 128 255 0.333925 0.704107 -0.626680
0.862323 1.947696 -3.718849 128 128 255 0.296061 0.698269 -0.651742
0.675803 2.027263 -3.721323 128 128 255 0.217761 0.742758 -0.633159
0.496088 2.077622 -3.725835 128 128 255 0.154106 0.765666 -0.624506
0.301820 2.095580 -3.731677 128 128 255 0.063358 0.762486 -0.643895
0.095448 2.100737 -3.735540 128 128 255 -0.014604 0.773823 -0.633234
-0.101798 2.094826 -3.737283 128 128 255 -0.066553 0.764364 -0.641342
-0.300562 2.077049 -3.740283 128 128 255 -0.128455 0.758554 -0.638823
-0.477180 2.029080 -3.746505 128 128 255 -0.258612 0.735428 -0.626311
-0.660780 1.948991 -3.751363 128 128 255 -0.303362 0.700277 -0.646207
-0.856082 1.867988 -3.749523 128 128 255 -0.365125 0.669089 -0.647304
-1.008000 1.774629 -3.749386 128 128 255 -0.447732 0.639204 -0.625263
-1.169834 1.648115 -3.754357 128 128 255 -0.484646 0.587434 -0.648104
-1.326596 1.528285 -3.754488 128 128 255 -0.562034 0.523751 -0.640158
-1.447066 1.365876 -3.752699 128 128 255 -0.601679 0.470526 -0.645436
-1.577037 1.209792 -3.758625 128 128 255 -0.638689 0.432669 -0.636297
-1.664739 1.055669 -3.763112 128 128 255 -0.699270 0.335569 -0.631201
-1.750774 0.861221 -3.762938 128 128 255 -0.694762 0.296582 -0.655244
-1.828185 0.674955 -3.769123 128 128 255 -0.737840 0.240547 -0.630658
-1.878677 0.500770 -3.777767 128 128 255 -0.764074 0.149306 -0.627614
-1.890955 0.302498 -3.781126 128 128 255 -0.761429 0.071975 -0.644241
-1.905246 0.092026 -3.784573 128 128 255 -0.802851 0.083765 -0.590265
-3.774422 0.097513 -0.265677 128 128 255 -0.995446 -0.071432 0.063125
-3.745906 -0.287058 -0.262824 128 128 255 -0.993024 -0.110779 -0.040399
-3.687625 -0.649614 -0.264898 128 128 255 -0.983546 -0.176968 -0.036320
-3.605937 -1.030299 -0.264083 128 128 255 -0.958491 -0.283019 -0.034581
-3.470137 -1.389276 -0.258788 128 128 255 -0.915335 -0.400441 -0.042533
-3.315599 -1.717475 -0.259835 128 128 255 -0.889262 -0.455450 -0.042173
-3.125357 -2.053171 -0.260144 128 128 255 -0.836518 -0.547188 -0.028700
-2.895049 -2.362972 -0.257251 128 128 255 -0.771185 -0.635175 -0.042741
-2.640358 -2.639845 -0.254725 128 128 255 -0.707730 -0.705305 -0.040782
-2.362055 -2.895514 -0.253483 128 128 255 -0.630705 -0.775241 -0.034826
-2.058035 -3.123911 -0.252768 128 128 255 -0.550372 -0.833879 -0.041667
-1.719674 -3.319008 -0.252194 128 128 255 -0.464300 -0.884967 -0.035474
-1.388881 -3.466477 -0.251520 128 128 255 -0.375136 -0.925958 -0.043308
-1.029679 -3.605864 -0.249483 128 128 255 -0.292842 -0.955355 -0.039256
-0.645843 -3.690339 -0.242836 128 128 255 -0.182905 -0.982536 -0.034190
-0.286963 -3.741032 -0.233147 128 128 255 -0.104552 -0.993984 -0.032616
0.106450 -3.776555 -0.229126 128 128 255 0.001192 -0.999198 -0.040017
0.485118 -3.745801 -0.222095 128 128 255 0.110559 -0.993083 -0.039532
0.849622 -3.688220 -0.212246 128 128 255 0.185300 -0.982016 -0.036177
1.226918 -3.607802 -0.210504 128 128 255 0.281526 -0.958977 -0.033269
1.587821 -3.468567 -0.200896 128 128 255 0.401970 -0.914598 -0.043946
1.919097 -3.319755 -0.203334 128 128 255 0.452680 -0.890811 -0.039196
2.254622 -3.125180 -0.199230 128 128 255 0.557126 -0.829853 -0.030901
2.558021 -2.895934 -0.202795 128 128 255 0.635603 -0.770818 -0.042997
2.840110 -2.639662 -0.201871 128 128 255 0.703755 -0.709320 -0.039918
3.096717 -2.362591 -0.200367 128 128 255 0.774557 -0.631555 -0.034633
3.324317 -2.055594 -0.202627 128 128 255 0.839647 -0.541552 -0.041403
3.520211 -1.715677 -0.195856 128 128 255 0.880910 -0.472028 -0.034457
3.670121 -1.389140 -0.197665 128 128 255 0.926354 -0.374048 -0.044236
3.810108 -1.028619 -0.191197 128 128 255 0.956967 -0.287544 -0.039150
3.888259 -0.646511 -0.189966 128 128 255 0.984124 -0.174543 -0.032181
3.941556 -0.286950 -0.187168 128 128 255 0.994175 -0.102198 -0.034220
3.972459 0.104432 -0.186143 128 128 255 0.999083 0.002918 -0.042722
3.944139 0.485035 -0.185673 128 128 255 0.993299 0.109676 -0.036434
3.889904 0.847945 -0.189402 128 128 255 0.982756 0.181082 -0.037425
3.806246 1.229306 -0.186846 128 128 255 0.957801 0.285316 -0.034820
3.668843 1.584693 -0.192716 128 128 255 0.915233 0.400548 -0.043703
3.517106 1.916039 -0.195359 128 128 255 0.890308 0.453661 -0.039290
3.324261 2.258087 -0.193212 128 128 255 0.831654 0.554408 -0.031369
3.094297 2.558120 -0.192794 128 128 255 0.770870 0.635463 -0.044112
2.842885 2.844212 -0.193576 128 128 255 0.711729 0.701298 -0.040287
2.562982 3.096917 -0.194057 128 128 255 0.624093 0.780562 -0.035079
2.257219 3.321059 -0.196564 128 128 255 0.545826 0.836815 -0.042609
1.918758 3.516434 -0.198447 128 128 255 0.466994 0.883529 -0.035955
1.589148 3.668086 -0.201031 128 128 255 0.380061 0.923917 -0.043945
1.231581 3.810773 -0.206240 128 128 255 0.288320 0.956740 -0.038988
0.846649 3.885454 -0.215515 128 128 255 0.185638 0.982015 -0.034431
0.484671 3.945937 -0.221775 128 128 255 0.102353 0.994140 -0.034770
0.095627 3.972677 -0.224559 128 128 255 -0.005620 0.999140 -0.041076
-0.287357 3.941722 -0.235311 128 128 255 -0.109730 0.993241 -0.037850
-0.647237 3.888331 -0.239068 128 128 255 -0.171877 0.984367 -0.038459
-1.028568 3.809597 -0.243864 128 128 255 -0.283675 0.958295 -0.034636
-1.389303 3.667798 -0.247661 128 128 255 -0.401842 0.914744 -0.042020
-1.716707 3.517361 -0.249105 128 128 255 -0.454481 0.889688 -0.043612
-2.053096 3.320366 -0.249800 128 128 255 -0.553253 0.832503 -0.029158
-2.359042 3.096596 -0.251994 128 128 255 -0.627801 0.777168 -0.043300
-2.642441 2.844239 -0.248538 128 128 255 -0.701229 0.711779 -0.040598
-2.898819 2.559053 -0.253677 128 128 255 -0.779266 0.625637 -0.036360
-3.125358 2.254662 -0.250138 128 128 255 -0.833417 0.551067 -0.041734
-3.320335 1.919343 -0.254540 128 128 255 -0.883900 0.466433 -0.034075
-3.468383 1.585067 -0.255920 128 128 255 -0.926857 0.372764 -0.044527
-3.607645 1.229015 -0.256501 128 128 255 -0.955430 0.292575 -0.039410
-3.685884 0.850673 -0.263372 128 128 255 -0.982406 0.183679 -0.033768
-3.741184 0.485069 -0.263112 128 128 255 -0.993985 0.104104 -0.034000
-3.774048 0.091608 -0.269949 128 128 255 -0.986284 0.081601 -0.143477
-2.240992 0.099274 3.499851 128 128 255 -0.771593 -0.051348 0.634040
-2.226122 -0.138322 3.499493 128 128 255 -0.809031 -0.062962 0.584384
-2.194599 -0.361503 3.505705 128 128 255 -0.790271 -0.121577 0.600575
-2.139102 -0.589254 3.511592 128 128 255 -0.791580 -0.183413 0.582890
-2.070795 -0.802245 3.513883 128 128 255 -0.753787 -0.290552 0.589393
-1.962985 -1.001706 3.516191 128 128 255 -0.726384 -0.362291 0.584047
-1.858588 -1.194385 3.518770 128 128 255 -0.683828 -0.412369 0.601939
-1.705525 -1.394310 3.522114 128 128 255 -0.643635 -0.486943 0.590441
-1.562239 -1.567223 3.525001 128 128 255 -0.590931 -0.557951 0.582658
-1.392178 -1.708080 3.526723 128 128 255 -0.516857 -0.609074 0.601571
-1.195452 -1.856427 3.528005 128 128 255 -0.461062 -0.663305 0.589447
-0.997865 -1.962513 3.528911 128 128 255 -0.398045 -0.703875 0.588320
-0.802527 -2.073830 3.530638 128 128 255 -0.331980 -0.739125 0.586075
-0.584724 -2.140318 3.533422 128 128 255 -0.256170 -0.761890 0.594896
-0.362098 -2.193787 3.538847 128 128 255 -0.183394 -0.792045 0.582264
-0.137467 -2.225188 3.546908 128 128 255 -0.117986 -0.794299 0.595960
0.104422 -2.241224 3.554463 128 128 255 -0.046405 -0.799797 0.598474
0.338384 -2.225010 3.557704 128 128 255 0.063556 -0.808192 0.585480
0.563699 -2.196101 3.560434 128 128 255 0.126192 -0.790699 0.599058
0.785640 -2.135396 3.567571 128 128 255 0.179415 -0.789815 0.586517
1.006176 -2.074154 3.571558 128 128 255 0.298452 -0.749462 0.590960
1.196551 -1.963210 3.566785 128 128 255 0.386516 -0.711308 0.587065
1.398740 -1.853689 3.564478 128 128 255 0.428414 -0.671748 0.604332
1.591597 -1.705403 3.563691 128 128 255 0.504483 -0.626145 0.594508
1.766937 -1.566983 3.555540 128 128 255 0.570189 -0.577819 0.583961
1.903919 -1.394840 3.553732 128 128 255 0.610860 -0.508492 0.606866
2.058637 -1.195172 3.553696 128 128 255 0.668434 -0.443774 0.596876
2.159581 -0.996696 3.547911 128 128 255 0.706623 -0.388603 0.591331
2.274894 -0.803832 3.549966 128 128 255 0.735813 -0.329006 0.591890
2.336092 -0.589609 3.550873 128 128 255 0.762977 -0.243637 0.598755
2.395017 -0.364850 3.546102 128 128 255 0.788917 -0.158448 0.593721
2.426332 -0.133974 3.547510 128 128 255 0.792747 -0.092938 0.602424
2.439796 0.107511 3.547357 128 128 255 0.797252 -0.014583 0.603471
2.425977 0.333763 3.540449 128 128 255 0.799172 0.089746 0.594366
2.396066 0.565731 3.535695 128 128 255 0.781086 0.152058 0.605626
2.335478 0.786261 3.534090 128 128 255 0.780762 0.204772 0.590322
2.274097 1.004299 3.530716 128 128 255 0.737683 0.310286 0.599622
2.164148 1.197239 3.525491 128 128 255 0.708814 0.381550 0.593297
2.054784 1.399062 3.519960 128 128 255 0.670432 0.423621 0.609151
1.904484 1.592805 3.516633 128 128 255 0.629485 0.498226 0.596255
1.765262 1.762861 3.515315 128 128 255 0.591008 0.550194 0.589912
1.596076 1.906495 3.515080 128 128 255 0.507448 0.606575 0.612016
1.399016 2.057841 3.511916 128 128 255 0.446030 0.665449 0.598527
1.201545 2.162911 3.508783 128 128 255 0.383167 0.705262 0.596480
1.006201 2.273745 3.505202 128 128 255 0.312485 0.740889 0.594506
0.788050 2.335901 3.502291 128 128 255 0.233393 0.760871 0.605478
0.562444 2.392821 3.499336 128 128 255 0.147819 0.791072 0.593595
0.334003 2.430367 3.495004 128 128 255 0.079678 0.793419 0.603438
0.094939 2.437094 3.487314 128 128 255 0.002053 0.796475 0.604667
-0.134760 2.429651 3.479420 128 128 255 -0.089727 0.800959 0.591957
-0.366494 2.392162 3.477247 128 128 255 -0.137533 0.783875 0.605495
-0.585541 2.340699 3.477889 128 128 255 -0.193421 0.784046 0.589797
-0.804199 2.271114 3.474304 128 128 255 -0.307805 0.740139 0.597871
-0.999838 2.162298 3.473488 128 128 255 -0.357774 0.726391 0.586817
-1.195435 2.058861 3.479797 128 128 255 -0.408086 0.682257 0.606622
-1.395280 1.906299 3.480937 128 128 255 -0.483140 0.641157 0.596233
-1.563873 1.762591 3.482129 128 128 255 -0.541218 0.602885 0.586184
-1.707683 1.595033 3.489738 128 128 255 -0.601548 0.522502 0.604262
-1.856953 1.398957 3.489463 128 128 255 -0.661074 0.459898 0.592854
-1.961491 1.200920 3.490704 128 128 255 -0.696959 0.400587 0.594792
-2.074531 1.002547 3.496322 128 128 255 -0.740079 0.330321 0.585808
-2.136626 0.785004 3.494602 128 128 255 -0.761413 0.246378 0.599623
-2.195897 0.564521 3.493750 128 128 255 -0.795162 0.166644 0.583049
-2.225800 0.338764 3.497152 128 128 255 -0.795871 0.096025 0.597803
-2.241255 0.093667 3.495075 128 128 255 -0.809921 0.053975 0.584050
1.344854 0.099599 4.192511 128 128 255 -0.641260 -0.030820 -0.766705
1.341657 0.214587 4.192712 128 128 255 -0.751644 -0.071780 -0.655651
1.333951 0.352964 4.195316 128 128 255 -0.735636 -0.151089 -0.660312
1.301732 0.455694 4.200149 128 128 255 -0.741412 -0.185248 -0.644974
1.261600 0.584106 4.205846 128 128 255 -0.681407 -0.298897 -0.668091
1.198426 0.685266 4.210067 128 128 255 -0.657014 -0.359990 -0.662374
1.136771 0.803522 4.213015 128 128 255 -0.640570 -0.401058 -0.654846
1.075840 0.887091 4.214073 128 128 255 -0.596406 -0.509932 -0.619895
0.991756 0.988984 4.213634 128 128 255 -0.507359 -0.535180 -0.675403
0.887218 1.071386 4.212561 128 128 255 -0.429578 -0.623369 -0.653355
0.801002 1.131862 4.211155 128 128 255 -0.399997 -0.668683 -0.626790
0.683018 1.194937 4.210069 128 128 255 -0.356471 -0.659748 -0.661560
0.584453 1.260284 4.209407 128 128 255 -0.263184 -0.702394 -0.661345
0.456989 1.301692 4.209825 128 128 255 -0.226519 -0.725688 -0.649666
0.351499 1.332370 4.210938 128 128 255 -0.132735 -0.749837 -0.648171
0.218666 1.340751 4.211960 128 128 255 -0.057433 -0.746099 -0.663353
0.095856 1.347552 4.213099 128 128 255 0.000100 -0.778882 -0.627171
-0.015604 1.339062 4.214278 128 128 255 0.075890 -0.757703 -0.648171
-0.152242 1.331388 4.215466 128 128 255 0.158521 -0.740177 -0.653460
-0.259285 1.304577 4.217093 128 128 255 0.203921 -0.737797 -0.643485
-0.384711 1.264225 4.218778 128 128 255 0.339880 -0.676586 -0.653233
-0.481237 1.194967 4.215993 128 128 255 0.423602 -0.619515 -0.660880
-0.603085 1.136713 4.207261 128 128 255 0.455183 -0.615305 -0.643590
-0.689759 1.072675 4.197450 128 128 255 0.546931 -0.558491 -0.623662
-0.789396 0.992132 4.189804 128 128 255 0.562672 -0.485189 -0.669321
-0.873608 0.887100 4.186452 128 128 255 0.634387 -0.414382 -0.652565
-0.936839 0.800659 4.183099 128 128 255 0.681476 -0.397990 -0.614162
-0.996400 0.684925 4.177908 128 128 255 0.678897 -0.323712 -0.659022
-1.060907 0.583320 4.172338 128 128 255 0.708456 -0.250304 -0.659878
-1.106503 0.459228 4.169721 128 128 255 0.724609 -0.212577 -0.655556
-1.134912 0.348180 4.169847 128 128 255 0.758085 -0.104223 -0.643774
-1.136864 0.218204 4.170089 128 128 255 0.754124 -0.041021 -0.655450
-1.145535 0.093058 4.167329 128 128 255 0.775883 0.035548 -0.629874
-1.141880 -0.018067 4.162040 128 128 255 0.750300 0.128204 -0.648547
-1.133708 -0.148201 4.155336 128 128 255 0.735512 0.210413 -0.644010
-1.101820 -0.258265 4.150339 128 128 255 0.716516 0.244508 -0.653315
-1.062253 -0.386623 4.147071 128 128 255 0.669636 0.348564 -0.655814
-0.999045 -0.482030 4.144906 128 128 255 0.642767 0.391034 -0.658743
-0.936942 -0.600109 4.144495 128 128 255 0.641949 0.411882 -0.646726
-0.875736 -0.688277 4.144957 128 128 255 0.592759 0.496682 -0.633990
-0.791548 -0.793937 4.146745 128 128 255 0.516655 0.517462 -0.682129
-0.687050 -0.876560 4.148960 128 128 255 0.442773 0.613421 -0.653962
-0.600756 -0.936881 4.148305 128 128 255 0.404042 0.666035 -0.627015
-0.482676 -1.000112 4.147602 128 128 255 0.355411 0.656791 -0.665063
-0.384060 -1.065280 4.146710 128 128 255 0.248575 0.704347 -0.664910
-0.256466 -1.106779 4.144599 128 128 255 0.197208 0.730010 -0.654365
-0.150946 -1.135930 4.141792 128 128 255 0.096203 0.756439 -0.646951
-0.018425 -1.138090 4.137863 128 128 255 0.015841 0.748628 -0.662802
0.103943 -1.143057 4.134659 128 128 255 -0.050705 0.770125 -0.635875
0.215095 -1.139355 4.132998 128 128 255 -0.082196 0.748410 -0.658123
0.351875 -1.136694 4.133735 128 128 255 -0.161882 0.739077 -0.653881
0.459480 -1.103847 4.136886 128 128 255 -0.200319 0.724748 -0.659252
0.585190 -1.061448 4.141157 128 128 255 -0.312117 0.685376 -0.657908
0.681272 -1.000061 4.144401 128 128 255 -0.367375 0.646050 -0.669070
0.802854 -0.932019 4.147251 128 128 255 -0.367657 0.653018 -0.662114
0.890079 -0.875251 4.152958 128 128 255 -0.463759 0.629664 -0.623259
0.989819 -0.790861 4.161838 128 128 255 -0.496721 0.537797 -0.681207
1.073233 -0.688220 4.170531 128 128 255 -0.577387 0.480630 -0.660014
1.136835 -0.602979 4.175138 128 128 255 -0.649311 0.419033 -0.634670
1.196830 -0.482407 4.176482 128 128 255 -0.646687 0.373314 -0.665156
1.260658 -0.387436 4.179067 128 128 255 -0.687395 0.286853 -0.667236
1.306287 -0.254745 4.184685 128 128 255 -0.713455 0.236627 -0.659537
1.335174 -0.153001 4.187931 128 128 255 -0.746577 0.114413 -0.655388
1.336830 -0.014424 4.188414 128 128 255 -0.739917 0.047730 -0.671003
1.344864 0.105848 4.187648 128 128 255 -0.948908 0.036226 0.313466
3.842122 0.097798 1.213430 128 128 255 -0.992995 -0.051216 -0.106477
3.826234 0.458259 1.209091 128 128 255 -0.976000 -0.098779 -0.194077
3.768927 0.834470 1.213939 128 128 255 -0.956460 -0.215047 -0.197329
3.667892 1.175792 1.210664 128 128 255 -0.942688 -0.277177 -0.185775
3.559432 1.533387 1.211545 128 128 255 -0.902251 -0.384013 -0.196157
3.386463 1.855869 1.214565 128 128 255 -0.855950 -0.479494 -0.193482
3.200305 2.169527 1.212242 128 128 255 -0.820859 -0.536569 -0.195662
2.994861 2.474625 1.206689 128 128 255 -0.761609 -0.620091 -0.188252
2.745330 2.747478 1.201906 128 128 255 -0.694727 -0.692332 -0.195012
2.474560 2.996418 1.197096 128 128 255 -0.605546 -0.771791 -0.194046
2.168211 3.202003 1.191987 128 128 255 -0.517111 -0.834349 -0.190940
1.853985 3.390473 1.187318 128 128 255 -0.475005 -0.858204 -0.194568
1.534901 3.560007 1.184040 128 128 255 -0.363026 -0.912091 -0.190531
1.175496 3.667323 1.184064 128 128 255 -0.280169 -0.940254 -0.193461
0.834354 3.768304 1.183656 128 128 255 -0.205508 -0.960553 -0.187363
0.462220 3.825648 1.180041 128 128 255 -0.082443 -0.977227 -0.195527
0.091489 3.841495 1.179089 128 128 255 0.006032 -0.980448 -0.196687
-0.258185 3.821829 1.183791 128 128 255 0.104658 -0.976223 -0.189832
-0.637235 3.770236 1.179732 128 128 255 0.207616 -0.958523 -0.195267
-0.975521 3.669590 1.181041 128 128 255 0.279122 -0.942153 -0.185578
-1.337081 3.558933 1.177805 128 128 255 0.385816 -0.901950 -0.193990
-1.656703 3.387916 1.173065 128 128 255 0.493002 -0.848567 -0.192051
-1.968146 3.197409 1.163586 128 128 255 0.543731 -0.816253 -0.195162
-2.273697 2.992473 1.158124 128 128 255 0.620335 -0.761302 -0.188688
-2.546351 2.749967 1.146688 128 128 255 0.691849 -0.695688 -0.193298
-2.794484 2.476840 1.145244 128 128 255 0.774997 -0.601119 -0.195027
-3.001639 2.166627 1.136071 128 128 255 0.833492 -0.518559 -0.190756
-3.190722 1.856083 1.136469 128 128 255 0.857676 -0.476701 -0.192736
-3.359249 1.537585 1.133262 128 128 255 0.913563 -0.358904 -0.191287
-3.468285 1.175738 1.132964 128 128 255 0.940054 -0.281063 -0.193140
-3.567975 0.833962 1.134121 128 128 255 0.961451 -0.198998 -0.189767
-3.621891 0.461934 1.132450 128 128 255 0.977097 -0.082883 -0.195991
-3.642794 0.095825 1.133832 128 128 255 0.980395 -0.000426 -0.197043
-3.626230 -0.258078 1.132655 128 128 255 0.975448 0.108167 -0.191836
-3.568681 -0.634329 1.129478 128 128 255 0.956554 0.215936 -0.195897
-3.468600 -0.975780 1.132154 128 128 255 0.940338 0.283682 -0.187851
-3.359278 -1.333480 1.127438 128 128 255 0.901913 0.384876 -0.196022
-3.187036 -1.656063 1.126963 128 128 255 0.851747 0.486816 -0.193746
-2.999935 -1.969468 1.131746 128 128 255 0.822237 0.534419 -0.195763
-2.795471 -2.274892 1.136731 128 128 255 0.765635 0.614231 -0.191110
-2.545662 -2.547319 1.141191 128 128 255 0.697425 0.688597 -0.198578
-2.274193 -2.796471 1.146517 128 128 255 0.608363 0.768999 -0.196301
-1.967768 -3.002159 1.149735 128 128 255 0.519736 0.832287 -0.192803
-1.653587 -3.190598 1.153231 128 128 255 0.477461 0.856360 -0.196667
-1.334586 -3.360105 1.156077 128 128 255 0.365213 0.910887 -0.192107
-0.975566 -3.467458 1.156411 128 128 255 0.277688 0.940548 -0.195598
-0.634692 -3.568326 1.154613 128 128 255 0.202089 0.960781 -0.189894
-0.262157 -3.625788 1.155052 128 128 255 0.083800 0.976269 -0.199689
0.108676 -3.641486 1.159137 128 128 255 -0.012472 0.979787 -0.199654
0.457907 -3.621888 1.156558 128 128 255 -0.101674 0.975966 -0.192749
0.837456 -3.570211 1.158035 128 128 255 -0.202616 0.958802 -0.199112
1.175646 -3.469459 1.163024 128 128 255 -0.281119 0.940989 -0.188443
1.536505 -3.358687 1.164060 128 128 255 -0.382617 0.902497 -0.197747
1.856961 -3.187596 1.173295 128 128 255 -0.484013 0.853170 -0.194506
2.168684 -2.997294 1.177158 128 128 255 -0.536501 0.820268 -0.198312
2.473714 -2.792563 1.185954 128 128 255 -0.609610 0.769236 -0.191446
2.745909 -2.549972 1.192950 128 128 255 -0.685441 0.701042 -0.196750
2.993896 -2.276636 1.196805 128 128 255 -0.766575 0.611464 -0.196151
3.201155 -1.966592 1.205711 128 128 255 -0.830240 0.522695 -0.193627
3.390542 -1.656157 1.204454 128 128 255 -0.855420 0.479290 -0.196310
3.559477 -1.337326 1.211581 128 128 255 -0.909903 0.368357 -0.190759
3.668745 -0.975573 1.209463 128 128 255 -0.938803 0.282240 -0.197458
3.768088 -0.634158 1.211587 128 128 255 -0.961810 0.198361 -0.188613
3.821467 -0.261980 1.206753 128 128 255 -0.976208 0.085757 -0.199159
3.842172 0.103819 1.208182 128 128 255 -0.951864 0.055238 -0.301503
3.057852 0.102345 -2.829583 128 128 255 -0.820368 -0.029620 0.571069
3.038882 0.384542 -2.837567 128 128 255 -0.873955 -0.062065 0.482028
3.001341 0.667830 -2.837364 128 128 255 -0.863878 -0.170823 0.473851
2.913332 0.947903 -2.838874 128 128 255 -0.841576 -0.239350 0.484212
2.833457 1.237010 -2.845090 128 128 255 -0.824920 -0.295076 0.482117
2.692704 1.495038 -2.848937 128 128 255 -0.778222 -0.408588 0.476892
2.557957 1.746230 -2.850597 128 128 255 -0.743457 -0.463533 0.482088
2.375698 1.974729 -2.854023 128 128 255 -0.691167 -0.541479 0.478632
2.180274 2.179112 -2.859465 128 128 255 -0.640743 -0.601088 0.477642
1.976275 2.375639 -2.865818 128 128 255 -0.589463 -0.646372 0.484497
1.742599 2.560217 -2.872424 128 128 255 -0.497461 -0.724504 0.477102
1.494626 2.696629 -2.878903 128 128 255 -0.437261 -0.761212 0.478915
1.233363 2.833205 -2.884466 128 128 255 -0.362214 -0.796713 0.483786
0.950595 2.915243 -2.890200 128 128 255 -0.253802 -0.843108 0.474081
0.671342 2.996011 -2.893064 128 128 255 -0.209760 -0.849817 0.483540
0.383188 3.042937 -2.891735 128 128 255 -0.095656 -0.871780 0.480468
0.091125 3.053461 -2.887336 128 128 255 -0.006155 -0.875367 0.483419
-0.180994 3.042898 -2.886940 128 128 255 0.077805 -0.872159 0.482996
-0.469365 2.996005 -2.889100 128 128 255 0.172077 -0.862883 0.475208
-0.749159 2.914923 -2.884496 128 128 255 0.247540 -0.838373 0.485649
-1.035385 2.832996 -2.885490 128 128 255 0.297280 -0.824212 0.481973
-1.294556 2.696578 -2.891115 128 128 255 0.403671 -0.779067 0.479693
-1.547041 2.559355 -2.892637 128 128 255 0.465262 -0.740954 0.484271
-1.775497 2.374291 -2.903181 128 128 255 0.543844 -0.688162 0.480277
-1.977956 2.179626 -2.903179 128 128 255 0.600876 -0.638851 0.480434
-2.175358 1.977611 -2.910210 128 128 255 0.653228 -0.580334 0.486318
-2.356666 1.745848 -2.908776 128 128 255 0.733962 -0.482267 0.478246
-2.492897 1.497737 -2.909691 128 128 255 0.763954 -0.426255 0.484440
-2.632995 1.236584 -2.907978 128 128 255 0.800152 -0.345463 0.490319
-2.714777 0.951553 -2.902594 128 128 255 0.843846 -0.240371 0.479734
-2.796507 0.670792 -2.902628 128 128 255 0.849485 -0.199778 0.488328
-2.843316 0.383853 -2.894168 128 128 255 0.870635 -0.090158 0.483597
-2.853323 0.093335 -2.894389 128 128 255 0.871995 -0.011011 0.489391
-2.841928 -0.185027 -2.892161 128 128 255 0.869375 0.078694 0.487847
-2.798029 -0.470245 -2.886243 128 128 255 0.859082 0.177226 0.480176
-2.716154 -0.747239 -2.886874 128 128 255 0.835257 0.247637 0.490940
-2.629872 -1.034576 -2.887143 128 128 255 0.816924 0.304882 0.489573
-2.496522 -1.297494 -2.882131 128 128 255 0.767204 0.420587 0.484257
-2.356058 -1.543628 -2.875183 128 128 255 0.724131 0.485571 0.489750
-2.172059 -1.776153 -2.868936 128 128 255 0.675209 0.554629 0.486292
-1.980386 -1.981165 -2.862034 128 128 255 0.619954 0.617837 0.483667
-1.779749 -2.174898 -2.854533 128 128 255 0.567457 0.661263 0.490637
-1.546764 -2.358015 -2.850310 128 128 255 0.476270 0.734390 0.483569
-1.298724 -2.494717 -2.845709 128 128 255 0.419199 0.766524 0.486532
-1.037272 -2.632070 -2.842031 128 128 255 0.351240 0.796588 0.492014
-0.751699 -2.717960 -2.841006 128 128 255 0.249523 0.839411 0.482834
-0.468805 -2.797593 -2.842271 128 128 255 0.208249 0.845739 0.491283
-0.180169 -2.840639 -2.844121 128 128 255 0.106416 0.867508 0.485906
0.105516 -2.856565 -2.842313 128 128 255 0.011333 0.872359 0.488734
0.381276 -2.840711 -2.840420 128 128 255 -0.073951 0.869001 0.489252
0.671169 -2.797346 -2.844073 128 128 255 -0.162257 0.862163 0.479945
0.947530 -2.717762 -2.842788 128 128 255 -0.250131 0.834763 0.490516
1.237049 -2.632970 -2.837000 128 128 255 -0.308566 0.816984 0.487158
1.495771 -2.495212 -2.838290 128 128 255 -0.419732 0.768954 0.482219
1.744429 -2.357276 -2.829553 128 128 255 -0.480566 0.728832 0.487709
1.979734 -2.172154 -2.828099 128 128 255 -0.554907 0.676951 0.483546
2.177046 -1.977477 -2.822615 128 128 255 -0.614463 0.624023 0.482731
2.373397 -1.775522 -2.818987 128 128 255 -0.653027 0.578036 0.489316
2.560981 -1.543629 -2.819303 128 128 255 -0.731826 0.483410 0.480359
2.692988 -1.295503 -2.815899 128 128 255 -0.763634 0.429009 0.482508
2.829870 -1.034467 -2.821266 128 128 255 -0.795276 0.361368 0.486774
2.918452 -0.749528 -2.818364 128 128 255 -0.839414 0.261848 0.476256
2.998061 -0.468635 -2.827536 128 128 255 -0.847017 0.216125 0.485646
3.040337 -0.181355 -2.830776 128 128 255 -0.869285 0.111549 0.481561
3.057790 0.108457 -2.835066 128 128 255 -0.898685 0.057447 0.434815
-0.340509 0.100757 -4.383640 128 128 255 -0.544009 -0.007330 -0.839047
-0.338984 0.066254 -4.388161 128 128 255 -0.912844 -0.049993 -0.405237
-0.332560 0.024398 -4.391380 128 128 255 -0.870898 -0.163635 -0.463422
-0.321082 -0.031336 -4.393651 128 128 255 -0.863923 -0.262720 -0.429669
-0.305664 -0.072905 -4.395926 128 128 255 -0.857825 -0.325674 -0.397585
-0.286510 -0.112310 -4.398504 128 128 255 -0.800850 -0.413061 -0.433612
-0.251338 -0.148980 -4.401817 128 128 255 -0.789993 -0.468596 -0.395385
-0.225776 -0.170272 -4.405963 128 128 255 -0.741217 -0.564265 -0.363596
-0.196915 -0.201382 -4.410830 128 128 255 -0.671325 -0.606618 -0.425837
-0.165323 -0.229362 -4.416054 128 128 255 -0.626362 -0.683318 -0.375163
-0.144000 -0.253852 -4.421054 128 128 255 -0.557186 -0.738546 -0.379597
-0.107763 -0.287560 -4.425131 128 128 255 -0.459159 -0.771079 -0.441145
-0.069424 -0.305748 -4.427526 128 128 255 -0.358856 -0.857732 -0.368128
-0.029420 -0.320431 -4.427953 128 128 255 -0.237600 -0.866987 -0.438041
0.024570 -0.331736 -4.426363 128 128 255 -0.153240 -0.875743 -0.457812
0.066404 -0.338660 -4.423137 128 128 255 -0.028544 -0.921803 -0.386607
0.108340 -0.341060 -4.418828 128 128 255 0.092959 -0.940305 -0.327390
0.137314 -0.338649 -4.414043 128 128 255 0.152663 -0.904358 -0.398535
0.178149 -0.331096 -4.409672 128 128 255 0.247904 -0.864518 -0.437210
0.230601 -0.318618 -4.406300 128 128 255 0.332916 -0.849172 -0.409968
0.269595 -0.303222 -4.403737 128 128 255 0.362789 -0.848568 -0.385119
0.307617 -0.285455 -4.404351 128 128 255 0.422988 -0.801279 -0.423123
0.344561 -0.253048 -4.407445 128 128 255 0.471625 -0.796330 -0.378719
0.366732 -0.229323 -4.409944 128 128 255 0.589400 -0.724440 -0.357483
0.399563 -0.201721 -4.411401 128 128 255 0.639614 -0.632370 -0.437038
0.429417 -0.169304 -4.411109 128 128 255 0.723378 -0.567228 -0.393671
0.455340 -0.146290 -4.408944 128 128 255 0.782109 -0.478459 -0.399228
0.489782 -0.107746 -4.404412 128 128 255 0.819458 -0.369024 -0.438532
0.506629 -0.069924 -4.398514 128 128 255 0.894031 -0.285561 -0.345201
0.519140 -0.032412 -4.391876 128 128 255 0.895052 -0.167924 -0.413138
0.527928 0.019569 -4.385308 128 128 255 0.884707 -0.118985 -0.450706
0.534160 0.062598 -4.379742 128 128 255 0.911658 0.000495 -0.410949
0.537252 0.107236 -4.375409 128 128 255 0.936401 0.049833 -0.347376
0.536197 0.138060 -4.372148 128 128 255 0.906900 0.128439 -0.401293
0.531330 0.180378 -4.370073 128 128 255 0.865403 0.237190 -0.441383
0.522219 0.232768 -4.368798 128 128 255 0.869591 0.273026 -0.411422
0.508210 0.271080 -4.367202 128 128 255 0.840455 0.387119 -0.379176
0.489878 0.308193 -4.364929 128 128 255 0.773987 0.479496 -0.413554
0.454927 0.344117 -4.361404 128 128 255 0.723327 0.562845 -0.400004
0.429339 0.365328 -4.356541 128 128 255 0.658796 0.664031 -0.353626
0.400188 0.396960 -4.350670 128 128 255 0.573470 0.693745 -0.435718
0.368137 0.425924 -4.344385 128 128 255 0.526254 0.752775 -0.395457
0.346290 0.451792 -4.342067 128 128 255 0.484696 0.780379 -0.395067
0.309365 0.487079 -4.340242 128 128 255 0.405356 0.797061 -0.447640
0.271086 0.505067 -4.339374 128 128 255 0.336893 0.866635 -0.368031
0.231427 0.518922 -4.339866 128 128 255 0.273433 0.861699 -0.427444
0.178246 0.528353 -4.341615 128 128 255 0.213016 0.869574 -0.445495
0.136970 0.534116 -4.344536 128 128 255 0.117986 0.911451 -0.394128
0.095339 0.536239 -4.348011 128 128 255 0.030144 0.936157 -0.350287
0.066220 0.534747 -4.351601 128 128 255 -0.050714 0.916101 -0.397727
0.024557 0.529999 -4.354359 128 128 255 -0.171982 0.878404 -0.445902
-0.029701 0.521683 -4.355915 128 128 255 -0.246630 0.865853 -0.435284
-0.070507 0.508210 -4.356492 128 128 255 -0.376346 0.841591 -0.387411
-0.110076 0.489512 -4.356088 128 128 255 -0.437330 0.780657 -0.446450
-0.148087 0.452581 -4.355208 128 128 255 -0.529020 0.740045 -0.415297
-0.170094 0.425829 -4.354303 128 128 255 -0.621480 0.697725 -0.356288
-0.201719 0.396789 -4.354125 128 128 255 -0.661810 0.605959 -0.441385
-0.229515 0.366697 -4.355123 128 128 255 -0.714135 0.591757 -0.373947
-0.253754 0.347159 -4.357242 128 128 255 -0.755529 0.543282 -0.366088
-0.286445 0.312603 -4.361017 128 128 255 -0.773022 0.455603 -0.441433
-0.303408 0.273405 -4.365379 128 128 255 -0.838905 0.388273 -0.381421
-0.317609 0.231048 -4.369839 128 128 255 -0.840269 0.309078 -0.445443
-0.329404 0.175444 -4.376396 128 128 255 -0.851048 0.254500 -0.459290
-0.337417 0.134936 -4.383469 128 128 255 -0.906991 0.164836 -0.387552
-0.340767 0.094996 -4.389090 128 128 255 -0.546232 0.091380 0.832635
-3.337302 0.097658 -2.088806 128 128 255 -0.961191 -0.050726 -0.271181
-3.316533 -0.232056 -2.091945 128 128 255 -0.934306 -0.111171 -0.338694
-3.269293 -0.577766 -2.090870 128 128 255 -0.918765 -0.194181 -0.343749
-3.175936 -0.903434 -2.095593 128 128 255 -0.894309 -0.280838 -0.348341
-3.072866 -1.203938 -2.093583 128 128 255 -0.858404 -0.382225 -0.342121
-2.918242 -1.509574 -2.090392 128 128 255 -0.824018 -0.452438 -0.341020
-2.745075 -1.813302 -2.091769 128 128 255 -0.787693 -0.509295 -0.346637
-2.554523 -2.079603 -2.095062 128 128 255 -0.727848 -0.595289 -0.340394
-2.332005 -2.331009 -2.097487 128 128 255 -0.662464 -0.665286 -0.344290
-2.084038 -2.559311 -2.099282 128 128 255 -0.578418 -0.739511 -0.344318
-1.813424 -2.746431 -2.100797 128 128 255 -0.499537 -0.798345 -0.336315
-1.511946 -2.919531 -2.101244 128 128 255 -0.450537 -0.824671 -0.341957
-1.207975 -3.076589 -2.099480 128 128 255 -0.349761 -0.871556 -0.343595
-0.903976 -3.175692 -2.094328 128 128 255 -0.256218 -0.905121 -0.339276
-0.574976 -3.266826 -2.087283 128 128 255 -0.181897 -0.922061 -0.341639
-0.227577 -3.321242 -2.082712 128 128 255 -0.077328 -0.936604 -0.341752
0.103947 -3.333039 -2.077781 128 128 255 0.022440 -0.939276 -0.342429
0.431724 -3.319109 -2.065634 128 128 255 0.118337 -0.935731 -0.332270
0.773107 -3.271912 -2.059174 128 128 255 0.210177 -0.916636 -0.340006
1.104283 -3.177276 -2.053631 128 128 255 0.290212 -0.892335 -0.345711
1.403840 -3.075172 -2.044503 128 128 255 0.387410 -0.858327 -0.336434
1.709547 -2.919068 -2.047119 128 128 255 0.451573 -0.825503 -0.338566
2.014020 -2.746791 -2.043394 128 128 255 0.509432 -0.788833 -0.343834
2.280938 -2.559445 -2.049437 128 128 255 0.598337 -0.726876 -0.337112
2.528698 -2.333269 -2.045333 128 128 255 0.669781 -0.658585 -0.343016
2.757275 -2.081728 -2.049866 128 128 255 0.742602 -0.573836 -0.345332
2.947335 -1.809329 -2.043640 128 128 255 0.801817 -0.493811 -0.336511
3.119568 -1.508931 -2.044777 128 128 255 0.829213 -0.442807 -0.341069
3.273617 -1.207900 -2.036934 128 128 255 0.874912 -0.342760 -0.342118
3.372779 -0.904304 -2.035439 128 128 255 0.904441 -0.259677 -0.338460
3.469486 -0.575854 -2.027045 128 128 255 0.921114 -0.183785 -0.343178
3.521430 -0.227845 -2.026520 128 128 255 0.936051 -0.074182 -0.343957
3.536007 0.108808 -2.019379 128 128 255 0.938520 0.015977 -0.344855
3.516769 0.431973 -2.022532 128 128 255 0.935425 0.112391 -0.335185
3.471703 0.777445 -2.018400 128 128 255 0.917152 0.203789 -0.342495
3.374068 1.101643 -2.019101 128 128 255 0.895253 0.278989 -0.347401
3.275590 1.403433 -2.023408 128 128 255 0.859369 0.381078 -0.340975
3.116429 1.711780 -2.022186 128 128 255 0.823622 0.454241 -0.339576
2.947271 2.011805 -2.018550 128 128 255 0.782671 0.515677 -0.348574
2.755060 2.281667 -2.016871 128 128 255 0.720154 0.604079 -0.341272
2.530203 2.529605 -2.015499 128 128 255 0.654587 0.671954 -0.346401
2.283624 2.759243 -2.013426 128 128 255 0.574505 0.741010 -0.347633
2.013985 2.947479 -2.014463 128 128 255 0.497663 0.797951 -0.340008
1.712585 3.120509 -2.015284 128 128 255 0.448763 0.823900 -0.346122
1.408084 3.276650 -2.016895 128 128 255 0.348554 0.870252 -0.348098
1.102048 3.373822 -2.020571 128 128 255 0.264897 0.900771 -0.344153
0.773083 3.468251 -2.028194 128 128 255 0.201751 0.916443 -0.345586
0.429777 3.520516 -2.037785 128 128 255 0.087170 0.933989 -0.346507
0.095312 3.535047 -2.041988 128 128 255 -0.004164 0.937045 -0.349184
-0.232033 3.517166 -2.047930 128 128 255 -0.098546 0.935988 -0.337958
-0.573197 3.470762 -2.058607 128 128 255 -0.193839 0.917462 -0.347404
-0.902967 3.377395 -2.058867 128 128 255 -0.273177 0.895624 -0.351046
-1.205768 3.276596 -2.065620 128 128 255 -0.378301 0.859803 -0.342968
-1.507812 3.120199 -2.065133 128 128 255 -0.451694 0.822839 -0.344830
-1.813019 2.947214 -2.067310 128 128 255 -0.509237 0.786113 -0.350291
-2.083105 2.759167 -2.065694 128 128 255 -0.600129 0.722102 -0.344112
-2.329038 2.531492 -2.066758 128 128 255 -0.674013 0.651046 -0.349063
-2.555012 2.279747 -2.065541 128 128 255 -0.741248 0.573310 -0.349095
-2.745800 2.009094 -2.069134 128 128 255 -0.795030 0.502810 -0.339278
-2.920237 1.710835 -2.068748 128 128 255 -0.820636 0.455796 -0.344683
-3.075611 1.408260 -2.075467 128 128 255 -0.869146 0.351630 -0.347766
-3.172904 1.103215 -2.075081 128 128 255 -0.900051 0.266844 -0.344533
-3.267288 0.773924 -2.084479 128 128 255 -0.916741 0.197872 -0.347034
-3.319471 0.427209 -2.087368 128 128 255 -0.933623 0.095301 -0.345349
-3.337488 0.091900 -2.095037 128 128 255 -0.892967 0.064874 -0.445423
-3.324671 0.102215 2.047417 128 128 255 -0.894824 -0.039252 0.444689
-3.310308 -0.226302 2.046096 128 128 255 -0.932099 -0.098928 0.348433
-3.243891 -0.570780 2.046445 128 128 255 -0.921916 -0.175077 0.345571
-3.166465 -0.897357 2.053731 128 128 255 -0.902970 -0.251562 0.348369
-3.062776 -1.203925 2.055134 128 128 255 -0.868062 -0.351874 0.350219
-2.910554 -1.504484 2.056212 128 128 255 -0.828127 -0.441789 0.345004
-2.733306 -1.804410 2.060715 128 128 255 -0.801423 -0.491862 0.340283
-2.549892 -2.075753 2.065165 128 128 255 -0.745269 -0.568819 0.347878
-2.325570 -2.324675 2.067193 128 128 255 -0.670791 -0.655670 0.346607
-2.074651 -2.546537 2.067832 128 128 255 -0.595793 -0.726485 0.342418
-1.804150 -2.733257 2.068502 128 128 255 -0.507780 -0.788520 0.346982
-1.503563 -2.905747 2.069705 128 128 255 -0.457870 -0.819443 0.344772
-1.200740 -3.062135 2.071501 128 128 255 -0.386177 -0.855004 0.346173
-0.900038 -3.165742 2.073450 128 128 255 -0.276131 -0.896612 0.346178
-0.575515 -3.247197 2.077459 128 128 255 -0.213506 -0.913920 0.345205
-0.227029 -3.306252 2.087032 128 128 255 -0.126811 -0.930573 0.343443
0.106576 -3.325104 2.097679 128 128 255 -0.020338 -0.940154 0.340144
0.427424 -3.309531 2.101719 128 128 255 0.087393 -0.933907 0.346671
0.773683 -3.245114 2.111192 128 128 255 0.176165 -0.921774 0.345397
1.099157 -3.162058 2.118086 128 128 255 0.257763 -0.902300 0.345563
1.399999 -3.062029 2.119362 128 128 255 0.353031 -0.867349 0.350820
1.707278 -2.905754 2.124218 128 128 255 0.447531 -0.824772 0.345639
2.005142 -2.733051 2.116409 128 128 255 0.503132 -0.794164 0.340827
2.272400 -2.545989 2.117670 128 128 255 0.577761 -0.737193 0.350341
2.524259 -2.321740 2.109338 128 128 255 0.655772 -0.669217 0.349445
2.750850 -2.075542 2.111744 128 128 255 0.725288 -0.596366 0.343954
2.935225 -1.807758 2.105634 128 128 255 0.790579 -0.503251 0.348888
3.105712 -1.505742 2.110358 128 128 255 0.820916 -0.452325 0.348566
3.262438 -1.199519 2.107057 128 128 255 0.855702 -0.381222 0.349921
3.366224 -0.896121 2.112955 128 128 255 0.896835 -0.272247 0.348667
3.448014 -0.572046 2.109778 128 128 255 0.913679 -0.210609 0.347612
3.507033 -0.230002 2.115059 128 128 255 0.931590 -0.108892 0.346817
3.522244 0.104382 2.109548 128 128 255 0.938923 -0.009031 0.344008
3.510250 0.427132 2.111703 128 128 255 0.930488 0.099377 0.352586
3.445143 0.772638 2.106918 128 128 255 0.917886 0.188011 0.349482
3.364236 1.100355 2.100459 128 128 255 0.897476 0.265777 0.351992
3.264539 1.403254 2.100012 128 128 255 0.864668 0.356006 0.354415
3.108727 1.702397 2.097140 128 128 255 0.822082 0.450130 0.348660
2.933913 2.007306 2.091659 128 128 255 0.796213 0.496276 0.346056
2.750989 2.272707 2.088834 128 128 255 0.739822 0.573152 0.352364
2.523623 2.525706 2.089291 128 128 255 0.669060 0.654188 0.352699
2.272630 2.749112 2.090639 128 128 255 0.594686 0.724761 0.347951
2.002924 2.934955 2.087273 128 128 255 0.503046 0.788972 0.352799
1.702459 3.107769 2.083279 128 128 255 0.451682 0.820257 0.350945
1.399340 3.265114 2.078781 128 128 255 0.375660 0.857146 0.352393
1.098144 3.367020 2.074878 128 128 255 0.257994 0.900027 0.351269
0.775612 3.444116 2.071233 128 128 255 0.201744 0.914489 0.350726
0.428870 3.509706 2.063481 128 128 255 0.101857 0.931019 0.350469
0.091700 3.522336 2.051950 128 128 255 -0.000934 0.938489 0.345308
-0.226233 3.510340 2.047310 128 128 255 -0.098268 0.930695 0.352348
-0.575422 3.448392 2.042617 128 128 255 -0.188720 0.917484 0.350155
-0.897178 3.364874 2.034932 128 128 255 -0.265204 0.898209 0.350552
-1.202308 3.262600 2.037609 128 128 255 -0.352891 0.865897 0.354529
-1.506973 3.106697 2.032814 128 128 255 -0.441836 0.826259 0.349394
-1.803478 2.934988 2.038916 128 128 255 -0.490619 0.800809 0.343508
-2.074279 2.748579 2.037006 128 128 255 -0.563965 0.746919 0.352214
-2.325895 2.525117 2.043894 128 128 255 -0.650379 0.673551 0.351192
-2.549769 2.277409 2.041917 128 128 255 -0.723739 0.597342 0.345520
-2.733760 2.006676 2.047978 128 128 255 -0.787362 0.507246 0.350376
-2.906213 1.702986 2.044057 128 128 255 -0.816441 0.459642 0.349505
-3.064816 1.399822 2.049025 128 128 255 -0.854267 0.384829 0.349476
-3.167230 1.098241 2.044196 128 128 255 -0.899153 0.266076 0.347460
-3.246385 0.775054 2.046502 128 128 255 -0.915863 0.203571 0.346054
-3.305856 0.431001 2.038763 128 128 255 -0.931838 0.111653 0.345269
-3.324233 0.095780 2.041515 128 128 255 -0.959869 0.054434 0.275115
-0.314455 0.102497 4.378669 128 128 255 -0.521541 -0.005209 -0.853210
-0.311556 0.068648 4.380990 128 128 255 -0.934908 -0.041261 0.352482
-0.304685 0.028014 4.384545 128 128 255 -0.897446 -0.174909 0.404967
-0.294222 -0.012040 4.388883 128 128 255 -0.890756 -0.179959 0.417334
-0.280101 -0.063984 4.393276 128 128 255 -0.858126 -0.270226 0.436575
-0.250130 -0.100476 4.397394 128 128 255 -0.813904 -0.402633 0.418864
-0.229563 -0.135007 4.400378 128 128 255 -0.798683 -0.500010 0.334806
-0.205777 -0.154331 4.402225 128 128 255 -0.737897 -0.567704 0.364993
-0.179045 -0.183887 4.402631 128 128 255 -0.653286 -0.633648 0.414375
-0.149576 -0.210571 4.402144 128 128 255 -0.603711 -0.726415 0.328412
-0.130499 -0.234042 4.401237 128 128 255 -0.510309 -0.792637 0.333635
-0.096274 -0.254543 4.400932 128 128 255 -0.422094 -0.799994 0.426435
-0.060353 -0.284125 4.401505 128 128 255 -0.390476 -0.819460 0.419540
-0.009624 -0.298108 4.403903 128 128 255 -0.314338 -0.860199 0.401558
0.029351 -0.308058 4.407655 128 128 255 -0.231365 -0.892307 0.387632
0.068991 -0.313833 4.412552 128 128 255 -0.179994 -0.901629 0.393279
0.108753 -0.315088 4.417930 128 128 255 -0.099086 -0.929183 0.356092
0.135508 -0.312126 4.423013 128 128 255 0.021792 -0.947004 0.320482
0.174187 -0.304655 4.426977 128 128 255 0.169037 -0.910122 0.378292
0.211830 -0.293682 4.429238 128 128 255 0.226472 -0.888243 0.399667
0.260867 -0.280050 4.429381 128 128 255 0.348696 -0.837880 0.419962
0.295985 -0.251756 4.425120 128 128 255 0.493351 -0.767687 0.408975
0.330011 -0.232755 4.417708 128 128 255 0.602988 -0.723417 0.336263
0.349422 -0.210033 4.409978 128 128 255 0.656348 -0.667235 0.352144
