ply
format ascii 1.0
element vertex 689
property float x
property float y
property float z
property uchar red
property uchar green
property uchar blue
property float nx
property float ny
property float nz
end_header
-0.555570 0.831470 -0.000000 128 128 255 0.421570 -0.748711 -0.511576
-0.707107 0.707107 0.000000 128 128 255 0.545376 -0.465025 -0.697364
-0.602712 0.602712 0.161789 128 128 255 0.592777 -0.438376 -0.675605
-0.508558 0.508558 0.300634 128 128 255 0.667808 -0.337346 -0.663499
-0.443156 0.443156 0.399733 128 128 255 0.745127 -0.272595 -0.608668
-0.415315 0.415315 0.451816 128 128 255 0.866944 -0.342860 -0.361739
-0.423679 0.423679 0.458893 128 128 255 -0.399079 0.020014 0.916698
-0.459354 0.459354 0.429505 128 128 255 -0.555201 0.216395 0.803072
-0.509682 0.509682 0.375261 128 128 255 -0.560922 0.339021 0.755269
-0.561604 0.561604 0.307960 128 128 255 -0.567048 0.449348 0.690321
-0.603930 0.603930 0.237765 128 128 255 -0.609979 0.554296 0.566287
-0.628540 0.628540 0.172335 128 128 255 -0.706008 0.645234 0.291935
-0.630774 0.630774 0.116613 128 128 255 -0.754241 0.601895 -0.262379
-0.609326 0.609326 0.072994 128 128 255 -0.561319 0.329203 -0.759306
-0.565867 0.565867 0.041688 128 128 255 -0.352775 0.117427 -0.928311
-0.504528 0.504528 0.021141 128 128 255 -0.222598 0.025194 -0.974585
-0.431323 0.431323 0.008489 128 128 255 -0.133542 0.009191 -0.991001
-0.353553 0.353553 0.000000 128 128 255 -0.057983 0.053100 -0.996904
-0.279197 0.279197 -0.008489 128 128 255 0.015700 0.160755 -0.986869
-0.216296 0.216296 -0.021141 128 128 255 0.072217 0.343164 -0.936495
-0.172342 0.172342 -0.041688 128 128 255 0.011167 0.615693 -0.787907
-0.153648 0.153648 -0.072994 128 128 255 -0.501701 0.853326 -0.141881
-0.164718 0.164718 -0.116613 128 128 255 -0.684223 0.385637 0.618970
-0.207608 0.207608 -0.172335 128 128 255 -0.547036 0.250014 0.798902
-0.281311 0.281311 -0.237765 128 128 255 -0.402081 0.265113 0.876382
-0.381205 0.381205 -0.307960 128 128 255 -0.277105 0.291968 0.915406
-0.498702 0.498702 -0.375261 128 128 255 -0.175731 0.293735 0.939595
-0.621306 0.621306 -0.429505 128 128 255 -0.083300 0.255334 0.963258
-0.733411 0.733411 -0.458893 128 128 255 0.034386 0.141564 0.989332
-0.818247 0.818247 -0.451816 128 128 255 0.269911 -0.178301 0.946233
-0.861150 0.861150 -0.399733 128 128 255 0.597641 -0.741609 0.304698
-0.853804 0.853804 -0.300634 128 128 255 0.555150 -0.754162 -0.350782
-0.798044 0.798044 -0.161789 128 128 255 0.515612 -0.643302 -0.565956
-0.707107 0.707107 -0.000000 128 128 255 0.521287 -0.611446 -0.595309
-0.831470 0.555570 0.000000 128 128 255 0.566632 -0.312946 -0.762229
-0.696082 0.465107 0.147472 128 128 255 0.613808 -0.276129 -0.739590
-0.574477 0.383853 0.275257 128 128 255 0.676519 -0.159379 -0.718972
-0.489702 0.327208 0.368838 128 128 255 0.754461 -0.078189 -0.651671
-0.452678 0.302470 0.421713 128 128 255 0.910862 -0.132774 -0.390771
-0.461672 0.308479 0.435216 128 128 255 -0.175975 -0.165484 0.970385
-0.505597 0.337829 0.416212 128 128 255 -0.475164 0.028511 0.879435
-0.568708 0.379999 0.374215 128 128 255 -0.523695 0.161802 0.836399
-0.634767 0.424138 0.318980 128 128 255 -0.561958 0.279080 0.778664
-0.689856 0.460947 0.258980 128 128 255 -0.639813 0.384743 0.665291
-0.723849 0.483660 0.200680 128 128 255 -0.784296 0.474409 0.399769
-0.730888 0.488364 0.148353 128 128 255 -0.874988 0.450120 -0.178290
-0.709253 0.473907 0.104225 128 128 255 -0.661178 0.239313 -0.711036
-0.660878 0.441584 0.068762 128 128 255 -0.431099 0.085711 -0.898225
-0.590723 0.394709 0.041016 128 128 255 -0.294394 0.028200 -0.955268
-0.506060 0.338138 0.018992 128 128 255 -0.209299 0.034411 -0.977246
-0.415735 0.277785 0.000000 128 128 255 -0.147637 0.095359 -0.984434
-0.329423 0.220114 -0.018992 128 128 255 -0.099496 0.217086 -0.971069
-0.256876 0.171639 -0.041016 128 128 255 -0.082069 0.405726 -0.910303
-0.207165 0.138423 -0.068762 128 128 255 -0.195060 0.652039 -0.732665
-0.187910 0.125558 -0.104225 128 128 255 -0.675266 0.736642 -0.037063
-0.204511 0.136650 -0.148353 128 128 255 -0.695603 0.243071 0.676057
-0.259358 0.173298 -0.200680 128 128 255 -0.524538 0.126336 0.841961
-0.351078 0.234583 -0.258980 128 128 255 -0.382930 0.157243 0.910296
-0.473859 0.316622 -0.318980 128 128 255 -0.267109 0.199779 0.942731
-0.617026 0.412284 -0.374215 128 128 255 -0.170578 0.217668 0.961001
-0.765123 0.511239 -0.416212 128 128 255 -0.075569 0.198359 0.977212
-0.898923 0.600641 -0.435216 128 128 255 0.056699 0.115015 0.991744
-0.997838 0.666734 -0.421713 128 128 255 0.339413 -0.139077 0.930299
-1.044000 0.697578 -0.368838 128 128 255 0.751644 -0.619142 0.227365
-1.027491 0.686548 -0.275257 128 128 255 0.656595 -0.606140 -0.448862
-0.951033 0.635460 -0.147472 128 128 255 0.578960 -0.494884 -0.647994
-0.831470 0.555570 -0.000000 128 128 255 0.578343 -0.460652 -0.673289
-0.923880 0.382683 0.000000 128 128 255 0.546527 -0.169786 -0.820050
-0.760772 0.315122 0.131734 128 128 255 0.591511 -0.121959 -0.797020
-0.614610 0.254580 0.247230 128 128 255 0.639686 0.008708 -0.768587
-0.512210 0.212164 0.334390 128 128 255 0.715746 0.108378 -0.689900
-0.466258 0.193131 0.387550 128 128 255 0.903926 0.079447 -0.420245
-0.474741 0.196644 0.407348 128 128 255 0.111640 -0.249813 0.961837
-0.524793 0.217377 0.398911 128 128 255 -0.330946 -0.120307 0.935949
-0.598157 0.247765 0.369565 128 128 255 -0.428245 0.010346 0.903603
-0.676000 0.280008 0.326928 128 128 255 -0.501142 0.125540 0.856211
-0.742169 0.307416 0.277702 128 128 255 -0.614242 0.221442 0.757410
-0.784882 0.325109 0.227091 128 128 255 -0.809725 0.293805 0.507961
-0.797277 0.330243 0.178664 128 128 255 -0.958338 0.271429 -0.088965
-0.777246 0.321946 0.134452 128 128 255 -0.743172 0.120493 -0.658162
-0.726888 0.301087 0.095174 128 128 255 -0.506275 0.025096 -0.862007
-0.651769 0.269972 0.060496 128 128 255 -0.371584 0.001327 -0.928398
-0.560111 0.232006 0.029312 128 128 255 -0.295639 0.027711 -0.954898
-0.461940 0.191342 0.000000 128 128 255 -0.251372 0.101930 -0.962508
-0.368228 0.152525 -0.029312 128 128 255 -0.230968 0.231314 -0.945065
-0.290033 0.120136 -0.060496 128 128 255 -0.252106 0.416346 -0.873555
-0.237630 0.098429 -0.095174 128 128 255 -0.406021 0.624047 -0.667617
-0.219628 0.090973 -0.134452 128 128 255 -0.810959 0.581729 0.062738
-0.242083 0.100274 -0.178664 128 128 255 -0.676182 0.110010 0.728475
-0.307599 0.127412 -0.227091 128 128 255 -0.474704 0.020061 0.879917
-0.414455 0.171673 -0.277702 128 128 255 -0.338067 0.066445 0.938774
-0.555840 0.230236 -0.326928 128 128 255 -0.233061 0.122921 0.964662
-0.719361 0.297969 -0.369565 128 128 255 -0.143887 0.155739 0.977263
-0.887156 0.367472 -0.398911 128 128 255 -0.050421 0.155345 0.986573
-1.037071 0.429569 -0.407348 128 128 255 0.088698 0.103585 0.990658
-1.145469 0.474469 -0.387550 128 128 255 0.401394 -0.079295 0.912466
-1.191948 0.493721 -0.334390 128 128 255 0.874085 -0.463794 0.144469
-1.165401 0.482725 -0.247230 128 128 255 0.711610 -0.444337 -0.544220
-1.069404 0.442962 -0.131734 128 128 255 0.598036 -0.344479 -0.723662
-0.923880 0.382683 -0.000000 128 128 255 0.591527 -0.309230 -0.744629
-0.980785 0.195090 0.000000 128 128 255 0.490175 -0.046630 -0.870376
-0.795756 0.158286 0.114728 128 128 255 0.530582 0.012663 -0.847539
-0.630107 0.125336 0.216822 128 128 255 0.562204 0.155264 -0.812293
-0.513350 0.102112 0.296722 128 128 255 0.633049 0.275054 -0.723598
-0.459457 0.091392 0.349654 128 128 255 0.847803 0.281307 -0.449551
-0.466260 0.092745 0.375557 128 128 255 0.397125 -0.213604 0.892561
-0.519695 0.103374 0.377768 128 128 255 -0.140140 -0.208360 0.967960
-0.599782 0.119304 0.361356 128 128 255 -0.285896 -0.096489 0.953390
-0.685901 0.136434 0.331728 128 128 255 -0.392537 0.006724 0.919712
-0.760348 0.151243 0.293748 128 128 255 -0.537222 0.082430 0.839403
-0.810175 0.161154 0.251316 128 128 255 -0.779882 0.120283 0.614260
-0.827790 0.164658 0.207255 128 128 255 -0.997091 0.075999 0.005730
-0.810770 0.161272 0.163385 128 128 255 -0.799170 -0.022888 -0.600669
-0.761260 0.151424 0.120669 128 128 255 -0.569193 -0.063567 -0.819743
-0.685174 0.136290 0.079394 128 128 255 -0.444259 -0.056609 -0.894108
-0.591303 0.117617 0.039349 128 128 255 -0.381882 -0.013296 -0.924115
-0.490393 0.097545 0.000000 128 128 255 -0.357431 0.069722 -0.931333
-0.394217 0.078415 -0.039349 128 128 255 -0.365193 0.200139 -0.909164
-0.314638 0.062585 -0.079394 128 128 255 -0.421612 0.372545 -0.826712
-0.262666 0.052248 -0.120669 128 128 255 -0.602075 0.533767 -0.593800
-0.247506 0.049232 -0.163385 128 128 255 -0.902204 0.401706 0.157035
-0.275588 0.054818 -0.207255 128 128 255 -0.630555 -0.007613 0.776107
-0.349596 0.069539 -0.251316 128 128 255 -0.403824 -0.063269 0.912646
-0.467518 0.092995 -0.293748 128 128 255 -0.273730 -0.001545 0.961805
-0.621812 0.123686 -0.331728 128 128 255 -0.180934 0.067100 0.981204
-0.798887 0.158909 -0.361356 128 128 255 -0.101425 0.113234 0.988378
-0.979222 0.194779 -0.377768 128 128 255 -0.013444 0.130633 0.991340
-1.138672 0.226496 -0.375557 128 128 255 0.125046 0.109714 0.986066
-1.251544 0.248948 -0.349654 128 128 255 0.450457 -0.000748 0.892798
-1.295774 0.257746 -0.296722 128 128 255 0.957089 -0.284417 0.055571
-1.259543 0.250539 -0.216822 128 128 255 0.718545 -0.283267 -0.635179
-1.147148 0.228182 -0.114728 128 128 255 0.575167 -0.205148 -0.791895
-0.980785 0.195090 -0.000000 128 128 255 0.563462 -0.169811 -0.808502
-1.000000 0.000000 0.000000 128 128 255 0.405587 0.047440 -0.912825
-0.800963 0.000000 0.096617 128 128 255 0.438691 0.118106 -0.890843
-0.622745 0.000000 0.184326 128 128 255 0.451913 0.270439 -0.850081
-0.496244 0.000000 0.256197 128 128 255 0.513521 0.411257 -0.753103
-0.436130 0.000000 0.308391 128 128 255 0.747331 0.461084 -0.478432
-0.440234 0.000000 0.340149 128 128 255 0.620689 -0.075074 0.780454
-0.493977 0.000000 0.352987 128 128 255 0.071167 -0.221916 0.972465
-0.576602 0.000000 0.349667 128 128 255 -0.114817 -0.144555 0.982813
-0.666667 0.000000 0.333333 128 128 255 -0.250508 -0.062644 0.966086
-0.745733 0.000000 0.306966 128 128 255 -0.419157 -0.015894 0.907774
-0.800284 0.000000 0.273120 128 128 255 -0.697905 -0.028235 0.715634
-0.822338 0.000000 0.233850 128 128 255 -0.986650 -0.123757 0.105855
-0.809256 0.000000 0.190744 128 128 255 -0.822211 -0.184232 -0.538542
-0.763122 0.000000 0.145002 128 128 255 -0.611134 -0.176765 -0.771537
-0.689906 0.000000 0.097527 128 128 255 -0.502447 -0.143782 -0.852569
-0.598546 0.000000 0.049008 128 128 255 -0.457020 -0.087709 -0.885122
-0.500000 0.000000 0.000000 128 128 255 -0.453607 -0.000731 -0.891202
-0.406281 0.000000 -0.049008 128 128 255 -0.488256 0.124412 -0.863787
-0.329494 0.000000 -0.097527 128 128 255 -0.574353 0.276826 -0.770380
-0.280864 0.000000 -0.145002 128 128 255 -0.765465 0.389152 -0.512469
-0.269752 0.000000 -0.190744 128 128 255 -0.946358 0.209915 0.245648
-0.302658 0.000000 -0.233850 128 128 255 -0.564198 -0.105157 0.818916
-0.382209 0.000000 -0.273120 128 128 255 -0.319143 -0.119867 0.940095
-0.506188 0.000000 -0.306966 128 128 255 -0.197338 -0.042852 0.979399
-0.666667 0.000000 -0.333333 128 128 255 -0.117965 0.036145 0.992360
-0.849469 0.000000 -0.349667 128 128 255 -0.050149 0.093583 0.994348
-1.034306 0.000000 -0.352987 128 128 255 0.028809 0.126786 0.991512
-1.196140 0.000000 -0.340149 128 128 255 0.159885 0.134254 0.977964
-1.308391 0.000000 -0.308391 128 128 255 0.481666 0.093425 0.871361
-1.348323 0.000000 -0.256197 128 128 255 0.994958 -0.092051 -0.039827
-1.303926 0.000000 -0.184326 128 128 255 0.680338 -0.137501 -0.719885
-1.180005 0.000000 -0.096617 128 128 255 0.516514 -0.088614 -0.851681
-1.000000 0.000000 -0.000000 128 128 255 0.500366 -0.053633 -0.864151
-0.980785 -0.195090 0.000000 128 128 255 0.302974 0.106084 -0.947076
-0.777180 -0.154591 0.077575 128 128 255 0.325845 0.187328 -0.926678
-0.594667 -0.118287 0.150055 128 128 255 0.318998 0.346911 -0.881982
-0.464092 -0.092314 0.213204 128 128 255 0.366912 0.508699 -0.778846
-0.400163 -0.079597 0.264157 128 128 255 0.610303 0.608750 -0.506906
-0.400860 -0.079736 0.301465 128 128 255 0.751532 0.125732 0.647604
-0.451827 -0.089874 0.324807 128 128 255 0.272816 -0.158660 0.948893
-0.532552 -0.105931 0.334611 128 128 255 0.062134 -0.127106 0.989941
-0.621812 -0.123686 0.331728 128 128 255 -0.094486 -0.073614 0.992801
-0.701328 -0.139503 0.317228 128 128 255 -0.276378 -0.061305 0.959092
-0.757663 -0.150709 0.292294 128 128 255 -0.573255 -0.134757 0.808220
-0.782829 -0.155714 0.258193 128 128 255 -0.925707 -0.313711 0.211311
-0.774096 -0.153977 0.216265 128 128 255 -0.807091 -0.355026 -0.471763
-0.733381 -0.145878 0.167938 128 128 255 -0.624511 -0.308479 -0.717514
-0.666423 -0.132560 0.114720 128 128 255 -0.536980 -0.255430 -0.803995
-0.581880 -0.115743 0.058195 128 128 255 -0.510689 -0.191354 -0.838201
-0.490393 -0.097545 0.000000 128 128 255 -0.528322 -0.105281 -0.842492
-0.403640 -0.080289 -0.058195 128 128 255 -0.587096 0.009060 -0.809467
-0.333389 -0.066315 -0.114720 128 128 255 -0.695657 0.136390 -0.705308
-0.290545 -0.057793 -0.167938 128 128 255 -0.882112 0.202996 -0.425055
-0.284180 -0.056527 -0.216265 128 128 255 -0.944281 0.019001 0.328591
-0.320550 -0.063761 -0.258193 128 128 255 -0.483220 -0.179341 0.856934
-0.402109 -0.079984 -0.292294 128 128 255 -0.228449 -0.147848 0.962264
-0.526537 -0.104735 -0.317228 128 128 255 -0.116995 -0.055690 0.991570
-0.685901 -0.136434 -0.331728 128 128 255 -0.052117 0.031743 0.998136
-0.866117 -0.172281 -0.334611 128 128 255 0.002344 0.098114 0.995172
-1.047090 -0.208279 -0.324807 128 128 255 0.069336 0.144399 0.987087
-1.204071 -0.239505 -0.301465 128 128 255 0.187272 0.176365 0.966346
-1.310837 -0.260742 -0.264157 128 128 255 0.490877 0.198859 0.848231
-1.345032 -0.267544 -0.213204 128 128 255 0.984726 0.100422 -0.142231
-1.294983 -0.257588 -0.150055 128 128 255 0.604488 -0.020165 -0.796359
-1.165725 -0.231877 -0.077575 128 128 255 0.431510 -0.004148 -0.902099
-0.980785 -0.195090 -0.000000 128 128 255 0.411484 0.030470 -0.910908
-0.923880 -0.382683 0.000000 128 128 255 0.193868 0.126194 -0.972877
-0.725944 -0.300696 0.057787 128 128 255 0.203573 0.216415 -0.954842
-0.548164 -0.227057 0.114339 128 128 255 0.175211 0.380435 -0.908059
-0.419856 -0.173910 0.168158 128 128 255 0.204839 0.562048 -0.801338
-0.355090 -0.147083 0.217380 128 128 255 0.446904 0.716810 -0.535220
-0.352124 -0.145855 0.259878 128 128 255 0.786447 0.347650 0.510530
-0.397548 -0.164670 0.293498 128 128 255 0.436475 -0.028369 0.899269
-0.472109 -0.195554 0.316332 128 128 255 0.220788 -0.046328 0.974221
-0.555840 -0.230236 0.326928 128 128 255 0.053538 -0.024852 0.998257
-0.631513 -0.261581 0.324435 128 128 255 -0.129441 -0.048121 0.990419
-0.686428 -0.284328 0.308654 128 128 255 -0.421780 -0.185777 0.887462
-0.712979 -0.295326 0.280049 128 128 255 -0.816904 -0.478731 0.321689
-0.708487 -0.293465 0.239705 128 128 255 -0.750874 -0.525293 -0.400319
-0.674617 -0.279436 0.189258 128 128 255 -0.603550 -0.450544 -0.657828
-0.616612 -0.255409 0.130809 128 128 255 -0.540321 -0.384168 -0.748644
-0.542445 -0.224688 0.066821 128 128 255 -0.534100 -0.317099 -0.783700
-0.461940 -0.191342 0.000000 128 128 255 -0.571663 -0.236503 -0.785663
-0.385894 -0.159843 -0.066821 128 128 255 -0.650669 -0.137351 -0.746836
-0.325190 -0.134698 -0.130809 128 128 255 -0.773745 -0.037599 -0.632381
-0.289900 -0.120080 -0.189258 128 128 255 -0.942853 -0.008652 -0.333097
-0.288387 -0.119454 -0.239705 128 128 255 -0.899801 -0.159792 0.405986
-0.326381 -0.135191 -0.280049 128 128 255 -0.394130 -0.228331 0.890239
-0.406053 -0.168193 -0.308654 128 128 255 -0.139643 -0.147292 0.979186
-0.525111 -0.217508 -0.324435 128 128 255 -0.040952 -0.040477 0.998341
-0.676000 -0.280008 -0.326928 128 128 255 0.008512 0.053330 0.998541
-0.845409 -0.350180 -0.316332 128 128 255 0.048398 0.125963 0.990854
-1.014401 -0.420179 -0.293498 128 128 255 0.101231 0.182044 0.978066
-1.159688 -0.480358 -0.259878 128 128 255 0.201639 0.233543 0.951209
-1.256637 -0.520516 -0.217380 128 128 255 0.475036 0.310164 0.823492
-1.284302 -0.531975 -0.168158 128 128 255 0.926721 0.278697 -0.252026
-1.231847 -0.510248 -0.114339 128 128 255 0.502520 0.058559 -0.862580
-1.104232 -0.457388 -0.057787 128 128 255 0.331966 0.042352 -0.942340
-0.923880 -0.382683 -0.000000 128 128 255 0.308234 0.076868 -0.948200
-0.831470 -0.555570 0.000000 128 128 255 0.090146 0.108136 -0.990041
-0.649442 -0.433943 0.037442 128 128 255 0.083985 0.204873 -0.975179
-0.485498 -0.324399 0.077521 128 128 255 0.032970 0.370149 -0.928387
-0.366029 -0.244573 0.121492 128 128 255 0.039870 0.569348 -0.821130
-0.303810 -0.202999 0.168510 128 128 255 0.268855 0.780936 -0.563787
-0.297473 -0.198765 0.215788 128 128 255 0.738026 0.558767 0.378281
-0.335201 -0.223974 0.259363 128 128 255 0.540924 0.149532 0.827673
-0.399915 -0.267215 0.295006 128 128 255 0.339518 0.086827 0.936583
-0.473859 -0.316622 0.318980 128 128 255 0.172268 0.076753 0.982055
-0.541676 -0.361936 0.328517 128 128 255 -0.000320 0.021258 0.999774
-0.592006 -0.395566 0.322040 128 128 255 -0.264601 -0.174138 0.948505
-0.618003 -0.412937 0.299208 128 128 255 -0.667445 -0.603640 0.436046
-0.617176 -0.412384 0.260835 128 128 255 -0.653293 -0.684179 -0.324204
-0.590882 -0.394815 0.208754 128 128 255 -0.544871 -0.593183 -0.592663
-0.543644 -0.363252 0.145638 128 128 255 -0.507273 -0.520526 -0.686824
-0.482402 -0.322331 0.074804 128 128 255 -0.520845 -0.455404 -0.722030
-0.415735 -0.277785 0.000000 128 128 255 -0.576276 -0.384312 -0.721256
-0.353081 -0.235921 -0.074804 128 128 255 -0.670926 -0.303384 -0.676621
-0.303955 -0.203096 -0.145638 128 128 255 -0.800762 -0.231122 -0.552597
-0.277161 -0.185193 -0.208754 128 128 255 -0.944009 -0.228324 -0.238148
-0.279987 -0.187081 -0.260835 128 128 255 -0.819110 -0.317140 0.477996
-0.317396 -0.212077 -0.299208 128 128 255 -0.303570 -0.251813 0.918932
-0.391201 -0.261392 -0.322040 128 128 255 -0.060290 -0.120237 0.990913
-0.499258 -0.333594 -0.328517 128 128 255 0.022963 0.000200 0.999736
-0.634767 -0.424138 -0.318980 128 128 255 0.056290 0.098124 0.993581
-0.785820 -0.525068 -0.295006 128 128 255 0.080891 0.174131 0.981394
-0.935520 -0.625094 -0.259363 128 128 255 0.118222 0.236366 0.964445
-1.063121 -0.710355 -0.215788 128 128 255 0.198227 0.301754 0.932550
-1.146706 -0.766205 -0.168510 128 128 255 0.432431 0.421205 0.797239
-1.167673 -0.780214 -0.121492 128 128 255 0.825159 0.427544 -0.369213
-1.116470 -0.746001 -0.077521 128 128 255 0.388901 0.092760 -0.916598
-0.997673 -0.666624 -0.037442 128 128 255 0.230927 0.048952 -0.971739
-0.831470 -0.555570 -0.000000 128 128 255 0.203157 0.083642 -0.975567
-0.707107 -0.707107 0.000000 128 128 255 0.003027 0.055692 -0.998443
-0.550423 -0.550423 0.016736 128 128 255 -0.021204 0.155655 -0.987584
-0.408801 -0.408801 0.039957 128 128 255 -0.095593 0.318626 -0.943048
-0.304503 -0.304503 0.073657 128 128 255 -0.115475 0.532138 -0.838746
-0.248416 -0.248416 0.118016 128 128 255 0.088361 0.800261 -0.593106
-0.239592 -0.239592 0.169620 128 128 255 0.625061 0.737899 0.254567
-0.268318 -0.268318 0.222730 128 128 255 0.575049 0.350434 0.739267
-0.320443 -0.320443 0.270840 128 128 255 0.402596 0.254558 0.879271
-0.381205 -0.381205 0.307960 128 128 255 0.244403 0.217003 0.945080
-0.437801 -0.437801 0.329435 128 128 255 0.091055 0.136199 0.986488
-0.480729 -0.480729 0.332325 128 128 255 -0.125491 -0.101469 0.986892
-0.504215 -0.504215 0.315486 128 128 255 -0.489600 -0.674526 0.552545
-0.506096 -0.506096 0.279454 128 128 255 -0.517010 -0.820636 -0.243428
-0.487393 -0.487393 0.226240 128 128 255 -0.447912 -0.725698 -0.522242
-0.451747 -0.451747 0.159065 128 128 255 -0.435528 -0.653674 -0.618891
-0.404800 -0.404800 0.082066 128 128 255 -0.467524 -0.595101 -0.653664
-0.353553 -0.353553 0.000000 128 128 255 -0.538035 -0.536816 -0.649882
-0.305720 -0.305720 -0.082066 128 128 255 -0.643513 -0.475748 -0.599629
-0.269077 -0.269077 -0.159065 128 128 255 -0.773385 -0.428655 -0.467044
-0.250817 -0.250817 -0.226240 128 128 255 -0.887276 -0.438936 -0.141690
-0.256878 -0.256878 -0.279454 128 128 255 -0.710131 -0.445994 0.544796
-0.291277 -0.291277 -0.315486 128 128 255 -0.217994 -0.251027 0.943114
-0.355420 -0.355420 -0.332325 128 128 255 0.002830 -0.070555 0.997504
-0.447440 -0.447440 -0.329435 128 128 255 0.067881 0.061745 0.995781
-0.561604 -0.561604 -0.307960 128 128 255 0.084620 0.161323 0.983267
-0.687941 -0.687941 -0.270840 128 128 255 0.093794 0.237702 0.966799
-0.812341 -0.812341 -0.222730 128 128 255 0.115180 0.302311 0.946225
-0.917499 -0.917499 -0.169620 128 128 255 0.173482 0.375686 0.910365
-0.985147 -0.985147 -0.118016 128 128 255 0.362864 0.525433 0.769578
-0.999803 -0.999803 -0.073657 128 128 255 0.688870 0.531529 -0.492885
-0.953561 -0.953561 -0.039957 128 128 255 0.279487 0.081713 -0.956666
-0.850333 -0.850333 -0.016736 128 128 255 0.141375 0.017893 -0.989794
-0.707107 -0.707107 -0.000000 128 128 255 0.108746 0.052758 -0.992669
-0.555570 -0.831470 0.000000 128 128 255 -0.057876 -0.024271 -0.998029
-0.432121 -0.646714 -0.004131 128 128 255 -0.101623 0.074904 -0.991999
-0.320048 -0.478985 0.002008 128 128 255 -0.199564 0.231663 -0.952106
-0.236551 -0.354023 0.025112 128 128 255 -0.249707 0.455276 -0.854617
-0.190146 -0.284573 0.066386 128 128 255 -0.082984 0.777283 -0.623655
-0.180292 -0.269826 0.121819 128 128 255 0.467431 0.872842 0.140195
-0.199717 -0.298897 0.183952 128 128 255 0.538081 0.549308 0.639320
-0.237717 -0.355769 0.244065 128 128 255 0.402210 0.435305 0.805442
-0.283082 -0.423662 0.293974 128 128 255 0.259202 0.376662 0.889348
-0.326057 -0.487979 0.327180 128 128 255 0.130095 0.279330 0.951341
-0.359372 -0.537839 0.339410 128 128 255 -0.026907 0.020770 0.999422
-0.378577 -0.566580 0.328725 128 128 255 -0.300935 -0.680600 0.667998
-0.381948 -0.571626 0.295381 128 128 255 -0.347715 -0.924185 -0.158041
-0.370175 -0.554005 0.241548 128 128 255 -0.315168 -0.837262 -0.446834
-0.345928 -0.517717 0.170960 128 128 255 -0.325991 -0.772286 -0.545256
-0.313393 -0.469026 0.088538 128 128 255 -0.374117 -0.724318 -0.579137
-0.277785 -0.415735 0.000000 128 128 255 -0.456452 -0.681330 -0.572224
-0.244859 -0.366457 -0.088538 128 128 255 -0.568137 -0.640475 -0.516732
-0.220420 -0.329882 -0.170960 128 128 255 -0.692981 -0.614613 -0.376866
-0.209833 -0.314037 -0.241548 128 128 255 -0.779062 -0.625324 -0.045078
-0.217517 -0.325537 -0.295381 128 128 255 -0.581863 -0.541790 0.606547
-0.246437 -0.368819 -0.328725 128 128 255 -0.143328 -0.228737 0.962879
-0.297586 -0.445369 -0.339410 128 128 255 0.044154 -0.003730 0.999018
-0.369473 -0.552955 -0.327180 128 128 255 0.088392 0.137860 0.986500
-0.457678 -0.684964 -0.293974 128 128 255 0.088454 0.236445 0.967610
-0.554565 -0.829965 -0.244065 128 128 255 0.082654 0.310194 0.947073
-0.649352 -0.971824 -0.183952 128 128 255 0.088541 0.373480 0.923403
-0.728828 -1.090769 -0.121819 128 128 255 0.125367 0.449091 0.884647
-0.779058 -1.165943 -0.066386 128 128 255 0.267740 0.616262 0.740632
-0.788236 -1.179678 -0.025112 128 128 255 0.532129 0.576251 -0.620301
-0.750353 -1.122983 -0.002008 128 128 255 0.189636 0.030202 -0.981390
-0.668446 -1.000401 0.004131 128 128 255 0.074924 -0.044617 -0.996191
-0.555570 -0.831470 0.000000 128 128 255 0.036284 -0.010124 -0.999290
-0.382683 -0.923880 0.000000 128 128 255 -0.085364 -0.122388 -0.988804
-0.298197 -0.719911 -0.024958 128 128 255 -0.149083 -0.028548 -0.988413
-0.221091 -0.533761 -0.035960 128 128 255 -0.270080 0.117810 -0.955603
-0.162912 -0.393304 -0.023675 128 128 255 -0.353237 0.346478 -0.869009
-0.129461 -0.312547 0.014116 128 128 255 -0.235172 0.717413 -0.655754
-0.120528 -0.290979 0.072844 128 128 255 0.283763 0.958267 0.034673
-0.131413 -0.317259 0.143403 128 128 255 0.437794 0.724402 0.532520
-0.155113 -0.374476 0.214939 128 128 255 0.338862 0.607172 0.718689
-0.184253 -0.444826 0.277157 128 128 255 0.213742 0.534508 0.817689
-0.212392 -0.512759 0.321775 128 128 255 0.109831 0.429370 0.896425
-0.234706 -0.566631 0.343226 128 128 255 0.014453 0.172482 0.984907
-0.248219 -0.599253 0.338798 128 128 255 -0.123872 -0.616737 0.777362
-0.251738 -0.607750 0.308464 128 128 255 -0.154052 -0.985710 -0.068149
-0.245654 -0.593062 0.254529 128 128 255 -0.152205 -0.917778 -0.366765
-0.231658 -0.559273 0.181208 128 128 255 -0.182859 -0.865471 -0.466394
-0.212434 -0.512862 0.094157 128 128 255 -0.244091 -0.831487 -0.499049
-0.191342 -0.461940 0.000000 128 128 255 -0.334756 -0.805477 -0.489025
-0.172096 -0.415477 -0.094157 128 128 255 -0.448561 -0.784139 -0.428858
-0.158449 -0.382529 -0.181208 128 128 255 -0.565313 -0.774727 -0.283230
-0.153862 -0.371455 -0.254529 128 128 255 -0.629461 -0.775390 0.050500
-0.161181 -0.389124 -0.308464 128 128 255 -0.443727 -0.602514 0.663388
-0.182298 -0.440107 -0.338798 128 128 255 -0.084603 -0.189095 0.978307
-0.217814 -0.525850 -0.343226 128 128 255 0.059707 0.073470 0.995508
-0.266698 -0.643865 -0.321775 128 128 255 0.080942 0.220968 0.971916
-0.325991 -0.787013 -0.277157 128 128 255 0.064692 0.315781 0.946624
-0.390620 -0.943041 -0.214939 128 128 255 0.044970 0.384029 0.922225
-0.453436 -1.094691 -0.143403 128 128 255 0.036630 0.442586 0.895978
-0.505685 -1.220833 -0.072844 128 128 255 0.053591 0.515208 0.855388
-0.538138 -1.299180 -0.014116 128 128 255 0.150071 0.687466 0.710542
-0.542973 -1.310854 0.023675 128 128 255 0.375370 0.550775 -0.745483
-0.516214 -1.246251 0.035960 128 128 255 0.132258 -0.051901 -0.989856
-0.459887 -1.110265 0.024958 128 128 255 0.040635 -0.129024 -0.990809
-0.382683 -0.923880 0.000000 128 128 255 -0.005216 -0.096182 -0.995350
-0.195090 -0.980785 0.000000 128 128 255 -0.075273 -0.227591 -0.970843
-0.152695 -0.767650 -0.045545 128 128 255 -0.158244 -0.143903 -0.976858
-0.113761 -0.571915 -0.073582 128 128 255 -0.300995 -0.012293 -0.953546
-0.083971 -0.422151 -0.072234 128 128 255 -0.419053 0.215656 -0.881979
-0.066230 -0.332963 -0.038289 128 128 255 -0.360512 0.628242 -0.689451
-0.060524 -0.304276 0.023168 128 128 255 0.090321 0.993923 -0.062917
-0.064647 -0.325001 0.101472 128 128 255 0.287763 0.859393 0.422654
-0.075255 -0.378332 0.183744 128 128 255 0.220335 0.750882 0.622598
-0.088806 -0.446456 0.257670 128 128 255 0.112741 0.670438 0.733350
-0.102190 -0.513743 0.313271 128 128 255 0.031662 0.564560 0.824785
-0.113068 -0.568433 0.343737 128 128 255 -0.008867 0.328429 0.944487
-0.119981 -0.603187 0.345609 128 128 255 0.016131 -0.486621 0.873464
-0.122325 -0.614971 0.318576 128 128 255 0.052654 -0.998273 0.026041
-0.120254 -0.604556 0.265059 128 128 255 0.032551 -0.958736 -0.282428
-0.114543 -0.575849 0.189711 128 128 255 -0.013431 -0.923718 -0.382838
-0.106448 -0.535150 0.098870 128 128 255 -0.084200 -0.906348 -0.414057
-0.097545 -0.490393 0.000000 128 128 255 -0.179660 -0.898249 -0.401087
-0.089584 -0.450369 -0.098870 128 128 255 -0.292241 -0.895011 -0.336973
-0.084331 -0.423963 -0.189711 128 128 255 -0.399857 -0.897237 -0.187297
-0.083418 -0.419370 -0.265059 128 128 255 -0.451025 -0.880813 0.144030
-0.088179 -0.443305 -0.318576 128 128 255 -0.304941 -0.628623 0.715433
-0.099494 -0.500192 -0.345609 128 128 255 -0.045626 -0.137409 0.989463
-0.117625 -0.591339 -0.343737 128 128 255 0.047396 0.153421 0.987024
-0.142048 -0.714122 -0.313271 128 128 255 0.044132 0.302728 0.952055
-0.171315 -0.861258 -0.257670 128 128 255 0.012460 0.390959 0.920324
-0.202958 -1.020337 -0.183744 128 128 255 -0.019558 0.451091 0.892264
-0.233506 -1.173916 -0.101472 128 128 255 -0.040136 0.501983 0.863946
-0.258716 -1.300655 -0.023168 128 128 255 -0.040287 0.567226 0.822577
-0.274109 -1.378037 0.038289 128 128 255 0.014373 0.733561 0.679471
-0.275886 -1.386974 0.072234 128 128 255 0.244740 0.452077 -0.857746
-0.262114 -1.317735 0.073582 128 128 255 0.116112 -0.150785 -0.981724
-0.233773 -1.175254 0.045545 128 128 255 0.044097 -0.223392 -0.973731
-0.195090 -0.980785 0.000000 128 128 255 -0.009861 -0.194264 -0.980900
-0.000000 -1.000000 0.000000 128 128 255 -0.026833 -0.328043 -0.944282
-0.000000 -0.788154 -0.065693 128 128 255 -0.127058 -0.259268 -0.957411
-0.000000 -0.592163 -0.110495 128 128 255 -0.289344 -0.146751 -0.945909
-0.000000 -0.439870 -0.120097 128 128 255 -0.443171 0.074108 -0.893368
-0.000000 -0.345805 -0.090326 128 128 255 -0.454052 0.518670 -0.724443
-0.000000 -0.310412 -0.026732 128 128 255 -0.099504 0.983125 -0.153505
-0.000000 -0.323506 0.058564 128 128 255 0.104573 0.944121 0.312571
-0.000000 -0.369310 0.150779 128 128 255 0.059755 0.851805 0.520440
-0.000000 -0.430964 0.235702 128 128 255 -0.032787 0.767988 0.639624
-0.000000 -0.493594 0.301750 128 128 255 -0.095455 0.665850 0.739954
-0.000000 -0.545933 0.340937 128 128 255 -0.093803 0.463028 0.881366
-0.000000 -0.580876 0.349091 128 128 255 0.094590 -0.305631 0.947440
-0.000000 -0.595372 0.325620 128 128 255 0.258862 -0.957900 0.124166
-0.000000 -0.589965 0.273036 128 128 255 0.228262 -0.954014 -0.194300
-0.000000 -0.568163 0.196387 128 128 255 0.172345 -0.939765 -0.295192
-0.000000 -0.535736 0.102630 128 128 255 0.095991 -0.940871 -0.324881
-0.000000 -0.500000 0.000000 128 128 255 -0.000822 -0.950978 -0.309257
-0.000000 -0.469091 -0.102630 128 128 255 -0.109647 -0.964044 -0.242069
-0.000000 -0.451237 -0.196387 128 128 255 -0.208826 -0.973785 -0.090196
-0.000000 -0.454021 -0.273036 128 128 255 -0.257504 -0.937349 0.234668
-0.000000 -0.483637 -0.325620 128 128 255 -0.173932 -0.622837 0.762773
-0.000000 -0.544120 -0.349091 128 128 255 -0.028703 -0.079819 0.996396
-0.000000 -0.636560 -0.340937 128 128 255 0.007189 0.228131 0.973604
-0.000000 -0.758327 -0.301750 128 128 255 -0.021142 0.374619 0.926938
-0.000000 -0.902369 -0.235702 128 128 255 -0.066764 0.453550 0.888727
-0.000000 -1.056761 -0.150779 128 128 255 -0.108937 0.503331 0.857199
-0.000000 -1.204777 -0.058564 128 128 255 -0.139199 0.544237 0.827302
-0.000000 -1.325961 0.026732 128 128 255 -0.152862 0.598777 0.786193
-0.000000 -1.398716 0.090326 128 128 255 -0.133523 0.750177 0.647615
-0.000000 -1.404697 0.120097 128 128 255 0.168392 0.291390 -0.941667
-0.000000 -1.334507 0.110495 128 128 255 0.144634 -0.250440 -0.957267
-0.000000 -1.192814 0.065693 128 128 255 0.086844 -0.314612 -0.945239
-0.000000 -1.000000 0.000000 128 128 255 0.024566 -0.291932 -0.956124
0.195090 -0.980785 0.000000 128 128 255 0.057241 -0.412139 -0.909321
0.155207 -0.780281 -0.085209 128 128 255 -0.056942 -0.362624 -0.930194
0.117987 -0.593160 -0.146345 128 128 255 -0.235544 -0.273325 -0.932637
0.088564 -0.445242 -0.166804 128 128 255 -0.424852 -0.066360 -0.902827
0.069685 -0.350330 -0.141492 128 128 255 -0.513681 0.398011 -0.760079
0.061547 -0.309416 -0.076374 128 128 255 -0.275307 0.931469 -0.237850
0.062407 -0.313741 0.015093 128 128 255 -0.094525 0.974334 0.204301
0.069489 -0.349342 0.116362 128 128 255 -0.126672 0.900959 0.415002
0.079791 -0.401138 0.211464 128 128 255 -0.207562 0.815953 0.539573
0.090650 -0.455727 0.287323 128 128 255 -0.256919 0.719233 0.645520
0.100029 -0.502882 0.334854 128 128 255 -0.227970 0.554888 0.800080
0.106631 -0.536068 0.349212 128 128 255 0.094308 -0.101495 0.990356
0.109872 -0.552365 0.329528 128 128 255 0.449511 -0.864311 0.225626
0.109812 -0.552060 0.278384 128 128 255 0.422352 -0.900566 -0.102958
0.107033 -0.538090 0.201172 128 128 255 0.362570 -0.909326 -0.204131
0.102523 -0.515418 0.105402 128 128 255 0.284842 -0.930002 -0.232294
0.097545 -0.490393 0.000000 128 128 255 0.189956 -0.958091 -0.214424
0.093509 -0.470101 -0.105402 128 128 255 0.086671 -0.985607 -0.145147
0.091842 -0.461722 -0.201172 128 128 255 -0.006010 -0.999957 0.007001
0.093860 -0.471866 -0.278384 128 128 255 -0.062642 -0.944760 0.321721
0.100632 -0.505911 -0.329528 128 128 255 -0.057843 -0.589797 0.805478
0.112845 -0.567311 -0.349212 128 128 255 -0.034444 -0.022897 0.999144
0.130664 -0.656890 -0.334854 128 128 255 -0.058825 0.289781 0.955284
0.153588 -0.772139 -0.287323 128 128 255 -0.111687 0.428551 0.896588
0.180329 -0.906576 -0.211464 128 128 255 -0.169195 0.495700 0.851854
0.208724 -1.049327 -0.116362 128 128 255 -0.218948 0.533384 0.817046
0.235746 -1.185176 -0.015093 128 128 255 -0.255948 0.562700 0.786040
0.257694 -1.295515 0.076374 128 128 255 -0.279029 0.604413 0.746209
0.270654 -1.360671 0.141492 128 128 255 -0.286754 0.734363 0.615209
0.271293 -1.363883 0.166804 128 128 255 0.167607 0.098757 -0.980895
0.257888 -1.296490 0.146345 128 128 255 0.215520 -0.334715 -0.917342
0.231260 -1.162624 0.085209 128 128 255 0.166203 -0.389736 -0.905805
0.195090 -0.980785 0.000000 128 128 255 0.096383 -0.376634 -0.921334
0.382683 -0.923880 0.000000 128 128 255 0.170952 -0.469496 -0.866227
0.308006 -0.743592 -0.103903 128 128 255 0.047311 -0.442806 -0.895368
0.237590 -0.573592 -0.180784 128 128 255 -0.143353 -0.380366 -0.913658
0.180844 -0.436597 -0.211904 128 128 255 -0.366553 -0.194324 -0.909877
0.142948 -0.345108 -0.191296 128 128 255 -0.539938 0.275182 -0.795450
0.124519 -0.300616 -0.125280 128 128 255 -0.429462 0.845809 -0.316497
0.122668 -0.296147 -0.028525 128 128 255 -0.293333 0.950847 0.099230
0.132600 -0.320124 0.080825 128 128 255 -0.321833 0.895111 0.308544
0.149059 -0.359860 0.185190 128 128 255 -0.394291 0.809052 0.435856
0.167336 -0.403984 0.270128 128 128 255 -0.434927 0.716962 0.544798
0.183799 -0.443730 0.325546 128 128 255 -0.392649 0.589849 0.705624
0.196094 -0.473413 0.345969 128 128 255 0.012087 0.089630 0.995902
0.203118 -0.490370 0.330262 128 128 255 0.608946 -0.721548 0.329475
0.204886 -0.494638 0.281050 128 128 255 0.601369 -0.798919 -0.009093
0.202335 -0.488479 0.204019 128 128 255 0.544284 -0.831604 -0.110406
0.197110 -0.475866 0.107159 128 128 255 0.469565 -0.872185 -0.137122
0.191342 -0.461940 0.000000 128 128 255 0.379712 -0.917611 -0.117508
0.187421 -0.452473 -0.107159 128 128 255 0.283179 -0.957905 -0.047206
0.187772 -0.453323 -0.204019 128 128 255 0.194454 -0.975459 0.103285
0.194630 -0.469879 -0.281050 128 128 255 0.120872 -0.906457 0.404631
0.209801 -0.506504 -0.330262 128 128 255 0.037874 -0.535634 0.843600
0.234423 -0.565948 -0.345969 128 128 255 -0.061690 0.026799 0.997736
0.268721 -0.648751 -0.325546 128 128 255 -0.146527 0.331265 0.932091
0.311754 -0.752640 -0.270128 128 128 255 -0.222177 0.457456 0.861029
0.361185 -0.871979 -0.185190 128 128 255 -0.288940 0.510738 0.809729
0.413134 -0.997394 -0.080825 128 128 255 -0.343370 0.535159 0.771817
0.462180 -1.115802 0.028525 128 128 255 -0.383965 0.552043 0.740148
0.501694 -1.211196 0.125280 128 128 255 -0.412225 0.580037 0.702586
0.524651 -1.266619 0.191296 128 128 255 -0.437770 0.684834 0.582545
0.525041 -1.267561 0.211904 128 128 255 0.245602 -0.081531 -0.965936
0.499715 -1.206419 0.180784 128 128 255 0.321107 -0.389354 -0.863304
0.450078 -1.086584 0.103903 128 128 255 0.275560 -0.437279 -0.856069
0.382683 -0.923880 0.000000 128 128 255 0.200161 -0.436881 -0.876967
0.555570 -0.831470 0.000000 128 128 255 0.305495 -0.491849 -0.815326
0.453310 -0.678426 -0.121598 128 128 255 0.177907 -0.490411 -0.853139
0.355688 -0.532324 -0.213483 128 128 255 -0.019569 -0.457692 -0.888896
0.275288 -0.411997 -0.254963 128 128 255 -0.273655 -0.299575 -0.913984
0.219280 -0.328176 -0.239258 128 128 255 -0.535591 0.158054 -0.829555
0.188914 -0.282730 -0.172980 128 128 255 -0.556732 0.733547 -0.389818
0.180827 -0.270626 -0.071867 128 128 255 -0.477823 0.878455 -0.001738
0.189084 -0.282984 0.044509 128 128 255 -0.509514 0.836217 0.202822
0.207057 -0.309883 0.157132 128 128 255 -0.575758 0.747771 0.330669
0.228729 -0.342316 0.250333 128 128 255 -0.610905 0.657744 0.440644
0.249404 -0.373260 0.313102 128 128 255 -0.566369 0.562086 0.602731
0.265978 -0.398065 0.339395 128 128 255 -0.138020 0.231954 0.962885
0.276921 -0.414441 0.327816 128 128 255 0.722140 -0.538440 0.434276
0.282108 -0.422204 0.281010 128 128 255 0.752016 -0.653449 0.086467
0.282584 -0.422916 0.204901 128 128 255 0.704500 -0.709549 -0.014841
0.280290 -0.419484 0.107884 128 128 255 0.637274 -0.769586 -0.040240
0.277785 -0.415735 0.000000 128 128 255 0.555417 -0.831345 -0.019450
0.277962 -0.415999 -0.107884 128 128 255 0.466511 -0.883057 0.050772
0.283764 -0.424683 -0.204901 128 128 255 0.379254 -0.903919 0.197729
0.297900 -0.445839 -0.281010 128 128 255 0.282266 -0.828909 0.482945
0.322545 -0.482722 -0.327816 128 128 255 0.109724 -0.467458 0.877179
0.359036 -0.537335 -0.339395 128 128 255 -0.107543 0.063197 0.992190
0.407554 -0.609948 -0.313102 128 128 255 -0.249981 0.346708 0.904048
0.466801 -0.698618 -0.250333 128 128 255 -0.345465 0.455837 0.820284
0.533703 -0.798743 -0.157132 128 128 255 -0.418354 0.493719 0.762379
0.603199 -0.902750 -0.044509 128 128 255 -0.474360 0.504355 0.721532
0.668242 -1.000094 0.071867 128 128 255 -0.515395 0.508726 0.689613
0.720206 -1.077865 0.172980 128 128 255 -0.544800 0.523275 0.655269
0.749924 -1.122340 0.239258 128 128 255 -0.578743 0.602131 0.549995
0.749499 -1.121704 0.254963 128 128 255 0.383289 -0.206935 -0.900149
0.714713 -1.069644 0.213483 128 128 255 0.449465 -0.403692 -0.796878
0.647257 -0.968689 0.121598 128 128 255 0.405026 -0.448361 -0.796823
0.555570 -0.831470 0.000000 128 128 255 0.327217 -0.463320 -0.823567
0.707107 -0.707107 0.000000 128 128 255 0.449967 -0.473776 -0.757011
0.585976 -0.585976 -0.138121 128 128 255 0.324649 -0.498582 -0.803753
0.468601 -0.468601 -0.244126 128 128 255 0.126486 -0.497348 -0.858281
0.369499 -0.369499 -0.295567 128 128 255 -0.153963 -0.373824 -0.914632
0.297299 -0.297299 -0.284916 128 128 255 -0.505048 0.053026 -0.861461
0.254059 -0.254059 -0.219014 128 128 255 -0.653834 0.602219 -0.458075
0.236623 -0.236623 -0.114517 128 128 255 -0.636738 0.764822 -0.098040
0.238842 -0.238842 0.007764 128 128 255 -0.675727 0.730451 0.099167
0.253644 -0.253644 0.127561 128 128 255 -0.736539 0.637612 0.225748
0.274496 -0.274496 0.228126 128 128 255 -0.767612 0.546159 0.335383
0.296215 -0.296215 0.297644 128 128 255 -0.728136 0.473663 0.495441
0.315288 -0.315288 0.329551 128 128 255 -0.327873 0.300032 0.895813
0.329872 -0.329872 0.322213 128 128 255 0.776224 -0.328774 0.537945
0.339627 -0.339627 0.278264 128 128 255 0.862256 -0.472357 0.182741
0.345463 -0.345463 0.203811 128 128 255 0.831295 -0.549800 0.081663
0.349257 -0.349257 0.107570 128 128 255 0.776080 -0.628013 0.057438
0.353553 -0.353553 0.000000 128 128 255 0.705074 -0.704742 0.078797
0.361263 -0.361263 -0.107570 128 128 255 0.624585 -0.766837 0.147830
0.375361 -0.375361 -0.203811 128 128 255 0.536944 -0.792395 0.289483
0.398583 -0.398583 -0.278264 128 128 255 0.413322 -0.720896 0.556304
0.433102 -0.433102 -0.322213 128 128 255 0.156312 -0.392802 0.906241
0.480204 -0.480204 -0.329551 128 128 255 -0.167530 0.081148 0.982521
0.539934 -0.539934 -0.297644 128 128 255 -0.361790 0.331912 0.871173
0.610746 -0.610746 -0.228126 128 128 255 -0.473026 0.420217 0.774380
0.689165 -0.689165 -0.127561 128 128 255 -0.548534 0.441862 0.709836
0.769542 -0.769542 -0.007764 128 128 255 -0.602953 0.438875 0.666211
0.844036 -0.844036 0.114517 128 128 255 -0.641436 0.431364 0.634417
0.903032 -0.903032 0.219014 128 128 255 -0.668456 0.433741 0.604181
0.936263 -0.936263 0.284916 128 128 255 -0.702004 0.488686 0.518051
0.934807 -0.934807 0.295567 128 128 255 0.547565 -0.253035 -0.797588
0.893761 -0.893761 0.244126 128 128 255 0.585962 -0.371784 -0.720017
0.814780 -0.814780 0.138121 128 128 255 0.542413 -0.417584 -0.728980
0.707107 -0.707107 0.000000 128 128 255 0.466401 -0.449614 -0.761786
0.831470 -0.555570 0.000000 128 128 255 0.592262 -0.413194 -0.691734
0.700939 -0.468353 -0.153314 128 128 255 0.475740 -0.463585 -0.747503
0.572116 -0.382276 -0.272418 128 128 255 0.283669 -0.494196 -0.821768
0.460173 -0.307478 -0.333324 128 128 255 -0.017057 -0.411225 -0.911374
0.374616 -0.250311 -0.327830 128 128 255 -0.453737 -0.035162 -0.890442
0.318429 -0.212767 -0.262938 128 128 255 -0.719106 0.459288 -0.521480
0.289292 -0.193299 -0.156065 128 128 255 -0.761829 0.619484 -0.189354
0.281719 -0.188238 -0.029056 128 128 255 -0.809542 0.587060 -0.001440
0.289091 -0.193164 0.096762 128 128 255 -0.864245 0.487948 0.122420
0.305133 -0.203883 0.203723 128 128 255 -0.890737 0.391547 0.230821
0.324745 -0.216987 0.279319 128 128 255 -0.859830 0.333117 0.386943
0.344349 -0.230087 0.316534 128 128 255 -0.523495 0.284587 0.803096
0.361921 -0.241828 0.313507 128 128 255 0.762333 -0.110990 0.637596
0.376848 -0.251802 0.272838 128 128 255 0.922457 -0.267327 0.278586
0.389696 -0.260387 0.200757 128 128 255 0.914873 -0.362320 0.178132
0.401950 -0.268575 0.106219 128 128 255 0.876117 -0.456513 0.154965
0.415735 -0.277785 0.000000 128 128 255 0.818732 -0.546447 0.176279
0.433533 -0.289677 -0.106219 128 128 255 0.747573 -0.618112 0.243048
0.457904 -0.305961 -0.200757 128 128 255 0.658767 -0.650619 0.377783
0.491195 -0.328206 -0.272838 128 128 255 0.508771 -0.592669 0.624417
0.535242 -0.357637 -0.313507 128 128 255 0.178335 -0.319061 0.930804
0.591051 -0.394927 -0.316534 128 128 255 -0.235881 0.076832 0.968740
0.658462 -0.439971 -0.279319 128 128 255 -0.473553 0.284708 0.833480
0.735801 -0.491647 -0.203723 128 128 255 -0.595523 0.349469 0.723342
0.819535 -0.547596 -0.096762 128 128 255 -0.669918 0.354854 0.652141
0.904016 -0.604044 0.029056 128 128 255 -0.719668 0.339097 0.605880
0.981428 -0.655770 0.156065 128 128 255 -0.752920 0.320963 0.574538
1.042166 -0.696353 0.262938 128 128 255 -0.774764 0.313203 0.549222
1.075900 -0.718893 0.327830 128 128 255 -0.800495 0.348793 0.487392
1.073528 -0.717309 0.333324 128 128 255 0.704906 -0.217655 -0.675081
1.029852 -0.688125 0.272418 128 128 255 0.715056 -0.292870 -0.634762
0.946176 -0.632214 0.153314 128 128 255 0.674431 -0.343541 -0.653547
0.831470 -0.555570 0.000000 128 128 255 0.605116 -0.393033 -0.692358
0.923880 -0.382683 0.000000 128 128 255 0.720070 -0.311586 -0.620011
0.793381 -0.328629 -0.167030 128 128 255 0.618717 -0.385149 -0.684726
0.661595 -0.274041 -0.298086 128 128 255 0.439835 -0.446293 -0.779338
0.543143 -0.224977 -0.367872 128 128 255 0.126454 -0.408691 -0.903870
0.447814 -0.185491 -0.367586 128 128 255 -0.387549 -0.103403 -0.916031
0.379566 -0.157221 -0.304331 128 128 255 -0.752306 0.312037 -0.580231
0.337429 -0.139768 -0.196109 128 128 255 -0.847867 0.452995 -0.275528
0.317325 -0.131440 -0.065595 128 128 255 -0.903488 0.417192 -0.098289
0.313877 -0.130012 0.065030 128 128 255 -0.950258 0.310711 0.021667
0.321749 -0.133273 0.177357 128 128 255 -0.969975 0.206614 0.128294
0.336436 -0.139356 0.258304 128 128 255 -0.947738 0.153660 0.279608
0.354616 -0.146887 0.300469 128 128 255 -0.693716 0.191961 0.694196
0.374219 -0.155007 0.301781 128 128 255 0.677670 0.092871 0.729478
0.394330 -0.163337 0.264785 128 128 255 0.926450 -0.052839 0.372691
0.415010 -0.171903 0.195770 128 128 255 0.948511 -0.159712 0.273532
0.437089 -0.181048 0.103846 128 128 255 0.930428 -0.266678 0.251370
0.461940 -0.191342 0.000000 128 128 255 0.889319 -0.367562 0.272047
0.491250 -0.203482 -0.103846 128 128 255 0.828663 -0.448024 0.335548
0.526792 -0.218205 -0.195770 128 128 255 0.739213 -0.490074 0.461943
0.570188 -0.236179 -0.264785 128 128 255 0.566455 -0.455070 0.687052
0.622655 -0.257912 -0.301781 128 128 255 0.178432 -0.252957 0.950881
0.684744 -0.283630 -0.300469 128 128 255 -0.305896 0.048068 0.950851
0.756046 -0.313164 -0.258304 128 128 255 -0.576412 0.205193 0.790977
0.834875 -0.345816 -0.177357 128 128 255 -0.703431 0.244999 0.667203
0.917962 -0.380232 -0.065030 128 128 255 -0.772951 0.234996 0.589341
1.000193 -0.414293 0.065595 128 128 255 -0.815179 0.207993 0.540575
1.074521 -0.445081 0.196109 128 128 255 -0.840944 0.181008 0.509950
1.132246 -0.468992 0.304331 128 128 255 -0.855699 0.165615 0.490256
1.163913 -0.482108 0.367586 128 128 255 -0.868208 0.188503 0.459001
1.161015 -0.480908 0.367872 128 128 255 0.829979 -0.114061 -0.546008
1.118417 -0.463263 0.298086 128 128 255 0.822016 -0.171197 -0.543122
1.036794 -0.429454 0.167030 128 128 255 0.787951 -0.228934 -0.571597
0.923880 -0.382683 0.000000 128 128 255 0.730456 -0.294719 -0.616097
0.980785 -0.195090 0.000000 128 128 255 0.821908 -0.173933 -0.542415
0.858929 -0.170852 -0.179138 128 128 255 0.741447 -0.266533 -0.615806
0.732169 -0.145637 -0.320883 128 128 255 0.582729 -0.355039 -0.731009
0.613541 -0.122041 -0.398876 128 128 255 0.265695 -0.365983 -0.891887
0.512565 -0.101955 -0.403803 128 128 255 -0.312420 -0.150075 -0.938015
0.434125 -0.086353 -0.342793 128 128 255 -0.754546 0.167442 -0.634527
0.378949 -0.075378 -0.234265 128 128 255 -0.892523 0.276221 -0.356519
0.344922 -0.068609 -0.101503 128 128 255 -0.953600 0.232839 -0.190876
0.328503 -0.065343 0.032672 128 128 255 -0.989992 0.119045 -0.075791
0.325829 -0.064811 0.149284 128 128 255 -0.999569 0.005927 0.028743
0.333399 -0.066317 0.234801 128 128 255 -0.983346 -0.048699 0.175099
0.348417 -0.069304 0.281510 128 128 255 -0.815520 0.039347 0.577390
0.368892 -0.073377 0.287149 128 128 255 0.527435 0.259262 0.809071
0.393613 -0.078294 0.254181 128 128 255 0.872412 0.154866 0.463588
0.422038 -0.083948 0.188898 128 128 255 0.929282 0.043733 0.366773
0.454166 -0.090339 0.100473 128 128 255 0.935613 -0.071715 0.345667
0.490393 -0.097545 0.000000 128 128 255 0.913231 -0.180715 0.365173
0.531353 -0.105693 -0.100473 128 128 255 0.864539 -0.269016 0.424503
0.577774 -0.114926 -0.188898 128 128 255 0.776285 -0.322984 0.541353
0.630313 -0.125377 -0.254181 128 128 255 0.587257 -0.318684 0.744022
0.689383 -0.137127 -0.287149 128 128 255 0.160912 -0.200065 0.966479
0.754962 -0.150171 -0.281510 128 128 255 -0.370401 -0.005468 0.928856
0.826373 -0.164376 -0.234801 128 128 255 -0.661645 0.095810 0.743671
0.902037 -0.179426 -0.149284 128 128 255 -0.787716 0.110762 0.605999
0.979211 -0.194777 -0.032672 128 128 255 -0.848788 0.087176 0.521496
1.053748 -0.209603 0.101503 128 128 255 -0.881006 0.051074 0.470341
1.119968 -0.222776 0.234265 128 128 255 -0.897521 0.017391 0.440628
1.170806 -0.232888 0.342793 128 128 255 -0.904197 -0.002981 0.427105
1.198436 -0.238384 0.403803 128 128 255 -0.900595 0.015445 0.434386
1.195583 -0.237816 0.398876 128 128 255 0.907372 0.037737 -0.418630
1.157481 -0.230237 0.320883 128 128 255 0.894408 -0.015318 -0.446990
1.083976 -0.215616 0.179138 128 128 255 0.871242 -0.080306 -0.484240
0.980785 -0.195090 0.000000 128 128 255 0.830365 -0.159596 -0.533875
1.000000 -0.000000 0.000000 128 128 255 0.869300 -0.085619 -0.486813
0.893867 -0.000000 -0.189521 128 128 255 0.822297 -0.155706 -0.547342
0.779009 -0.000000 -0.340590 128 128 255 0.698466 -0.261152 -0.666292
0.666087 -0.000000 -0.426039 128 128 255 0.427346 -0.319372 -0.845800
0.563870 -0.000000 -0.436130 128 128 255 -0.144394 -0.197026 -0.969707
0.478038 -0.000000 -0.377953 128 128 255 -0.689339 0.082265 -0.719753
0.411154 -0.000000 -0.270165 128 128 255 -0.876866 0.203431 -0.435571
0.363368 -0.000000 -0.136433 128 128 255 -0.947556 0.175097 -0.267357
0.333333 -0.000000 0.000000 128 128 255 -0.985910 0.063911 -0.154587
0.318994 -0.000000 0.119772 128 128 255 -0.996325 -0.065912 -0.054691
0.318126 -0.000000 0.209037 128 128 255 -0.985843 -0.150110 0.074708
0.328648 -0.000000 0.259840 128 128 255 -0.914767 -0.109197 0.388943
0.348761 -0.000000 0.269752 128 128 255 0.204414 0.295997 0.933060
0.376991 -0.000000 0.241129 128 128 255 0.785390 0.281435 0.551323
0.412173 -0.000000 0.180206 128 128 255 0.882409 0.180505 0.434479
0.453405 -0.000000 0.096133 128 128 255 0.911803 0.064088 0.405596
0.500000 -0.000000 0.000000 128 128 255 0.907095 -0.052528 0.417635
0.551421 -0.000000 -0.096133 128 128 255 0.871757 -0.152525 0.465592
0.607226 -0.000000 -0.180206 128 128 255 0.795923 -0.222230 0.563134
0.666995 -0.000000 -0.241129 128 128 255 0.630404 -0.245874 0.736300
0.730248 -0.000000 -0.269752 128 128 255 0.243635 -0.185922 0.951880
0.796348 -0.000000 -0.259840 128 128 255 -0.322517 -0.041570 0.945650
0.864367 -0.000000 -0.209037 128 128 255 -0.667703 0.048154 0.742868
0.932927 -0.000000 -0.119772 128 128 255 -0.810583 0.058575 0.582687
1.000000 -0.000000 -0.000000 128 128 255 -0.873780 0.029552 0.485422
1.062703 -0.000000 0.136433 128 128 255 -0.903879 -0.014310 0.427550
1.117129 -0.000000 0.270165 128 128 255 -0.917080 -0.058574 0.394378
1.158335 -0.000000 0.377953 128 128 255 -0.920247 -0.093732 0.379947
