ply
format ascii 1.0
element vertex 700
property float x
property float y
property float z
property uchar red
property uchar green
property uchar blue
property float nx
property float ny
property float nz
end_header
0.317726 -0.140223 0.060972 128 128 255 0.362253 -0.321633 0.874829
0.329153 -0.129153 0.060270 128 128 255 0.357434 -0.284476 0.889559
0.340023 -0.117545 0.059596 128 128 255 0.349727 -0.248636 0.903256
0.350311 -0.105425 0.058954 128 128 255 0.339297 -0.214339 0.915935
0.359993 -0.092824 0.058342 128 128 255 0.326319 -0.181785 0.927615
0.369047 -0.079771 0.057763 128 128 255 0.310981 -0.151158 0.938319
0.377451 -0.066298 0.057217 128 128 255 0.293481 -0.122618 0.948068
0.385188 -0.052436 0.056704 128 128 255 0.274022 -0.096306 0.956889
0.392238 -0.038218 0.056227 128 128 255 0.252813 -0.072342 0.964807
0.398586 -0.023678 0.055784 128 128 255 0.230065 -0.050825 0.971847
0.404218 -0.008851 0.055378 128 128 255 0.205990 -0.031838 0.978036
0.409120 0.006230 0.055007 128 128 255 0.180801 -0.015443 0.983398
0.413281 0.021527 0.054673 128 128 255 0.154708 -0.001687 0.987959
0.416693 0.037006 0.054376 128 128 255 0.127920 0.009400 0.991740
0.419347 0.052629 0.054116 128 128 255 0.100642 0.017804 0.994763
0.421237 0.068361 0.053893 128 128 255 0.073075 0.023522 0.997049
0.422359 0.084164 0.053706 128 128 255 0.045415 0.026568 0.998615
0.422712 0.100000 0.053557 128 128 255 -0.059013 -0.016585 0.998119
0.549637 0.100000 0.078543 128 128 255 0.054190 0.163546 -0.985046
0.549934 0.122104 0.082062 128 128 255 0.101332 0.145780 -0.984114
0.549075 0.144230 0.085565 128 128 255 0.112289 0.151419 -0.982071
0.547059 0.166315 0.089050 128 128 255 0.122522 0.158423 -0.979740
0.543887 0.188295 0.092513 128 128 255 0.131951 0.166720 -0.977135
0.539566 0.210105 0.095952 128 128 255 0.140502 0.176237 -0.974269
0.534105 0.231684 0.099364 128 128 255 0.148106 0.186899 -0.971151
0.527517 0.252968 0.102745 128 128 255 0.154698 0.198627 -0.967789
0.519820 0.273895 0.106094 128 128 255 0.160216 0.211346 -0.964191
0.511034 0.294405 0.109406 128 128 255 0.164604 0.224973 -0.960361
0.501182 0.314436 0.112681 128 128 255 0.167809 0.239429 -0.956302
0.490293 0.333933 0.115914 128 128 255 0.169781 0.254630 -0.952018
0.478396 0.352836 0.119104 128 128 255 0.170477 0.270493 -0.947508
0.465526 0.371093 0.122248 128 128 255 0.169853 0.286932 -0.942773
0.451721 0.388650 0.125344 128 128 255 0.167872 0.303858 -0.937811
0.437019 0.405456 0.128389 128 128 255 0.164499 0.321185 -0.932620
0.421464 0.421464 0.131381 128 128 255 0.159704 0.338820 -0.927198
0.405101 0.436627 0.134318 128 128 255 0.153459 0.356672 -0.921540
0.387979 0.450904 0.137198 128 128 255 0.145743 0.374647 -0.915641
0.370149 0.464254 0.140019 128 128 255 0.136536 0.392648 -0.909497
0.351663 0.476640 0.142779 128 128 255 0.125824 0.410578 -0.903102
0.332575 0.488029 0.145477 128 128 255 0.113598 0.428337 -0.896450
0.312944 0.498389 0.148111 128 128 255 0.099853 0.445824 -0.889534
0.292825 0.507695 0.150678 128 128 255 0.084588 0.462937 -0.882346
0.272280 0.515922 0.153178 128 128 255 0.067810 0.479570 -0.874880
0.251370 0.523050 0.155610 128 128 255 0.049530 0.495617 -0.867128
0.230155 0.529062 0.157972 128 128 255 0.029766 0.510973 -0.859081
0.208698 0.533946 0.160262 128 128 255 0.008542 0.525529 -0.850733
0.187062 0.537692 0.162480 128 128 255 -0.014111 0.539176 -0.842075
0.165312 0.540295 0.164625 128 128 255 -0.038157 0.551807 -0.833098
0.143509 0.541753 0.166695 128 128 255 -0.063551 0.563312 -0.823796
0.121717 0.542068 0.168691 128 128 255 -0.090239 0.573585 -0.814160
0.100000 0.541244 0.170611 128 128 255 -0.118161 0.582518 -0.804183
0.078419 0.539292 0.172454 128 128 255 -0.147249 0.590008 -0.793857
0.057036 0.536224 0.174221 128 128 255 -0.177428 0.595950 -0.783175
0.035911 0.532055 0.175910 128 128 255 -0.208611 0.600247 -0.772130
0.015103 0.526806 0.177521 128 128 255 -0.240707 0.602802 -0.760717
-0.005330 0.520500 0.179054 128 128 255 -0.273614 0.603523 -0.748929
-0.025331 0.513161 0.180509 128 128 255 -0.307222 0.602326 -0.736762
-0.044847 0.504821 0.181886 128 128 255 -0.341414 0.599129 -0.724210
-0.063825 0.495510 0.183185 128 128 255 -0.376063 0.593861 -0.711271
-0.082216 0.485263 0.184405 128 128 255 -0.411039 0.586452 -0.697940
-0.099971 0.474119 0.185547 128 128 255 -0.446200 0.576849 -0.684216
-0.117045 0.462118 0.186611 128 128 255 -0.481399 0.565000 -0.670097
-0.133395 0.449301 0.187598 128 128 255 -0.516483 0.550868 -0.655583
-0.148983 0.435714 0.188507 128 128 255 -0.551295 0.534426 -0.640673
-0.163769 0.421404 0.189339 128 128 255 -0.585672 0.515655 -0.625370
-0.177721 0.406418 0.190095 128 128 255 -0.619447 0.494552 -0.609675
-0.190807 0.390807 0.190775 128 128 255 -0.652450 0.471123 -0.593592
-0.203000 0.374623 0.191380 128 128 255 -0.684511 0.445390 -0.577125
-0.214274 0.357918 0.191910 128 128 255 -0.715456 0.417385 -0.560279
-0.224608 0.340746 0.192366 128 128 255 -0.745115 0.387156 -0.543060
-0.233984 0.323161 0.192749 128 128 255 -0.773316 0.354764 -0.525476
-0.242387 0.305219 0.193060 128 128 255 -0.799892 0.320284 -0.507534
-0.249804 0.286974 0.193299 128 128 255 -0.824679 0.283803 -0.489244
-0.256228 0.268484 0.193468 128 128 255 -0.847519 0.245425 -0.470615
-0.261654 0.249802 0.193566 128 128 255 -0.868258 0.205265 -0.451658
-0.266079 0.230985 0.193596 128 128 255 -0.886752 0.163449 -0.432384
-0.269505 0.212088 0.193558 128 128 255 -0.902863 0.120120 -0.412806
-0.271936 0.193165 0.193454 128 128 255 -0.916467 0.075429 -0.392936
-0.273380 0.174270 0.193284 128 128 255 -0.927446 0.029540 -0.372788
-0.273846 0.155455 0.193049 128 128 255 -0.935698 -0.017375 -0.352374
-0.273349 0.136772 0.192750 128 128 255 -0.941130 -0.065132 -0.331710
-0.271904 0.118270 0.192389 128 128 255 -0.943666 -0.113543 -0.310809
-0.269530 0.100000 0.191966 128 128 255 -0.943242 -0.162407 -0.289687
-0.266249 0.082007 0.191483 128 128 255 -0.939810 -0.211523 -0.268358
-0.262083 0.064338 0.190941 128 128 255 -0.933336 -0.260682 -0.246836
-0.257059 0.047035 0.190341 128 128 255 -0.923805 -0.309674 -0.225137
-0.251205 0.030141 0.189684 128 128 255 -0.911214 -0.358285 -0.203275
-0.244552 0.013694 0.188971 128 128 255 -0.895580 -0.406300 -0.181266
-0.237130 -0.002267 0.188203 128 128 255 -0.876932 -0.453508 -0.159122
-0.228974 -0.017709 0.187382 128 128 255 -0.855320 -0.499697 -0.136858
-0.220119 -0.032598 0.186508 128 128 255 -0.830807 -0.544658 -0.114488
-0.210601 -0.046903 0.185583 128 128 255 -0.803471 -0.588188 -0.092025
-0.200458 -0.060598 0.184608 128 128 255 -0.773408 -0.630089 -0.069482
-0.189728 -0.073656 0.183583 128 128 255 -0.740726 -0.670170 -0.046870
-0.178451 -0.086055 0.182510 128 128 255 -0.705549 -0.708248 -0.024203
-0.166668 -0.097774 0.181390 128 128 255 -0.668014 -0.744148 -0.001492
-0.154419 -0.108796 0.180223 128 128 255 -0.628269 -0.777706 0.021254
-0.141744 -0.119104 0.179012 128 128 255 -0.586476 -0.808769 0.044022
-0.128687 -0.128687 0.177756 128 128 255 -0.542807 -0.837196 0.066805
-0.115287 -0.137532 0.176457 128 128 255 -0.497445 -0.862857 0.089591
-0.101586 -0.145633 0.175115 128 128 255 -0.450581 -0.885635 0.112373
-0.087625 -0.152983 0.173732 128 128 255 -0.402414 -0.905428 0.135142
-0.073445 -0.159579 0.172308 128 128 255 -0.353151 -0.922147 0.157891
-0.059086 -0.165420 0.170845 128 128 255 -0.303004 -0.935718 0.180610
-0.044588 -0.170505 0.169342 128 128 255 -0.252191 -0.946082 0.203293
-0.029989 -0.174839 0.167802 128 128 255 -0.200933 -0.953194 0.225934
-0.015328 -0.178426 0.166224 128 128 255 -0.149455 -0.957026 0.248525
-0.000641 -0.181273 0.164609 128 128 255 -0.097983 -0.957563 0.271059
0.014035 -0.183389 0.162958 128 128 255 -0.046744 -0.954806 0.293530
0.028666 -0.184783 0.161272 128 128 255 0.004036 -0.948773 0.315932
0.043217 -0.185467 0.159551 128 128 255 0.054130 -0.939496 0.338257
0.057657 -0.185455 0.157796 128 128 255 0.103314 -0.927020 0.360499
0.071954 -0.184761 0.156008 128 128 255 0.151370 -0.911409 0.382651
0.086077 -0.183401 0.154187 128 128 255 0.198077 -0.892737 0.404705
0.100000 -0.181391 0.152333 128 128 255 0.243225 -0.871096 0.426654
0.113694 -0.178751 0.150448 128 128 255 0.286608 -0.846590 0.448489
0.127134 -0.175499 0.148531 128 128 255 0.328025 -0.819336 0.470200
0.140296 -0.171655 0.146584 128 128 255 0.367282 -0.789466 0.491779
0.153157 -0.167238 0.144606 128 128 255 0.404195 -0.757124 0.513214
0.165695 -0.162271 0.142598 128 128 255 0.438587 -0.722466 0.534494
0.177891 -0.156774 0.140561 128 128 255 0.470291 -0.685660 0.555605
0.189727 -0.150769 0.138494 128 128 255 0.499147 -0.646886 0.576533
0.201184 -0.144279 0.136399 128 128 255 0.525010 -0.606335 0.597263
0.212247 -0.137327 0.134276 128 128 255 0.547744 -0.564207 0.617776
0.222902 -0.129934 0.132125 128 128 255 0.567224 -0.520714 0.638055
0.233136 -0.122123 0.129946 128 128 255 0.583340 -0.476077 0.658077
0.242936 -0.113918 0.127740 128 128 255 0.595993 -0.430527 0.677819
0.252291 -0.105340 0.125507 128 128 255 0.605100 -0.384302 0.697256
0.261192 -0.096413 0.123248 128 128 255 0.610591 -0.337649 0.716360
0.269630 -0.087158 0.120963 128 128 255 0.612413 -0.290824 0.735100
0.277598 -0.077598 0.118652 128 128 255 0.610529 -0.244086 0.753443
0.285088 -0.067754 0.116316 128 128 255 0.604921 -0.197704 0.771352
0.292095 -0.057648 0.113955 128 128 255 0.595587 -0.151952 0.788788
0.298614 -0.047302 0.111569 128 128 255 0.582548 -0.107105 0.805709
0.304640 -0.036736 0.109159 128 128 255 0.565843 -0.063446 0.822069
0.310171 -0.025971 0.106726 128 128 255 0.545533 -0.021257 0.837820
0.315202 -0.015028 0.104270 128 128 255 0.521705 0.019180 0.852910
0.319732 -0.003926 0.101790 128 128 255 0.494469 0.057581 0.867286
0.323759 0.007316 0.099289 128 128 255 0.463959 0.093668 0.880890
0.327282 0.018677 0.096766 128 128 255 0.430338 0.127168 0.893665
0.330300 0.030139 0.094221 128 128 255 0.393794 0.157815 0.905550
0.332812 0.041684 0.091656 128 128 255 0.354545 0.185354 0.916483
0.334819 0.053292 0.089071 128 128 255 0.312835 0.209546 0.926404
0.336321 0.064945 0.086466 128 128 255 0.268937 0.230166 0.935252
0.337319 0.076626 0.083843 128 128 255 0.223151 0.247013 0.942968
0.337814 0.088317 0.081202 128 128 255 0.175803 0.259907 0.949495
0.337806 0.100000 0.078543 128 128 255 0.189523 0.138656 0.972037
0.655182 0.100000 0.075569 128 128 255 -0.142387 0.208598 -0.967581
0.656495 0.127339 0.080439 128 128 255 -0.105937 0.188880 -0.976269
0.656338 0.154795 0.085332 128 128 255 -0.091599 0.184693 -0.978518
0.654700 0.182282 0.090247 128 128 255 -0.076987 0.182465 -0.980194
0.651579 0.209716 0.095184 128 128 255 -0.062283 0.182216 -0.981284
0.646974 0.237010 0.100139 128 128 255 -0.047670 0.183950 -0.981779
0.640894 0.264078 0.105113 128 128 255 -0.033334 0.187656 -0.981669
0.633349 0.290835 0.110103 128 128 255 -0.019462 0.193306 -0.980945
0.624357 0.317196 0.115109 128 128 255 -0.006240 0.200856 -0.979601
0.613941 0.343076 0.120128 128 128 255 0.006152 0.210243 -0.977630
0.602127 0.368393 0.125160 128 128 255 0.017535 0.221391 -0.975028
0.588949 0.393065 0.130202 128 128 255 0.027738 0.234204 -0.971792
0.574444 0.417013 0.135253 128 128 255 0.036597 0.248572 -0.967922
0.558654 0.440161 0.140311 128 128 255 0.043958 0.264371 -0.963419
0.541628 0.462434 0.145374 128 128 255 0.049677 0.281461 -0.958286
0.523415 0.483761 0.150440 128 128 255 0.053623 0.299690 -0.952528
0.504074 0.504074 0.155508 128 128 255 0.055679 0.318894 -0.946154
0.483664 0.523308 0.160576 128 128 255 0.055743 0.338897 -0.939171
0.462249 0.541402 0.165641 128 128 255 0.053729 0.359516 -0.931591
0.439897 0.558299 0.170700 128 128 255 0.049565 0.380560 -0.923427
0.416681 0.573946 0.175753 128 128 255 0.043200 0.401831 -0.914694
0.392674 0.588297 0.180796 128 128 255 0.034599 0.423128 -0.905409
0.367954 0.601306 0.185828 128 128 255 0.023746 0.444249 -0.895589
0.342601 0.612936 0.190845 128 128 255 0.010642 0.464988 -0.885253
0.316697 0.623153 0.195845 128 128 255 -0.004693 0.485144 -0.874421
0.290327 0.631928 0.200825 128 128 255 -0.022221 0.504517 -0.863116
0.263576 0.639239 0.205783 128 128 255 -0.041887 0.522910 -0.851358
0.236532 0.645068 0.210716 128 128 255 -0.063620 0.540134 -0.839171
0.209283 0.649402 0.215620 128 128 255 -0.087332 0.556008 -0.826576
0.181916 0.652235 0.220493 128 128 255 -0.112920 0.570358 -0.813597
0.154522 0.653566 0.225332 128 128 255 -0.140268 0.583021 -0.800257
0.127187 0.653400 0.230133 128 128 255 -0.169246 0.593843 -0.786578
0.100000 0.651745 0.234894 128 128 255 -0.199713 0.602685 -0.772583
0.073048 0.648618 0.239610 128 128 255 -0.231516 0.609418 -0.758294
0.046417 0.644040 0.244278 128 128 255 -0.264494 0.613928 -0.743731
0.020190 0.638035 0.248896 128 128 255 -0.298476 0.616113 -0.728915
-0.005550 0.630636 0.253459 128 128 255 -0.333288 0.615886 -0.713865
-0.030724 0.621880 0.257963 128 128 255 -0.368745 0.613176 -0.698600
-0.055255 0.611806 0.262405 128 128 255 -0.404663 0.607924 -0.683138
-0.079068 0.600460 0.266781 128 128 255 -0.440850 0.600086 -0.667494
-0.102092 0.587894 0.271088 128 128 255 -0.477114 0.589635 -0.651684
-0.124262 0.574162 0.275321 128 128 255 -0.513263 0.576556 -0.635723
-0.145512 0.559321 0.279476 128 128 255 -0.549106 0.560849 -0.619622
-0.165784 0.543434 0.283550 128 128 255 -0.584447 0.542528 -0.603395
-0.185022 0.526566 0.287538 128 128 255 -0.619099 0.521621 -0.587051
-0.203177 0.508786 0.291437 128 128 255 -0.652874 0.498168 -0.570600
-0.220201 0.490166 0.295241 128 128 255 -0.685590 0.472223 -0.554051
-0.236054 0.470779 0.298948 128 128 255 -0.717067 0.443852 -0.537410
-0.250700 0.450700 0.302552 128 128 255 -0.747133 0.413134 -0.520684
-0.264108 0.430009 0.306050 128 128 255 -0.775620 0.380158 -0.503879
-0.276253 0.408783 0.309438 128 128 255 -0.802367 0.345023 -0.486998
-0.287112 0.387102 0.312711 128 128 255 -0.827220 0.307840 -0.470045
-0.296673 0.365048 0.315866 128 128 255 -0.850032 0.268731 -0.453022
-0.304923 0.342702 0.318897 128 128 255 -0.870667 0.227822 -0.435931
-0.311860 0.320144 0.321802 128 128 255 -0.888994 0.185253 -0.418773
-0.317483 0.297455 0.324575 128 128 255 -0.904893 0.141171 -0.401547
-0.321799 0.274715 0.327214 128 128 255 -0.918251 0.095728 -0.384254
-0.324817 0.252002 0.329713 128 128 255 -0.928968 0.049085 -0.366892
-0.326555 0.229394 0.332069 128 128 255 -0.936951 0.001408 -0.349459
-0.327033 0.206966 0.334279 128 128 255 -0.942118 -0.047129 -0.331953
-0.326276 0.184792 0.336337 128 128 255 -0.944398 -0.096349 -0.314373
-0.324314 0.162941 0.338242 128 128 255 -0.943729 -0.146069 -0.296714
-0.321181 0.141483 0.339988 128 128 255 -0.940063 -0.196102 -0.278973
-0.316916 0.120482 0.341573 128 128 255 -0.933359 -0.246259 -0.261147
-0.311560 0.100000 0.342993 128 128 255 -0.923590 -0.296345 -0.243231
-0.305158 0.080096 0.344245 128 128 255 -0.910739 -0.346165 -0.225223
-0.297761 0.060824 0.345325 128 128 255 -0.894800 -0.395519 -0.207118
-0.289418 0.042235 0.346231 128 128 255 -0.875781 -0.444208 -0.188912
-0.280185 0.024376 0.346959 128 128 255 -0.853698 -0.492031 -0.170602
-0.270119 0.007290 0.347508 128 128 255 -0.828583 -0.538786 -0.152183
-0.259277 -0.008985 0.347874 128 128 255 -0.800476 -0.584273 -0.133653
-0.247721 -0.024416 0.348054 128 128 255 -0.769432 -0.628290 -0.115008
-0.235511 -0.038973 0.348048 128 128 255 -0.735516 -0.670636 -0.096246
-0.222712 -0.052631 0.347852 128 128 255 -0.698809 -0.711112 -0.077365
-0.209386 -0.065370 0.347464 128 128 255 -0.659399 -0.749524 -0.058364
-0.195596 -0.077174 0.346884 128 128 255 -0.617392 -0.785676 -0.039242
-0.181408 -0.088031 0.346108 128 128 255 -0.572903 -0.819379 -0.019999
-0.166883 -0.097934 0.345137 128 128 255 -0.526062 -0.850446 -0.000638
-0.152086 -0.106882 0.343969 128 128 255 -0.477011 -0.878695 0.018839
-0.137078 -0.114875 0.342603 128 128 255 -0.425907 -0.903951 0.038428
-0.121919 -0.121919 0.341038 128 128 255 -0.372918 -0.926042 0.058123
-0.106669 -0.128024 0.339274 128 128 255 -0.318227 -0.944807 0.077916
-0.091385 -0.133203 0.337311 128 128 255 -0.262030 -0.960092 0.097797
-0.076123 -0.137474 0.335148 128 128 255 -0.204538 -0.971750 0.117756
-0.060935 -0.140856 0.332787 128 128 255 -0.145974 -0.979647 0.137778
-0.045872 -0.143373 0.330226 128 128 255 -0.086574 -0.983661 0.157847
-0.030983 -0.145052 0.327468 128 128 255 -0.026591 -0.983681 0.177943
-0.016312 -0.145922 0.324513 128 128 255 0.033712 -0.979613 0.198045
-0.001902 -0.146013 0.321362 128 128 255 0.094059 -0.971377 0.218128
0.012208 -0.145361 0.318017 128 128 255 0.154161 -0.958912 0.238163
0.025983 -0.144000 0.314479 128 128 255 0.213717 -0.942178 0.258119
0.039390 -0.141967 0.310750 128 128 255 0.272417 -0.921155 0.277962
0.052400 -0.139301 0.306832 128 128 255 0.329941 -0.895847 0.297653
0.064987 -0.136041 0.302728 128 128 255 0.385961 -0.866284 0.317153
0.077128 -0.132227 0.298440 128 128 255 0.440146 -0.832524 0.336416
0.088804 -0.127900 0.293972 128 128 255 0.492159 -0.794653 0.355396
0.100000 -0.123100 0.289326 128 128 255 0.541664 -0.752789 0.374045
0.110703 -0.117868 0.284505 128 128 255 0.588326 -0.707082 0.392310
0.120904 -0.112245 0.279514 128 128 255 0.631818 -0.657716 0.410141
0.130597 -0.106269 0.274355 128 128 255 0.671822 -0.604909 0.427482
0.139779 -0.099980 0.269033 128 128 255 0.708031 -0.548913 0.444283
0.148448 -0.093417 0.263553 128 128 255 0.740159 -0.490014 0.460490
0.156609 -0.086614 0.257918 128 128 255 0.767943 -0.428531 0.476052
0.164265 -0.079607 0.252133 128 128 255 0.791141 -0.364814 0.490924
0.171423 -0.072431 0.246203 128 128 255 0.809547 -0.299244 0.505061
0.178094 -0.065116 0.240133 128 128 255 0.822988 -0.232222 0.518424
0.184288 -0.057692 0.233928 128 128 255 0.831327 -0.164176 0.530981
0.190019 -0.050187 0.227594 128 128 255 0.834470 -0.095549 0.542707
0.195300 -0.042627 0.221135 128 128 255 0.832364 -0.026794 0.553581
0.200149 -0.035035 0.214558 128 128 255 0.825002 0.041628 0.563595
0.204581 -0.027433 0.207869 128 128 255 0.812421 0.109255 0.572744
0.208615 -0.019838 0.201074 128 128 255 0.794701 0.175628 0.581037
0.212269 -0.012269 0.194178 128 128 255 0.771969 0.240305 0.588488
0.215561 -0.004738 0.187187 128 128 255 0.744388 0.302852 0.595119
0.218510 0.002741 0.180110 128 128 255 0.712163 0.362861 0.600962
0.221136 0.010159 0.172950 128 128 255 0.675533 0.419946 0.606054
0.223457 0.017509 0.165717 128 128 255 0.634767 0.473749 0.610436
0.225490 0.024784 0.158415 128 128 255 0.590163 0.523944 0.614158
0.227253 0.031982 0.151051 128 128 255 0.542038 0.570237 0.617272
0.228764 0.039099 0.143634 128 128 255 0.490733 0.612366 0.619830
0.230037 0.046137 0.136169 128 128 255 0.436600 0.650105 0.621887
0.231087 0.053096 0.128663 128 128 255 0.380001 0.683263 0.623498
0.231927 0.059981 0.121123 128 128 255 0.321309 0.711681 0.624717
0.232568 0.066793 0.113557 128 128 255 0.260900 0.735231 0.625593
0.233023 0.073540 0.105970 128 128 255 0.199151 0.753820 0.626174
0.233298 0.080227 0.098372 128 128 255 0.136441 0.767383 0.626504
0.233402 0.086861 0.090767 128 128 255 0.073147 0.775884 0.626620
0.233339 0.093449 0.083164 128 128 255 0.009642 0.779317 0.626556
0.233114 0.100000 0.075569 128 128 255 -0.037501 0.598185 0.800480
0.760752 0.100000 0.053126 128 128 255 0.078980 0.252746 -0.964304
0.763460 0.132594 0.061349 128 128 255 0.028125 0.243344 -0.969532
0.764391 0.165437 0.069696 128 128 255 0.045505 0.246218 -0.968146
0.763525 0.198425 0.078162 128 128 255 0.061998 0.251381 -0.965901
0.760847 0.231451 0.086743 128 128 255 0.077387 0.258716 -0.962848
0.756352 0.264408 0.095436 128 128 255 0.091472 0.268089 -0.959042
0.750039 0.297187 0.104234 128 128 255 0.104076 0.279351 -0.954532
0.741914 0.329681 0.113135 128 128 255 0.115039 0.292336 -0.949371
0.731992 0.361779 0.122134 128 128 255 0.124220 0.306874 -0.943609
0.720291 0.393376 0.131224 128 128 255 0.131502 0.322782 -0.937293
0.706840 0.424363 0.140401 128 128 255 0.136784 0.339875 -0.930471
0.691673 0.454635 0.149659 128 128 255 0.139987 0.357959 -0.923184
0.674830 0.484089 0.158992 128 128 255 0.141047 0.376843 -0.915475
0.656358 0.512623 0.168396 128 128 255 0.139923 0.396333 -0.907382
0.636311 0.540139 0.177862 128 128 255 0.136585 0.416237 -0.898939
0.614751 0.566543 0.187386 128 128 255 0.131025 0.436363 -0.890180
0.591742 0.591742 0.196960 128 128 255 0.123246 0.456525 -0.881133
0.567357 0.615649 0.206578 128 128 255 0.113266 0.476540 -0.871826
0.541674 0.638181 0.216233 128 128 255 0.101117 0.496230 -0.862282
0.514776 0.659261 0.225917 128 128 255 0.086843 0.515423 -0.852524
0.486752 0.678816 0.235623 128 128 255 0.070500 0.533953 -0.842570
0.457695 0.696778 0.245344 128 128 255 0.052153 0.551661 -0.832436
0.427702 0.713087 0.255072 128 128 255 0.031878 0.568396 -0.822137
0.396874 0.727687 0.264798 128 128 255 0.009759 0.584012 -0.811686
0.365316 0.740529 0.274516 128 128 255 -0.014110 0.598375 -0.801092
0.333137 0.751574 0.284216 128 128 255 -0.039630 0.611354 -0.790364
0.300447 0.760785 0.293891 128 128 255 -0.066694 0.622830 -0.779509
0.267359 0.768135 0.303531 128 128 255 -0.095189 0.632690 -0.768533
0.233988 0.773603 0.313129 128 128 255 -0.124996 0.640831 -0.757438
0.200450 0.777179 0.322674 128 128 255 -0.155992 0.647156 -0.746228
0.166861 0.778855 0.332159 128 128 255 -0.188048 0.651579 -0.734903
0.133339 0.778634 0.341573 128 128 255 -0.221032 0.654021 -0.723465
0.100000 0.776528 0.350909 128 128 255 -0.254808 0.654411 -0.711912
0.066960 0.772553 0.360157 128 128 255 -0.289238 0.652688 -0.700243
0.034332 0.766734 0.369306 128 128 255 -0.324180 0.648797 -0.688455
0.002231 0.759105 0.378349 128 128 255 -0.359488 0.642694 -0.676545
-0.029235 0.749706 0.387275 128 128 255 -0.395019 0.634341 -0.664509
-0.059957 0.738584 0.396075 128 128 255 -0.430623 0.623709 -0.652343
-0.089832 0.725793 0.404739 128 128 255 -0.466151 0.610779 -0.640041
-0.118760 0.711394 0.413257 128 128 255 -0.501453 0.595537 -0.627599
-0.146646 0.695456 0.421621 128 128 255 -0.536377 0.577981 -0.615010
-0.173398 0.678052 0.429820 128 128 255 -0.570772 0.558115 -0.602268
-0.198931 0.659261 0.437845 128 128 255 -0.604487 0.535950 -0.589367
-0.223165 0.639169 0.445685 128 128 255 -0.637369 0.511508 -0.576299
-0.246027 0.617865 0.453333 128 128 255 -0.669266 0.484819 -0.563058
-0.267447 0.595445 0.460777 128 128 255 -0.700027 0.455919 -0.549636
-0.287367 0.572008 0.468009 128 128 255 -0.729502 0.424855 -0.536027
-0.305731 0.547655 0.475019 128 128 255 -0.757542 0.391680 -0.522222
-0.322493 0.522493 0.481798 128 128 255 -0.783999 0.356458 -0.508215
-0.337615 0.496631 0.488337 128 128 255 -0.808727 0.319259 -0.493999
-0.351063 0.470178 0.494627 128 128 255 -0.831580 0.280164 -0.479565
-0.362816 0.443247 0.500659 128 128 255 -0.852417 0.239260 -0.464908
-0.372855 0.415952 0.506424 128 128 255 -0.871098 0.196646 -0.450020
-0.381175 0.388405 0.511914 128 128 255 -0.887486 0.152428 -0.434895
-0.387773 0.360720 0.517120 128 128 255 -0.901448 0.106721 -0.419527
-0.392659 0.333010 0.522035 128 128 255 -0.912852 0.059649 -0.403909
-0.395847 0.305387 0.526651 128 128 255 -0.921574 0.011347 -0.388038
-0.397361 0.277959 0.530960 128 128 255 -0.927490 -0.038041 -0.371908
-0.397231 0.250833 0.534955 128 128 255 -0.930484 -0.088362 -0.355516
-0.395495 0.224115 0.538628 128 128 255 -0.930445 -0.139453 -0.338859
-0.392198 0.197904 0.541974 128 128 255 -0.927267 -0.191139 -0.321935
-0.387392 0.172298 0.544985 128 128 255 -0.920851 -0.243238 -0.304744
-0.381134 0.147388 0.547656 128 128 255 -0.911106 -0.295554 -0.287286
-0.373490 0.123261 0.549981 128 128 255 -0.897949 -0.347882 -0.269564
-0.364528 0.100000 0.551955 128 128 255 -0.881306 -0.400008 -0.251581
-0.354324 0.077680 0.553572 128 128 255 -0.861113 -0.451701 -0.233344
-0.342958 0.056372 0.554828 128 128 255 -0.837318 -0.502725 -0.214862
-0.330512 0.036140 0.555720 128 128 255 -0.809880 -0.552831 -0.196144
-0.317076 0.017038 0.556243 128 128 255 -0.778774 -0.601755 -0.177205
-0.302739 -0.000881 0.556394 128 128 255 -0.743988 -0.649229 -0.158062
-0.287595 -0.017576 0.556170 128 128 255 -0.705529 -0.694969 -0.138736
-0.271740 -0.033011 0.555570 128 128 255 -0.663422 -0.738682 -0.119251
-0.255271 -0.047158 0.554590 128 128 255 -0.617714 -0.780065 -0.099636
-0.238285 -0.059997 0.553231 128 128 255 -0.568475 -0.818809 -0.079927
-0.220881 -0.071515 0.551490 128 128 255 -0.515799 -0.854595 -0.060161
-0.203156 -0.081705 0.549368 128 128 255 -0.459810 -0.887098 -0.040386
-0.185208 -0.090570 0.546865 128 128 255 -0.400664 -0.915992 -0.020652
-0.167132 -0.098119 0.543981 128 128 255 -0.338545 -0.940949 -0.001019
-0.149022 -0.104367 0.540718 128 128 255 -0.273680 -0.961644 0.018449
-0.130969 -0.109338 0.537078 128 128 255 -0.206329 -0.977757 0.037678
-0.113060 -0.113060 0.533062 128 128 255 -0.136794 -0.988982 0.056586
-0.095381 -0.115570 0.528674 128 128 255 -0.065420 -0.995029 0.075088
-0.078011 -0.116908 0.523916 128 128 255 0.007404 -0.995631 0.093086
-0.061028 -0.117121 0.518793 128 128 255 0.081250 -0.990552 0.110480
-0.044502 -0.116262 0.513309 128 128 255 0.155642 -0.979595 0.127160
-0.028499 -0.114387 0.507469 128 128 255 0.230069 -0.962608 0.143016
-0.013079 -0.111557 0.501279 128 128 255 0.303983 -0.939496 0.157932
0.001701 -0.107836 0.494743 128 128 255 0.376804 -0.910223 0.171791
0.015794 -0.103292 0.487870 128 128 255 0.447932 -0.874828 0.184478
0.029156 -0.097995 0.480664 128 128 255 0.516756 -0.833423 0.195881
0.041752 -0.092018 0.473135 128 128 255 0.582660 -0.786202 0.205897
0.053551 -0.085434 0.465290 128 128 255 0.645043 -0.733442 0.214432
0.064530 -0.078319 0.457137 128 128 255 0.703330 -0.675505 0.221405
0.074672 -0.070746 0.448685 128 128 255 0.756982 -0.612832 0.226750
0.083966 -0.062793 0.439943 128 128 255 0.805519 -0.545936 0.230421
0.092408 -0.054532 0.430921 128 128 255 0.848523 -0.475396 0.232394
0.100000 -0.046037 0.421629 128 128 255 0.885658 -0.401843 0.232664
0.106749 -0.037381 0.412076 128 128 255 0.916669 -0.325945 0.231252
0.112669 -0.028632 0.402275 128 128 255 0.941395 -0.248394 0.228200
0.117779 -0.019857 0.392235 128 128 255 0.959768 -0.169883 0.223572
0.122103 -0.011120 0.381968 128 128 255 0.971810 -0.091099 0.217454
0.125670 -0.002482 0.371487 128 128 255 0.977630 -0.012699 0.209947
0.128514 0.006002 0.360801 128 128 255 0.977417 0.064698 0.201170
0.130672 0.014278 0.349925 128 128 255 0.971430 0.140523 0.191253
0.132185 0.022298 0.338869 128 128 255 0.959983 0.214268 0.180337
0.133098 0.030020 0.327648 128 128 255 0.943441 0.285490 0.168566
0.133457 0.037406 0.316272 128 128 255 0.922199 0.353815 0.156090
0.133313 0.044420 0.304756 128 128 255 0.896676 0.418935 0.143059
0.132716 0.051037 0.293111 128 128 255 0.867300 0.480613 0.129621
0.131719 0.057232 0.281352 128 128 255 0.834500 0.538675 0.115922
0.130375 0.062988 0.269490 128 128 255 0.798698 0.593007 0.102100
0.128737 0.068293 0.257540 128 128 255 0.760298 0.643546 0.088291
0.126860 0.073140 0.245514 128 128 255 0.719685 0.690279 0.074620
0.124795 0.077527 0.233425 128 128 255 0.677215 0.733235 0.061208
0.122595 0.081456 0.221286 128 128 255 0.633216 0.772475 0.048165
0.120311 0.084937 0.209111 128 128 255 0.587986 0.808087 0.035596
0.117989 0.087980 0.196912 128 128 255 0.541789 0.840183 0.023597
0.115676 0.090604 0.184702 128 128 255 0.494857 0.868888 0.012257
0.113416 0.092829 0.172493 128 128 255 0.447387 0.894339 0.001658
0.111249 0.094679 0.160299 128 128 255 0.399550 0.916675 -0.008124
0.109212 0.096184 0.148130 128 128 255 0.351484 0.936039 -0.017024
0.107337 0.097375 0.136000 128 128 255 0.303299 0.952568 -0.024975
0.105655 0.098284 0.123921 128 128 255 0.255082 0.966392 -0.031924
0.104191 0.098950 0.111902 128 128 255 0.206896 0.977632 -0.037817
0.102966 0.099410 0.099958 128 128 255 0.158785 0.986393 -0.042609
0.101998 0.099704 0.088097 128 128 255 0.110774 0.992768 -0.046258
0.101298 0.099872 0.076331 128 128 255 0.062878 0.996831 -0.048727
0.100875 0.099957 0.064671 128 128 255 0.015097 0.998636 -0.049985
0.100732 0.100000 0.053126 128 128 255 -0.015596 0.981429 0.191192
0.866478 0.100000 0.075292 128 128 255 0.084112 0.279434 -0.956474
0.870967 0.137875 0.086846 128 128 255 0.113595 0.273300 -0.955198
0.873386 0.176172 0.098535 128 128 255 0.117692 0.279637 -0.952865
0.873700 0.214768 0.110353 128 128 255 0.121017 0.287080 -0.950231
0.871882 0.253537 0.122296 128 128 255 0.123498 0.295552 -0.947311
0.867914 0.292352 0.134358 128 128 255 0.125066 0.304969 -0.944115
0.861784 0.331085 0.146533 128 128 255 0.125660 0.315248 -0.940653
0.853490 0.369603 0.158817 128 128 255 0.125223 0.326305 -0.936933
0.843037 0.407776 0.171202 128 128 255 0.123703 0.338054 -0.932962
0.830439 0.445472 0.183684 128 128 255 0.121053 0.350406 -0.928742
0.815718 0.482559 0.196256 128 128 255 0.117229 0.363274 -0.924278
0.798906 0.518908 0.208913 128 128 255 0.112195 0.376567 -0.919570
0.780041 0.554389 0.221646 128 128 255 0.105916 0.390194 -0.914620
0.759170 0.588874 0.234452 128 128 255 0.098363 0.404063 -0.909427
0.736351 0.622240 0.247321 128 128 255 0.089511 0.418081 -0.903989
0.711648 0.654365 0.260249 128 128 255 0.079338 0.432151 -0.898304
0.685132 0.685132 0.273226 128 128 255 0.067831 0.446178 -0.892370
0.656883 0.714426 0.286248 128 128 255 0.054976 0.460064 -0.886182
0.626991 0.742140 0.299305 128 128 255 0.040768 0.473710 -0.879737
0.595549 0.768170 0.312392 128 128 255 0.025205 0.487015 -0.873030
0.562660 0.792419 0.325499 128 128 255 0.008290 0.499879 -0.866056
0.528432 0.814796 0.338619 128 128 255 -0.009966 0.512197 -0.858810
0.492981 0.835216 0.351743 128 128 255 -0.029550 0.523867 -0.851287
0.456427 0.853602 0.364865 128 128 255 -0.050439 0.534785 -0.843481
0.418897 0.869886 0.377974 128 128 255 -0.072608 0.544845 -0.835387
0.380522 0.884006 0.391063 128 128 255 -0.096020 0.553942 -0.826999
0.341437 0.895910 0.404122 128 128 255 -0.120637 0.561971 -0.818312
0.301781 0.905553 0.417143 128 128 255 -0.146411 0.568828 -0.809320
0.261696 0.912902 0.430116 128 128 255 -0.173286 0.574407 -0.800018
0.221329 0.917930 0.443031 128 128 255 -0.201201 0.578607 -0.790400
0.180824 0.920623 0.455880 128 128 255 -0.230084 0.581326 -0.780462
0.140332 0.920975 0.468652 128 128 255 -0.259857 0.582466 -0.770200
0.100000 0.918989 0.481336 128 128 255 -0.290434 0.581931 -0.759608
0.059977 0.914679 0.493924 128 128 255 -0.321722 0.579627 -0.748684
0.020412 0.908071 0.506403 128 128 255 -0.353616 0.575467 -0.737424
-0.018550 0.899197 0.518764 128 128 255 -0.386008 0.569365 -0.725824
-0.056763 0.888103 0.530996 128 128 255 -0.418778 0.561246 -0.713883
-0.094088 0.874842 0.543086 128 128 255 -0.451800 0.551034 -0.701597
-0.130385 0.859478 0.555026 128 128 255 -0.484939 0.538665 -0.688966
-0.165522 0.842084 0.566801 128 128 255 -0.518053 0.524081 -0.675989
-0.199370 0.822742 0.578402 128 128 255 -0.550993 0.507230 -0.662665
-0.231806 0.801545 0.589815 128 128 255 -0.583604 0.488072 -0.648993
-0.262714 0.778591 0.601030 128 128 255 -0.615721 0.466576 -0.634976
-0.291985 0.753988 0.612034 128 128 255 -0.647178 0.442718 -0.620614
-0.319517 0.727852 0.622814 128 128 255 -0.677799 0.416489 -0.605909
-0.345216 0.700305 0.633359 128 128 255 -0.707406 0.387890 -0.590863
-0.368998 0.671476 0.643655 128 128 255 -0.735814 0.356932 -0.575480
-0.390787 0.641500 0.653690 128 128 255 -0.762837 0.323643 -0.559764
-0.410516 0.610516 0.663452 128 128 255 -0.788284 0.288060 -0.543718
-0.428130 0.578669 0.672926 128 128 255 -0.811963 0.250235 -0.527350
-0.443584 0.546108 0.682102 128 128 255 -0.833681 0.210237 -0.510663
-0.456842 0.512982 0.690965 128 128 255 -0.853241 0.168147 -0.493666
-0.467881 0.479446 0.699503 128 128 255 -0.870451 0.124061 -0.476366
-0.476688 0.445653 0.707703 128 128 255 -0.885116 0.078092 -0.458771
-0.483262 0.411760 0.715552 128 128 255 -0.897047 0.030368 -0.440890
-0.487613 0.377920 0.723037 128 128 255 -0.906055 -0.018966 -0.422735
-0.489762 0.344287 0.730146 128 128 255 -0.911956 -0.069748 -0.404317
-0.489742 0.311013 0.736866 128 128 255 -0.914571 -0.121799 -0.385649
-0.487596 0.278245 0.743184 128 128 255 -0.913728 -0.174923 -0.366745
-0.483379 0.246129 0.749090 128 128 255 -0.909264 -0.228907 -0.347622
-0.477156 0.214803 0.754569 128 128 255 -0.901021 -0.283517 -0.328297
-0.469001 0.184403 0.759612 128 128 255 -0.888856 -0.338503 -0.308790
-0.459001 0.155057 0.764206 128 128 255 -0.872634 -0.393596 -0.289124
-0.447249 0.126885 0.768340 128 128 255 -0.852236 -0.448507 -0.269324
-0.433848 0.100000 0.772004 128 128 255 -0.827559 -0.502928 -0.249417
-0.418909 0.074508 0.775187 128 128 255 -0.798517 -0.556534 -0.229435
-0.402551 0.050503 0.777880 128 128 255 -0.765045 -0.608976 -0.209413
-0.384898 0.028072 0.780073 128 128 255 -0.727100 -0.659891 -0.189392
-0.366081 0.007291 0.781756 128 128 255 -0.684667 -0.708894 -0.169415
-0.346237 -0.011777 0.782923 128 128 255 -0.637758 -0.755582 -0.149533
-0.325505 -0.029076 0.783564 128 128 255 -0.586421 -0.799539 -0.129802
-0.304029 -0.044564 0.783674 128 128 255 -0.530740 -0.840328 -0.110285
-0.281953 -0.058210 0.783245 128 128 255 -0.470844 -0.877505 -0.091053
-0.259425 -0.069995 0.782272 128 128 255 -0.406904 -0.910615 -0.072182
-0.236592 -0.079912 0.780750 128 128 255 -0.339147 -0.939196 -0.053759
-0.213600 -0.087964 0.778674 128 128 255 -0.267856 -0.962791 -0.035878
-0.190594 -0.094169 0.776042 128 128 255 -0.193374 -0.980948 -0.018642
-0.167716 -0.098552 0.772850 128 128 255 -0.116111 -0.993234 -0.002163
-0.145106 -0.101153 0.769097 128 128 255 -0.036545 -0.999242 0.013441
-0.122897 -0.102022 0.764782 128 128 255 0.044775 -0.998603 0.028045
-0.101218 -0.101218 0.759905 128 128 255 0.127231 -0.991004 0.041519
-0.080193 -0.098812 0.754467 128 128 255 0.210139 -0.976194 0.053729
-0.059936 -0.094882 0.748471 128 128 255 0.292755 -0.954007 0.064544
-0.040556 -0.089517 0.741918 128 128 255 0.374283 -0.924371 0.073831
-0.022151 -0.082813 0.734813 128 128 255 0.453894 -0.887323 0.081470
-0.004814 -0.074871 0.727161 128 128 255 0.530739 -0.843022 0.087348
0.011376 -0.065803 0.718967 128 128 255 0.603972 -0.791751 0.091367
0.026349 -0.055722 0.710239 128 128 255 0.672772 -0.733924 0.093452
0.040043 -0.044748 0.700983 128 128 255 0.736371 -0.670079 0.093548
0.052410 -0.033004 0.691209 128 128 255 0.794076 -0.600873 0.091626
0.063412 -0.020615 0.680927 128 128 255 0.845291 -0.527062 0.087685
0.073020 -0.007709 0.670146 128 128 255 0.889538 -0.449487 0.081753
0.081220 0.005588 0.658879 128 128 255 0.926471 -0.369043 0.073884
0.088006 0.019146 0.647138 128 128 255 0.955883 -0.286656 0.064160
0.093385 0.032842 0.634936 128 128 255 0.977707 -0.203256 0.052685
0.097374 0.046549 0.622286 128 128 255 0.992015 -0.119751 0.039583
0.100000 0.060150 0.609205 128 128 255 0.999003 -0.037000 0.024993
0.101301 0.073525 0.595708 128 128 255 0.998981 0.044205 0.009066
0.101323 0.086566 0.581810 128 128 255 0.992355 0.123150 -0.008040
0.100124 0.099165 0.567530 128 128 255 0.979606 0.199217 -0.026166
0.097767 0.111224 0.552884 128 128 255 0.961271 0.271882 -0.045151
0.094326 0.122650 0.537892 128 128 255 0.937925 0.340723 -0.064840
0.089880 0.133361 0.522571 128 128 255 0.910165 0.405414 -0.085078
0.084514 0.143279 0.506940 128 128 255 0.878593 0.465722 -0.105724
0.078320 0.152339 0.491021 128 128 255 0.843802 0.521499 -0.126638
0.071394 0.160482 0.474832 128 128 255 0.806368 0.572676 -0.147692
0.063835 0.167661 0.458394 128 128 255 0.766841 0.619252 -0.168766
0.055745 0.173836 0.441727 128 128 255 0.725737 0.661289 -0.189745
0.047228 0.178979 0.424853 128 128 255 0.683534 0.698899 -0.210525
0.038390 0.183072 0.407792 128 128 255 0.640672 0.732240 -0.231007
0.029335 0.186105 0.390566 128 128 255 0.597545 0.761505 -0.251098
0.020169 0.188080 0.373195 128 128 255 0.554504 0.786918 -0.270712
0.010993 0.189007 0.355700 128 128 255 0.511859 0.808725 -0.289767
0.001908 0.188905 0.338102 128 128 255 0.469871 0.827190 -0.308185
-0.006989 0.187804 0.320423 128 128 255 0.428763 0.842588 -0.325894
-0.015606 0.185739 0.302683 128 128 255 0.388712 0.855204 -0.342824
-0.023855 0.182757 0.284902 128 128 255 0.349857 0.865323 -0.358909
-0.031653 0.178910 0.267100 128 128 255 0.312295 0.873230 -0.374086
-0.038924 0.174256 0.249297 128 128 255 0.276088 0.879206 -0.388295
-0.045598 0.168863 0.231514 128 128 255 0.241260 0.883520 -0.401479
-0.051612 0.162800 0.213768 128 128 255 0.207801 0.886434 -0.413586
-0.056913 0.156144 0.196078 128 128 255 0.175669 0.888192 -0.424565
-0.061451 0.148976 0.178463 128 128 255 0.144795 0.889021 -0.434369
-0.065188 0.141378 0.160940 128 128 255 0.115079 0.889127 -0.442955
-0.068094 0.133436 0.143527 128 128 255 0.086398 0.888695 -0.450284
-0.070146 0.125239 0.126240 128 128 255 0.058610 0.887883 -0.456321
-0.071329 0.116874 0.109095 128 128 255 0.031550 0.886821 -0.461035
-0.071640 0.108432 0.092107 128 128 255 0.005043 0.885611 -0.464400
-0.071081 0.100000 0.075292 128 128 255 -0.012498 0.932456 -0.361068
0.972487 0.100000 0.078780 128 128 255 -0.136273 0.315411 -0.939120
0.979154 0.143190 0.091710 128 128 255 -0.092429 0.302861 -0.948542
0.983476 0.187015 0.104854 128 128 255 -0.085024 0.298969 -0.950467
0.985399 0.231337 0.118214 128 128 255 -0.077336 0.296632 -0.951855
0.984881 0.276014 0.131787 128 128 255 -0.069526 0.295871 -0.952694
0.981888 0.320901 0.145574 128 128 255 -0.061760 0.296692 -0.952974
0.976392 0.365851 0.159574 128 128 255 -0.054205 0.299087 -0.952685
0.968378 0.410711 0.173785 128 128 255 -0.047027 0.303032 -0.951819
0.957839 0.455329 0.188206 128 128 255 -0.040395 0.308486 -0.950371
0.944778 0.499550 0.202835 128 128 255 -0.034470 0.315393 -0.948335
0.929206 0.543220 0.217671 128 128 255 -0.029412 0.323683 -0.945708
0.911147 0.586183 0.232711 128 128 255 -0.025375 0.333268 -0.942491
0.890632 0.628283 0.247954 128 128 255 -0.022503 0.344049 -0.938682
0.867705 0.669369 0.263396 128 128 255 -0.020933 0.355909 -0.934286
0.842418 0.709287 0.279034 128 128 255 -0.020791 0.368721 -0.929308
0.814835 0.747889 0.294866 128 128 255 -0.022192 0.382345 -0.923753
0.785028 0.785028 0.310887 128 128 255 -0.025236 0.396631 -0.917631
0.753079 0.820561 0.327093 128 128 255 -0.030011 0.411419 -0.910952
0.719081 0.854353 0.343480 128 128 255 -0.036589 0.426541 -0.903728
0.683136 0.886269 0.360043 128 128 255 -0.045028 0.441823 -0.895972
0.645356 0.916183 0.376777 128 128 255 -0.055368 0.457085 -0.887698
0.605859 0.943975 0.393676 128 128 255 -0.067633 0.472144 -0.878923
0.564775 0.969533 0.410734 128 128 255 -0.081832 0.486816 -0.869663
0.522240 0.992751 0.427944 128 128 255 -0.097956 0.500915 -0.859935
0.478398 1.013533 0.445299 128 128 255 -0.115978 0.514257 -0.849758
0.433400 1.031791 0.462791 128 128 255 -0.135859 0.526661 -0.839149
0.387405 1.047448 0.480412 128 128 255 -0.157540 0.537947 -0.828127
0.340576 1.060435 0.498152 128 128 255 -0.180949 0.547944 -0.816710
0.293083 1.070695 0.516004 128 128 255 -0.205998 0.556485 -0.804916
0.245100 1.078183 0.533956 128 128 255 -0.232587 0.563410 -0.792762
0.196803 1.082862 0.551997 128 128 255 -0.260600 0.568569 -0.780267
0.148376 1.084711 0.570117 128 128 255 -0.289910 0.571819 -0.767447
0.100000 1.083718 0.588303 128 128 255 -0.320381 0.573029 -0.754317
0.051861 1.079885 0.606543 128 128 255 -0.351861 0.572077 -0.740892
0.004145 1.073227 0.624823 128 128 255 -0.384191 0.568854 -0.727188
-0.042962 1.063771 0.643130 128 128 255 -0.417204 0.563262 -0.713216
-0.089276 1.051556 0.661447 128 128 255 -0.450725 0.555212 -0.698989
-0.134615 1.036636 0.679761 128 128 255 -0.484569 0.544634 -0.684519
-0.178798 1.019075 0.698054 128 128 255 -0.518548 0.531466 -0.669815
-0.221651 0.998953 0.716309 128 128 255 -0.552466 0.515659 -0.654887
-0.263001 0.976362 0.734509 128 128 255 -0.586124 0.497180 -0.639743
-0.302684 0.951403 0.752635 128 128 255 -0.619317 0.476008 -0.624390
-0.340541 0.924194 0.770667 128 128 255 -0.651839 0.452134 -0.608835
-0.376421 0.894860 0.788587 128 128 255 -0.683481 0.425565 -0.593083
-0.410182 0.863542 0.806371 128 128 255 -0.714031 0.396322 -0.577139
-0.441692 0.830387 0.824000 128 128 255 -0.743275 0.364438 -0.561006
-0.470827 0.795555 0.841450 128 128 255 -0.771000 0.329960 -0.544688
-0.497477 0.759214 0.858699 128 128 255 -0.796992 0.292950 -0.528189
-0.521541 0.721541 0.875723 128 128 255 -0.821038 0.253486 -0.511510
-0.542935 0.682722 0.892496 128 128 255 -0.842924 0.211655 -0.494653
-0.561583 0.642947 0.908995 128 128 255 -0.862439 0.167566 -0.477621
-0.577427 0.602414 0.925193 128 128 255 -0.879372 0.121337 -0.460415
-0.590423 0.561326 0.941063 128 128 255 -0.893517 0.073104 -0.443038
-0.600541 0.519888 0.956579 128 128 255 -0.904670 0.023018 -0.425492
-0.607766 0.478309 0.971714 128 128 255 -0.912627 -0.028754 -0.407780
-0.612101 0.436799 0.986438 128 128 255 -0.917194 -0.082028 -0.389906
-0.613563 0.395568 1.000725 128 128 255 -0.918177 -0.136603 -0.371874
-0.612187 0.354825 1.014544 128 128 255 -0.915390 -0.192258 -0.353692
-0.608021 0.314776 1.027868 128 128 255 -0.908653 -0.248756 -0.335367
-0.601133 0.275625 1.040667 128 128 255 -0.897793 -0.305837 -0.316909
-0.591604 0.237569 1.052910 128 128 255 -0.882648 -0.363223 -0.298331
-0.579532 0.200799 1.064570 128 128 255 -0.863066 -0.420611 -0.279650
-0.565029 0.165500 1.075617 128 128 255 -0.838906 -0.477678 -0.260883
-0.548223 0.131845 1.086021 128 128 255 -0.810047 -0.534072 -0.242056
-0.529254 0.100000 1.095753 128 128 255 -0.776383 -0.589417 -0.223197
-0.508278 0.070117 1.104784 128 128 255 -0.737831 -0.643312 -0.204340
-0.485461 0.042337 1.113087 128 128 255 -0.694334 -0.695327 -0.185529
-0.460981 0.016786 1.120633 128 128 255 -0.645867 -0.745004 -0.166811
-0.435025 -0.006423 1.127395 128 128 255 -0.592442 -0.791856 -0.148244
-0.407791 -0.027195 1.133347 128 128 255 -0.534118 -0.835371 -0.129898
-0.379483 -0.045450 1.138463 128 128 255 -0.471001 -0.875013 -0.111849
-0.350312 -0.061124 1.142720 128 128 255 -0.403263 -0.910224 -0.094188
-0.320493 -0.074174 1.146093 128 128 255 -0.331142 -0.940433 -0.077018
-0.290245 -0.084572 1.148560 128 128 255 -0.254956 -0.965061 -0.060453
-0.259789 -0.092311 1.150102 128 128 255 -0.175110 -0.983537 -0.044621
-0.229343 -0.097401 1.150698 128 128 255 -0.092105 -0.995307 -0.029662
-0.199128 -0.099871 1.150332 128 128 255 -0.006545 -0.999855 -0.015728
-0.169359 -0.099770 1.148987 128 128 255 0.080865 -0.996721 -0.002976
-0.140244 -0.097163 1.146650 128 128 255 0.169317 -0.985526 0.008428
-0.111989 -0.092136 1.143309 128 128 255 0.257909 -0.965996 0.018319
-0.084788 -0.084788 1.138953 128 128 255 0.345658 -0.937985 0.026534
-0.058827 -0.075239 1.133575 128 128 255 0.431524 -0.901500 0.032923
-0.034280 -0.063621 1.127170 128 128 255 0.514436 -0.856715 0.037348
-0.011309 -0.050082 1.119735 128 128 255 0.593326 -0.803982 0.039699
0.009940 -0.034784 1.111268 128 128 255 0.667170 -0.743837 0.039889
0.029334 -0.017899 1.101771 128 128 255 0.735023 -0.676984 0.037869
0.046757 0.000389 1.091250 128 128 255 0.796059 -0.604285 0.033622
0.062110 0.019887 1.079709 128 128 255 0.849603 -0.526722 0.027172
0.075312 0.040397 1.067158 128 128 255 0.895154 -0.445370 0.018576
0.086300 0.061711 1.053610 128 128 255 0.932396 -0.361350 0.007928
0.095032 0.083622 1.039078 128 128 255 0.961205 -0.275794 -0.004653
0.101482 0.105918 1.023580 128 128 255 0.981638 -0.189801 -0.019020
0.105647 0.128388 1.007134 128 128 255 0.993918 -0.104407 -0.035013
0.107538 0.150820 0.989762 128 128 255 0.998411 -0.020557 -0.052459
0.107191 0.173010 0.971488 128 128 255 0.995602 0.060913 -0.071181
0.104655 0.194756 0.952339 128 128 255 0.986062 0.139287 -0.091001
0.100000 0.215863 0.932343 128 128 255 0.970427 0.213973 -0.111745
0.093312 0.236144 0.911531 128 128 255 0.949370 0.284504 -0.133247
0.084692 0.255424 0.889935 128 128 255 0.923579 0.350527 -0.155347
0.074258 0.273538 0.867590 128 128 255 0.893741 0.411800 -0.177899
0.062140 0.290333 0.844532 128 128 255 0.860526 0.468176 -0.200765
0.048482 0.305671 0.820798 128 128 255 0.824577 0.519594 -0.223817
0.033437 0.319429 0.796428 128 128 255 0.786504 0.566069 -0.246936
0.017169 0.331498 0.771462 128 128 255 0.746872 0.607679 -0.270015
-0.000152 0.341787 0.745941 128 128 255 0.706208 0.644554 -0.292952
-0.018346 0.350222 0.719909 128 128 255 0.664988 0.676872 -0.315652
-0.037233 0.356744 0.693408 128 128 255 0.623645 0.704845 -0.338026
-0.056627 0.361316 0.666482 128 128 255 0.582564 0.728715 -0.359992
-0.076341 0.363913 0.639176 128 128 255 0.542085 0.748748 -0.381470
-0.096191 0.364533 0.611533 128 128 255 0.502503 0.765230 -0.402385
-0.115992 0.363187 0.583599 128 128 255 0.464069 0.778457 -0.422663
-0.135564 0.359905 0.555419 128 128 255 0.426989 0.788738 -0.442237
-0.154733 0.354733 0.527035 128 128 255 0.391431 0.796383 -0.461038
-0.173329 0.347731 0.498494 128 128 255 0.357520 0.801707 -0.479005
-0.191193 0.338976 0.469838 128 128 255 0.325343 0.805023 -0.496074
-0.208173 0.328557 0.441109 128 128 255 0.294949 0.806639 -0.512190
-0.224129 0.316576 0.412351 128 128 255 0.266351 0.806854 -0.527298
-0.238930 0.303147 0.383604 128 128 255 0.239529 0.805958 -0.541347
-0.252460 0.288394 0.354909 128 128 255 0.214429 0.804227 -0.554292
-0.264614 0.272449 0.326305 128 128 255 0.190967 0.801917 -0.566092
-0.275301 0.255455 0.297830 128 128 255 0.169031 0.799270 -0.576711
-0.284446 0.237557 0.269520 128 128 255 0.148486 0.796503 -0.586118
-0.291985 0.218907 0.241411 128 128 255 0.129173 0.793810 -0.594289
-0.297872 0.199662 0.213537 128 128 255 0.110913 0.791360 -0.601205
-0.302075 0.179978 0.185931 128 128 255 0.093512 0.789293 -0.606854
-0.304574 0.160013 0.158624 128 128 255 0.076764 0.787721 -0.611230
-0.305368 0.139925 0.131644 128 128 255 0.060453 0.786728 -0.614333
-0.304467 0.119870 0.105021 128 128 255 0.044358 0.786364 -0.616169
-0.301897 0.100000 0.078780 128 128 255 0.022574 0.818570 -0.573963
1.078894 0.100000 0.053631 128 128 255 0.041765 0.314444 -0.948357
1.088149 0.148545 0.069658 128 128 255 -0.009030 0.316621 -0.948509
1.094805 0.197980 0.086064 128 128 255 0.004643 0.316477 -0.948589
1.098789 0.248156 0.102854 128 128 255 0.017661 0.318495 -0.947760
1.100038 0.298920 0.120026 128 128 255 0.029796 0.322578 -0.946074
1.098500 0.350111 0.137583 128 128 255 0.040842 0.328611 -0.943582
1.094128 0.401565 0.155525 128 128 255 0.050608 0.336458 -0.940338
1.086888 0.453114 0.173852 128 128 255 0.058926 0.345970 -0.936393
1.076757 0.504586 0.192565 128 128 255 0.065647 0.356985 -0.931800
1.063721 0.555806 0.211664 128 128 255 0.070640 0.369334 -0.926608
1.047777 0.606597 0.231147 128 128 255 0.073798 0.382835 -0.920864
1.028933 0.656781 0.251015 128 128 255 0.075031 0.397306 -0.914614
1.007210 0.706178 0.271265 128 128 255 0.074268 0.412559 -0.907898
0.982638 0.754609 0.291896 128 128 255 0.071457 0.428403 -0.900758
0.955261 0.801895 0.312907 128 128 255 0.066565 0.444649 -0.893228
0.925133 0.847857 0.334294 128 128 255 0.059571 0.461109 -0.885341
0.892321 0.892321 0.356055 128 128 255 0.050475 0.477597 -0.877128
0.856903 0.935113 0.378187 128 128 255 0.039288 0.493929 -0.868614
0.818968 0.976065 0.400685 128 128 255 0.026036 0.509926 -0.859824
0.778619 1.015012 0.423545 128 128 255 0.010757 0.525416 -0.850778
0.735968 1.051794 0.446763 128 128 255 -0.006498 0.540229 -0.841493
0.691140 1.086257 0.470333 128 128 255 -0.025667 0.554203 -0.831985
0.644269 1.118256 0.494249 128 128 255 -0.046680 0.567183 -0.822268
0.595502 1.147651 0.518504 128 128 255 -0.069455 0.579019 -0.812350
0.544994 1.174311 0.543090 128 128 255 -0.093901 0.589568 -0.802242
0.492912 1.198115 0.568000 128 128 255 -0.119921 0.598696 -0.791948
0.439430 1.218951 0.593224 128 128 255 -0.147409 0.606275 -0.781474
0.384733 1.236719 0.618754 128 128 255 -0.176251 0.612184 -0.770822
0.329013 1.251328 0.644578 128 128 255 -0.206328 0.616310 -0.759994
0.272470 1.262701 0.670686 128 128 255 -0.237515 0.618549 -0.748989
0.215311 1.270773 0.697065 128 128 255 -0.269680 0.618801 -0.737806
0.157748 1.275493 0.723702 128 128 255 -0.302685 0.616979 -0.726443
0.100000 1.276823 0.750584 128 128 255 -0.336389 0.612998 -0.714895
0.042289 1.274740 0.777694 128 128 255 -0.370645 0.606786 -0.703159
-0.015160 1.269235 0.805017 128 128 255 -0.405300 0.598276 -0.691230
-0.072117 1.260315 0.832535 128 128 255 -0.440198 0.587409 -0.679100
-0.128352 1.248004 0.860230 128 128 255 -0.475179 0.574135 -0.666763
